ncols         241
nrows         51
xllcorner     561550
yllcorner     5820100
cellsize      50
NODATA_value  -9999
-9999 -9999 -9999 -9999 -9999 -9999 -9999 -9999 -9999 -9999 -9999 -9999 -9999 -9999 -9999 -9999 -9999 -9999 -9999 -9999 -9999 -9999 -9999 -9999 905.6572 904.6393 903.3215 901.7367 900.0325 898.4062 896.933 895.7748 894.9648 894.1923 893.0785 892.2836 891.7169 891.4089 891.0115 890.6685 890.3875 890.1605 889.9796 889.8373 889.7272 889.6429 889.58 889.5341 889.5015 889.4802 889.4702 889.4701 889.4778 889.4916 889.5099 889.532 889.5576 889.5851 889.614 889.6427 889.6706 889.6969 889.7217 889.7452 889.7678 889.7898 889.8113 889.8322 889.8519 889.8699 889.8849 889.8955 889.9 889.8971 889.8843 889.8619 889.8311 889.7929 889.7487 889.6997 889.646 889.5884 889.5272 889.4624 889.3955 889.3285 889.2648 889.208 889.1595 889.1217 889.0953 889.0782 889.0691 889.0649 889.0601 889.054 889.0496 889.0457 889.0359 889.019 889.0038 888.9948 888.991 888.9821 888.9663 888.9437 888.9135 888.889 888.8705 888.856 888.8427 888.8321 888.8288 888.8356 888.8631 888.9193 889.0037 889.1026 889.2091 889.3137 889.4043 889.472 889.5652 889.642 889.9169 890.3601 890.798 891.3696 891.7649 891.9825 892.2249 892.4645 892.6983 893.0284 893.7125 894.3982 894.8634 895.3903 895.8311 895.9861 895.7529 895.7015 896.0539 896.9629 898.0522 899.0771 899.9726 901.1444 -9999 -9999 -9999 -9999 -9999 -9999 -9999 -9999 -9999 -9999 -9999 -9999 -9999 -9999 -9999 -9999 -9999 -9999 -9999 -9999 -9999 -9999 -9999 -9999 -9999 -9999 -9999 -9999 -9999 -9999 -9999 -9999 -9999 -9999 -9999 -9999 -9999 -9999 -9999 -9999 -9999 -9999 -9999 -9999 -9999 -9999 -9999 -9999 -9999 -9999 -9999 -9999 -9999 -9999 -9999 -9999 -9999 -9999 -9999 -9999 -9999 -9999 -9999 -9999 -9999 -9999 -9999 -9999 -9999 -9999 -9999 -9999 -9999 -9999 -9999 -9999 -9999 -9999 -9999 -9999 -9999 -9999 -9999 -9999 -9999 -9999 -9999 -9999 -9999 -9999 -9999 -9999 -9999
-9999 -9999 -9999 -9999 -9999 -9999 -9999 -9999 -9999 -9999 -9999 -9999 -9999 -9999 -9999 -9999 -9999 -9999 -9999 -9999 -9999 -9999 -9999 905.8737 904.7686 903.4028 901.8514 900.2126 898.6283 897.1526 895.8437 894.816 894.3193 893.6479 892.8555 892.0704 891.4668 891.2079 890.9193 890.632 890.376 890.1604 889.985 889.8456 889.7368 889.6533 889.5906 889.5449 889.5126 889.4909 889.4794 889.4775 889.4836 889.4959 889.5132 889.5345 889.5592 889.5863 889.6147 889.6435 889.6716 889.6986 889.7244 889.7491 889.7726 889.7953 889.8171 889.8381 889.8575 889.8748 889.8888 889.8979 889.9 889.8949 889.8807 889.8573 889.8253 889.7861 889.7412 889.6914 889.6378 889.5804 889.5198 889.4554 889.3885 889.3207 889.2541 889.1924 889.1382 889.0922 889.0563 889.0295 889.0098 888.996 888.9846 888.9704 888.9563 888.9464 888.9385 888.9272 888.9143 888.9078 888.9048 888.9059 888.8964 888.8811 888.8569 888.829 888.8049 888.7831 888.7636 888.7495 888.7454 888.7548 888.7805 888.8317 888.9084 889.0021 889.0958 889.1817 889.251 889.3026 889.3542 889.4241 889.6007 889.8698 890.0515 890.6412 891.1514 891.3687 891.7834 892.1754 892.5245 892.9219 893.4113 894.0104 894.5778 895.3273 895.9814 896.1782 896.05 896.1229 896.5035 897.163 897.9512 898.8568 899.9137 901.127 -9999 -9999 -9999 -9999 -9999 -9999 -9999 -9999 -9999 -9999 -9999 -9999 -9999 -9999 -9999 -9999 -9999 -9999 -9999 -9999 -9999 -9999 -9999 -9999 -9999 -9999 -9999 -9999 -9999 -9999 -9999 -9999 -9999 -9999 -9999 -9999 -9999 -9999 -9999 -9999 -9999 -9999 -9999 -9999 -9999 -9999 -9999 -9999 -9999 -9999 -9999 -9999 -9999 -9999 -9999 -9999 -9999 -9999 -9999 -9999 -9999 -9999 -9999 -9999 -9999 -9999 -9999 -9999 -9999 -9999 -9999 -9999 -9999 -9999 -9999 -9999 -9999 -9999 -9999 -9999 -9999 -9999 -9999 -9999 -9999 -9999 -9999 -9999 -9999 -9999 -9999 -9999 -9999
-9999 -9999 -9999 -9999 -9999 -9999 -9999 -9999 -9999 -9999 -9999 -9999 -9999 -9999 -9999 -9999 -9999 -9999 -9999 -9999 -9999 -9999 906.0841 904.923 903.5541 901.9663 900.3057 898.7364 897.2921 896 894.8348 894.041 893.5355 892.9849 892.4258 891.8652 891.4313 891.1365 890.864 890.6042 890.3691 890.1669 889.9991 889.8636 889.7565 889.6735 889.6102 889.5637 889.5306 889.5084 889.4954 889.4911 889.4949 889.5052 889.5208 889.5408 889.5642 889.5903 889.6179 889.6461 889.6741 889.7014 889.7278 889.7532 889.7773 889.8003 889.8223 889.8431 889.8621 889.8786 889.8917 889.9 889.9006 889.8942 889.8795 889.856 889.8242 889.7849 889.7396 889.6895 889.6357 889.5789 889.5184 889.4547 889.3881 889.32 889.2523 889.1869 889.1279 889.076 889.0319 888.9962 888.9669 888.9425 888.9227 888.9031 888.881 888.8621 888.8491 888.8391 888.8295 888.8227 888.8224 888.8221 888.8245 888.8123 888.7946 888.7694 888.7439 888.7201 888.6978 888.6794 888.6719 888.6816 888.7101 888.7584 888.8292 888.9131 888.9983 889.0736 889.1342 889.176 889.2067 889.2448 889.328 889.4491 889.571 889.8646 890.038 890.2944 891.1057 891.7366 892.1997 892.5727 892.9794 893.5852 894.3494 895.13 895.934 896.3725 896.6818 897.0239 897.2184 897.631 898.15 898.7992 899.5958 -9999 -9999 -9999 -9999 -9999 -9999 -9999 -9999 -9999 -9999 -9999 -9999 -9999 -9999 -9999 -9999 -9999 -9999 -9999 -9999 -9999 -9999 -9999 -9999 -9999 -9999 -9999 -9999 -9999 -9999 -9999 -9999 -9999 -9999 -9999 -9999 -9999 -9999 -9999 -9999 -9999 -9999 -9999 -9999 -9999 -9999 -9999 -9999 -9999 -9999 -9999 -9999 -9999 -9999 -9999 -9999 -9999 -9999 -9999 -9999 -9999 -9999 -9999 -9999 -9999 -9999 -9999 -9999 -9999 -9999 -9999 -9999 -9999 -9999 -9999 -9999 -9999 -9999 -9999 -9999 -9999 -9999 -9999 -9999 -9999 -9999 -9999 -9999 -9999 -9999 -9999 -9999 -9999 -9999
-9999 -9999 -9999 -9999 -9999 -9999 -9999 -9999 -9999 -9999 -9999 -9999 -9999 -9999 -9999 -9999 -9999 -9999 -9999 -9999 -9999 906.4598 905.2285 903.838 902.2593 900.5381 898.884 897.3934 896.1427 895.152 894.2991 893.4952 892.9561 892.4932 892.0575 891.6666 891.4196 891.1147 890.8394 890.5911 890.3704 890.1797 890.0195 889.8883 889.783 889.7002 889.6364 889.5884 889.5538 889.5302 889.5157 889.5095 889.5109 889.5189 889.5323 889.5504 889.5721 889.5968 889.6233 889.6506 889.678 889.705 889.7314 889.7571 889.7816 889.8048 889.8268 889.8472 889.8656 889.8811 889.8931 889.9 889.9008 889.8944 889.8804 889.858 889.8273 889.7889 889.7441 889.6942 889.6403 889.5833 889.5233 889.4598 889.3936 889.3253 889.257 889.1902 889.127 889.0706 889.0204 888.9769 888.9396 888.9058 888.8759 888.849 888.8217 888.7947 888.7746 888.7607 888.751 888.7451 888.7427 888.7446 888.7439 888.7435 888.728 888.7073 888.6833 888.6613 888.6414 888.6236 888.6128 888.6178 888.645 888.6931 888.7582 888.8346 888.9099 888.9788 889.0361 889.0759 889.0945 889.1025 889.1178 889.1428 889.1783 889.2727 889.3595 889.5964 890.1944 891.1038 891.7155 892.0898 892.4794 893 893.749 894.6159 895.4828 896.0868 896.6625 897.126 897.5511 897.9828 898.463 898.9647 899.5475 -9999 -9999 -9999 -9999 -9999 -9999 -9999 -9999 -9999 -9999 -9999 -9999 -9999 -9999 -9999 -9999 -9999 -9999 -9999 -9999 -9999 -9999 -9999 -9999 -9999 -9999 -9999 -9999 -9999 -9999 -9999 -9999 -9999 -9999 -9999 -9999 -9999 -9999 -9999 -9999 -9999 -9999 -9999 -9999 -9999 -9999 -9999 -9999 -9999 -9999 -9999 -9999 -9999 -9999 -9999 -9999 -9999 -9999 -9999 -9999 -9999 -9999 -9999 -9999 -9999 -9999 -9999 -9999 -9999 -9999 -9999 -9999 -9999 -9999 -9999 -9999 -9999 -9999 -9999 -9999 -9999 -9999 -9999 -9999 -9999 -9999 -9999 -9999 -9999 -9999 -9999 -9999 -9999 -9999
-9999 -9999 -9999 -9999 -9999 -9999 -9999 -9999 -9999 -9999 -9999 -9999 -9999 -9999 -9999 -9999 -9999 -9999 -9999 -9999 906.7751 905.7101 904.3978 902.735 901.0027 899.2797 897.5911 896.2165 895.2214 894.4445 893.7267 893.0299 892.5739 892.1672 891.7858 891.44 891.2657 891.0438 890.8083 890.5825 890.3771 890.1971 890.044 889.9168 889.8132 889.7307 889.6661 889.6166 889.58 889.5544 889.5382 889.5303 889.5295 889.5353 889.5466 889.5626 889.5824 889.6053 889.6304 889.6564 889.6829 889.7092 889.7354 889.761 889.7854 889.8087 889.8304 889.8503 889.8679 889.8825 889.8936 889.9 889.901 889.8956 889.8832 889.8627 889.834 889.7975 889.7542 889.7048 889.6511 889.5939 889.5339 889.4708 889.4045 889.3362 889.267 889.1992 889.1339 889.0731 889.0187 888.9693 888.925 888.884 888.8451 888.8096 888.7756 888.7427 888.7149 888.6959 888.6831 888.6756 888.672 888.6705 888.6713 888.6682 888.6616 888.6429 888.6217 888.6023 888.5865 888.5753 888.5669 888.5671 888.5862 888.629 888.6896 888.7583 888.8265 888.8879 888.9431 888.985 889.0013 888.9917 888.9678 888.9366 888.9077 888.9041 888.9383 889.1126 889.5314 890.1902 891.0389 891.4531 891.9272 892.4764 893.2021 894.2746 895.1157 895.8983 896.4152 896.8348 897.356 897.9259 898.5638 899.203 -9999 -9999 -9999 -9999 -9999 -9999 -9999 -9999 -9999 -9999 -9999 -9999 -9999 -9999 -9999 -9999 -9999 -9999 -9999 -9999 -9999 -9999 -9999 -9999 -9999 -9999 -9999 -9999 -9999 -9999 -9999 -9999 -9999 -9999 -9999 -9999 -9999 -9999 -9999 -9999 -9999 -9999 -9999 -9999 -9999 -9999 -9999 -9999 -9999 -9999 -9999 -9999 -9999 -9999 -9999 -9999 -9999 -9999 -9999 -9999 -9999 -9999 -9999 -9999 -9999 -9999 -9999 -9999 -9999 -9999 -9999 -9999 -9999 -9999 -9999 -9999 -9999 -9999 -9999 -9999 -9999 -9999 -9999 -9999 -9999 -9999 -9999 -9999 -9999 -9999 -9999 -9999 -9999 -9999 -9999
-9999 -9999 -9999 -9999 -9999 -9999 -9999 -9999 -9999 -9999 -9999 -9999 -9999 -9999 -9999 -9999 -9999 -9999 907.6982 906.8588 905.9355 904.739 903.1647 901.3674 899.5675 897.8257 896.3241 895.25 894.4686 893.8593 893.3436 892.9039 892.4168 892.014 891.6868 891.4285 891.2222 891.0104 890.793 890.5829 890.3896 890.2186 890.0714 889.9476 889.8455 889.7631 889.6975 889.6464 889.6077 889.58 889.5617 889.5518 889.5491 889.5527 889.562 889.576 889.594 889.6152 889.6388 889.6634 889.6886 889.7141 889.7397 889.7648 889.789 889.812 889.8334 889.8527 889.8698 889.8836 889.8939 889.9 889.9015 889.8977 889.8875 889.8698 889.844 889.8101 889.7687 889.7207 889.6677 889.6106 889.5503 889.4868 889.4203 889.3517 889.2819 889.2123 889.1458 889.0823 889.0234 888.9698 888.9202 888.8735 888.8279 888.7844 888.7435 888.7043 888.6697 888.6437 888.6268 888.6165 888.6104 888.6064 888.6037 888.6013 888.5927 888.579 888.5604 888.5427 888.5315 888.5255 888.5256 888.5269 888.5375 888.5681 888.6194 888.6807 888.7409 888.796 888.8473 888.8912 888.9122 888.9002 888.8616 888.807 888.7455 888.6977 888.6926 888.7913 889.0571 889.493 890.0558 890.6544 891.3295 892.0294 892.9152 893.8546 894.6389 895.4364 896.0025 896.4612 897.0071 897.683 898.4133 899.1832 -9999 -9999 -9999 -9999 -9999 -9999 -9999 -9999 -9999 -9999 -9999 -9999 -9999 -9999 -9999 -9999 -9999 -9999 -9999 -9999 -9999 -9999 -9999 -9999 -9999 -9999 -9999 -9999 -9999 -9999 -9999 -9999 -9999 -9999 -9999 -9999 -9999 -9999 -9999 -9999 -9999 -9999 -9999 -9999 -9999 -9999 -9999 -9999 -9999 -9999 -9999 -9999 -9999 -9999 -9999 -9999 -9999 -9999 -9999 -9999 -9999 -9999 -9999 -9999 -9999 -9999 -9999 -9999 -9999 -9999 -9999 -9999 -9999 -9999 -9999 -9999 -9999 -9999 -9999 -9999 -9999 -9999 -9999 -9999 -9999 -9999 -9999 -9999 -9999 -9999 -9999 -9999 -9999 -9999 -9999
-9999 -9999 -9999 -9999 -9999 -9999 -9999 -9999 -9999 -9999 -9999 -9999 -9999 -9999 -9999 -9999 -9999 -9999 906.9702 906.1295 905.0527 903.5527 901.7299 899.8033 897.9718 896.4103 895.278 894.46 893.8419 893.3578 892.9529 892.6002 892.2218 891.8893 891.6273 891.43 891.2211 891.0063 890.7938 890.592 890.4071 890.2428 890.1003 889.9792 889.8783 889.7957 889.729 889.6764 889.636 889.6061 889.5856 889.5736 889.5688 889.5706 889.5779 889.59 889.6062 889.6259 889.6479 889.6711 889.6951 889.7196 889.7441 889.7686 889.7921 889.8147 889.8357 889.8546 889.871 889.8844 889.894 889.9 889.9023 889.9004 889.8928 889.8783 889.8559 889.8254 889.787 889.7412 889.6892 889.6326 889.5721 889.508 889.4409 889.3711 889.3005 889.2298 889.1605 889.0953 889.0335 888.9756 888.9218 888.8707 888.8202 888.7701 888.7231 888.6788 888.6376 888.6044 888.5814 888.5676 888.5588 888.5519 888.5465 888.541 888.5323 888.5175 888.5015 888.4869 888.4753 888.4749 888.4823 888.4892 888.4958 888.5142 888.552 888.6021 888.6538 888.701 888.7466 888.7905 888.8174 888.8132 888.7787 888.7245 888.6584 888.5959 888.5649 888.6063 888.7576 889.037 889.4316 889.9321 890.6024 891.4632 892.5466 893.5231 894.4567 895.1414 895.6368 896.0659 896.6213 897.3211 898.1533 898.9392 899.7464 -9999 -9999 -9999 -9999 -9999 -9999 -9999 -9999 -9999 -9999 -9999 -9999 -9999 -9999 -9999 -9999 -9999 -9999 -9999 -9999 -9999 -9999 -9999 -9999 -9999 -9999 -9999 -9999 -9999 -9999 -9999 -9999 -9999 -9999 -9999 -9999 -9999 -9999 -9999 -9999 -9999 -9999 -9999 -9999 -9999 -9999 -9999 -9999 -9999 -9999 -9999 -9999 -9999 -9999 -9999 -9999 -9999 -9999 -9999 -9999 -9999 -9999 -9999 -9999 -9999 -9999 -9999 -9999 -9999 -9999 -9999 -9999 -9999 -9999 -9999 -9999 -9999 -9999 -9999 -9999 -9999 -9999 -9999 -9999 -9999 -9999 -9999 -9999 -9999 -9999 -9999 -9999 -9999 -9999
-9999 -9999 -9999 -9999 -9999 -9999 -9999 -9999 -9999 -9999 -9999 -9999 -9999 -9999 -9999 -9999 -9999 907.1138 906.2686 905.4084 904.1788 902.3209 900.2425 898.2103 896.4981 895.2933 894.4438 893.8133 893.3358 892.9492 892.6177 892.3195 892.0226 891.7566 891.5515 891.4277 891.2209 891.007 890.7997 890.605 890.427 890.2683 890.1295 890.0107 889.9106 889.8277 889.76 889.7057 889.6634 889.6318 889.6096 889.5955 889.5887 889.5886 889.5941 889.6046 889.6191 889.6372 889.6578 889.6797 889.7024 889.7258 889.7493 889.7727 889.7955 889.8175 889.8379 889.8564 889.8724 889.8854 889.8945 889.9 889.9037 889.9038 889.8989 889.8876 889.8689 889.8422 889.8073 889.7644 889.7145 889.6588 889.5983 889.5336 889.4653 889.3944 889.3218 889.2495 889.1784 889.1097 889.0459 888.9851 888.9272 888.8723 888.8186 888.7639 888.7111 888.6626 888.6174 888.5778 888.5478 888.5282 888.5161 888.5068 888.4984 888.491 888.4807 888.4659 888.4501 888.4381 888.4271 888.422 888.4387 888.4513 888.4561 888.4656 888.4915 888.5294 888.5708 888.6089 888.6454 888.6843 888.7157 888.7214 888.7 888.6602 888.6103 888.5549 888.5156 888.5226 888.6063 888.788 889.0754 889.4706 890.0021 890.839 891.8153 893.0748 894.2562 894.8926 895.4487 895.9543 896.3578 896.9109 897.7119 898.4836 899.208 899.9681 -9999 -9999 -9999 -9999 -9999 -9999 -9999 -9999 -9999 -9999 -9999 -9999 -9999 -9999 -9999 -9999 -9999 -9999 -9999 -9999 -9999 -9999 -9999 -9999 -9999 -9999 -9999 -9999 -9999 -9999 -9999 -9999 -9999 -9999 -9999 -9999 -9999 -9999 -9999 -9999 -9999 -9999 -9999 -9999 -9999 -9999 -9999 -9999 -9999 -9999 -9999 -9999 -9999 -9999 -9999 -9999 -9999 -9999 -9999 -9999 -9999 -9999 -9999 -9999 -9999 -9999 -9999 -9999 -9999 -9999 -9999 -9999 -9999 -9999 -9999 -9999 -9999 -9999 -9999 -9999 -9999 -9999 -9999 -9999 -9999 -9999 -9999 -9999 -9999 -9999 -9999 -9999 -9999
-9999 -9999 -9999 -9999 -9999 -9999 -9999 -9999 -9999 -9999 -9999 -9999 -9999 -9999 -9999 -9999 -9999 906.5609 905.6938 904.6162 902.9856 900.9788 898.8318 896.8085 895.3971 894.4493 893.7767 893.3085 892.9459 892.6274 892.3497 892.0967 891.854 891.6284 891.432 891.3329 891.1769 890.9913 890.8002 890.6161 890.446 890.293 890.158 890.0411 889.9417 889.8582 889.7894 889.7336 889.6896 889.6563 889.6324 889.6167 889.6083 889.6064 889.6105 889.6195 889.6326 889.6492 889.6685 889.6893 889.7108 889.7329 889.7551 889.7776 889.7996 889.8206 889.8403 889.8583 889.874 889.8871 889.896 889.9 889.9056 889.908 889.9054 889.897 889.8816 889.8586 889.8278 889.7885 889.7413 889.6875 889.6277 889.5626 889.4933 889.4207 889.3463 889.271 889.1973 889.1261 889.058 888.9951 888.9347 888.8759 888.8193 888.7627 888.7053 888.652 888.6041 888.5609 888.5251 888.4991 888.4819 888.4701 888.4596 888.4496 888.4391 888.4255 888.4099 888.4023 888.3929 888.38 888.3993 888.4138 888.4177 888.4208 888.4403 888.467 888.4996 888.5283 888.5548 888.5827 888.6113 888.6248 888.617 888.5956 888.5685 888.5385 888.51 888.5073 888.5607 888.7003 888.9518 889.3371 889.8836 890.6067 891.5626 892.8677 893.8997 894.558 895.1869 895.6666 896.0063 896.4797 897.2039 897.8647 898.5781 899.3961 -9999 -9999 -9999 -9999 -9999 -9999 -9999 -9999 -9999 -9999 -9999 -9999 -9999 -9999 -9999 -9999 -9999 -9999 -9999 -9999 -9999 -9999 -9999 -9999 -9999 -9999 -9999 -9999 -9999 -9999 -9999 -9999 -9999 -9999 -9999 -9999 -9999 -9999 -9999 -9999 -9999 -9999 -9999 -9999 -9999 -9999 -9999 -9999 -9999 -9999 -9999 -9999 -9999 -9999 -9999 -9999 -9999 -9999 -9999 -9999 -9999 -9999 -9999 -9999 -9999 -9999 -9999 -9999 -9999 -9999 -9999 -9999 -9999 -9999 -9999 -9999 -9999 -9999 -9999 -9999 -9999 -9999 -9999 -9999 -9999 -9999 -9999 -9999 -9999 -9999 -9999 -9999 -9999
-9999 -9999 -9999 -9999 -9999 -9999 -9999 -9999 -9999 -9999 -9999 -9999 -9999 -9999 -9999 -9999 -9999 906.0144 905.085 903.6704 901.7312 899.6351 897.4011 895.777 894.6288 893.8497 893.29 892.9433 892.6475 892.3846 892.1504 891.9384 891.7438 891.5726 891.4296 891.3008 891.1481 890.9756 890.7972 890.6239 890.4621 890.3151 890.184 890.0693 889.9706 889.8868 889.8169 889.7598 889.7142 889.6793 889.654 889.6367 889.627 889.624 889.6268 889.6346 889.6465 889.662 889.6801 889.6998 889.7201 889.7409 889.762 889.7832 889.804 889.824 889.843 889.8604 889.8759 889.8894 889.9 889.9049 889.91 889.913 889.912 889.9056 889.8931 889.8735 889.8464 889.8109 889.7673 889.7163 889.6581 889.5934 889.5233 889.4493 889.3724 889.2947 889.217 889.1423 889.0714 889.0038 888.9415 888.8804 888.8203 888.7622 888.7033 888.6458 888.5944 888.5492 888.5106 888.4796 888.4572 888.4414 888.4292 888.4172 888.4059 888.3969 888.38 888.38 888.38 888.3705 888.38 888.38 888.38 888.38 888.402 888.4177 888.4442 888.4656 888.4838 888.4999 888.5163 888.5291 888.53 888.5256 888.5204 888.5165 888.5149 888.5232 888.5707 888.6962 888.9384 889.3315 889.8887 890.5538 891.5325 892.8206 893.7631 894.4807 895.0472 895.4628 895.7463 896.0516 896.6017 897.2116 898.0001 898.9979 900.4438 -9999 -9999 -9999 -9999 -9999 -9999 -9999 -9999 -9999 -9999 -9999 -9999 -9999 -9999 -9999 -9999 -9999 -9999 -9999 -9999 -9999 -9999 -9999 -9999 -9999 -9999 -9999 -9999 -9999 -9999 -9999 -9999 -9999 -9999 -9999 -9999 -9999 -9999 -9999 -9999 -9999 -9999 -9999 -9999 -9999 -9999 -9999 -9999 -9999 -9999 -9999 -9999 -9999 -9999 -9999 -9999 -9999 -9999 -9999 -9999 -9999 -9999 -9999 -9999 -9999 -9999 -9999 -9999 -9999 -9999 -9999 -9999 -9999 -9999 -9999 -9999 -9999 -9999 -9999 -9999 -9999 -9999 -9999 -9999 -9999 -9999 -9999 -9999 -9999 -9999 -9999 -9999
-9999 -9999 -9999 -9999 -9999 -9999 -9999 -9999 -9999 -9999 -9999 -9999 -9999 -9999 -9999 -9999 -9999 905.4995 904.6579 902.8972 900.6756 898.5423 896.4694 895.1365 894.2934 893.5292 892.9813 892.6917 892.4464 892.2207 892.0143 891.8302 891.6702 891.5388 891.43 891.2913 891.1322 890.9628 890.7922 890.6278 890.474 890.3331 890.2062 890.0941 889.9965 889.9127 889.8419 889.7836 889.7367 889.7004 889.6738 889.6555 889.6448 889.6409 889.6427 889.6497 889.6606 889.675 889.6921 889.7108 889.7303 889.7499 889.7699 889.7899 889.8093 889.8281 889.8458 889.8622 889.8769 889.8898 889.9 889.9077 889.9137 889.9174 889.9174 889.9124 889.902 889.8851 889.8614 889.8299 889.7903 889.7424 889.6867 889.6235 889.5537 889.4788 889.3998 889.3188 889.238 889.1587 889.0836 889.0128 888.946 888.8832 888.8209 888.7601 888.7008 888.6418 888.587 888.5394 888.4996 888.4669 888.441 888.4218 888.4069 888.394 888.38 888.38 888.3631 888.3552 888.3513 888.3455 888.3468 888.3467 888.3488 888.358 888.38 888.38 888.4054 888.4197 888.4362 888.4453 888.4458 888.4458 888.4465 888.4509 888.4645 888.4832 888.5059 888.5363 888.5896 888.7053 888.9282 889.3013 889.8455 890.4415 891.4893 892.7224 893.6036 894.4539 894.9697 895.3427 895.6452 895.9752 896.3054 896.7764 897.6187 898.7953 900.4057 902.899 -9999 -9999 -9999 -9999 -9999 -9999 -9999 -9999 -9999 -9999 -9999 -9999 -9999 -9999 -9999 -9999 -9999 -9999 -9999 -9999 -9999 -9999 -9999 -9999 -9999 -9999 -9999 -9999 -9999 -9999 -9999 -9999 -9999 -9999 -9999 -9999 -9999 -9999 -9999 -9999 -9999 -9999 -9999 -9999 -9999 -9999 -9999 -9999 -9999 -9999 -9999 -9999 -9999 -9999 -9999 -9999 -9999 -9999 -9999 -9999 -9999 -9999 -9999 -9999 -9999 -9999 -9999 -9999 -9999 -9999 -9999 -9999 -9999 -9999 -9999 -9999 -9999 -9999 -9999 -9999 -9999 -9999 -9999 -9999 -9999 -9999 -9999 -9999 -9999 -9999 -9999
-9999 -9999 -9999 -9999 -9999 -9999 -9999 -9999 -9999 -9999 -9999 -9999 -9999 -9999 -9999 -9999 905.9432 904.9321 904.1609 902.1381 899.7195 897.3666 895.6956 894.5839 893.8361 893.2734 892.9286 892.5988 892.3428 892.1254 891.9307 891.7579 891.6119 891.5007 891.4292 891.2791 891.1146 890.9481 890.7847 890.6285 890.4822 890.3474 890.225 890.1156 890.0193 889.9357 889.8645 889.8052 889.7571 889.7197 889.692 889.673 889.6615 889.6569 889.6582 889.6646 889.6748 889.6884 889.7045 889.7224 889.7412 889.76 889.7789 889.7977 889.8158 889.8331 889.8494 889.8644 889.8779 889.89 889.9 889.909 889.916 889.92 889.9203 889.9162 889.9072 889.8923 889.8713 889.8433 889.8075 889.7634 889.711 889.6504 889.582 889.5071 889.4269 889.3436 889.2588 889.1754 889.095 889.0201 888.9496 888.8831 888.8196 888.7562 888.6952 888.6365 888.5804 888.5306 888.4895 888.4568 888.4305 888.4091 888.3921 888.38 888.3633 888.3523 888.3368 888.3245 888.3167 888.3112 888.3101 888.3108 888.3145 888.3246 888.342 888.3547 888.3799 888.38 888.4052 888.4176 888.4098 888.3896 888.3768 888.381 888.4036 888.4403 888.4822 888.5297 888.5906 888.6918 888.8701 889.1552 889.5621 890.1184 891.3098 892.3583 893.2303 894.2954 894.813 895.1768 895.4544 895.704 895.9899 896.5179 897.5304 898.822 900.4496 902.8303 -9999 -9999 -9999 -9999 -9999 -9999 -9999 -9999 -9999 -9999 -9999 -9999 -9999 -9999 -9999 -9999 -9999 -9999 -9999 -9999 -9999 -9999 -9999 -9999 -9999 -9999 -9999 -9999 -9999 -9999 -9999 -9999 -9999 -9999 -9999 -9999 -9999 -9999 -9999 -9999 -9999 -9999 -9999 -9999 -9999 -9999 -9999 -9999 -9999 -9999 -9999 -9999 -9999 -9999 -9999 -9999 -9999 -9999 -9999 -9999 -9999 -9999 -9999 -9999 -9999 -9999 -9999 -9999 -9999 -9999 -9999 -9999 -9999 -9999 -9999 -9999 -9999 -9999 -9999 -9999 -9999 -9999 -9999 -9999 -9999 -9999 -9999 -9999 -9999 -9999 -9999
-9999 -9999 -9999 -9999 -9999 -9999 -9999 -9999 -9999 -9999 -9999 -9999 -9999 -9999 -9999 -9999 905.6791 904.616 903.3961 901.1324 898.7124 896.5189 895.1262 894.2585 893.4436 892.9546 892.6908 892.4597 892.2548 892.0633 891.8817 891.713 891.5614 891.4305 891.3544 891.2307 891.0828 890.9279 890.7747 890.6274 890.4886 890.3597 890.2415 890.1347 890.0397 889.9564 889.8849 889.8246 889.7756 889.7372 889.7087 889.689 889.6771 889.6721 889.673 889.6791 889.6891 889.7021 889.7177 889.735 889.7532 889.7712 889.7892 889.8068 889.8235 889.8392 889.8539 889.8673 889.8796 889.8904 889.9 889.9092 889.9163 889.9203 889.9205 889.9164 889.9078 889.8942 889.875 889.8497 889.8174 889.7772 889.7286 889.6714 889.6056 889.5319 889.4517 889.3666 889.2787 889.1909 889.1061 889.0259 888.9515 888.8811 888.8147 888.7501 888.6867 888.6273 888.5718 888.5216 888.4792 888.4467 888.4217 888.4004 888.38 888.3643 888.3447 888.3241 888.3043 888.2902 888.2791 888.2722 888.2698 888.2712 888.2752 888.2834 888.2969 888.3102 888.3259 888.3461 888.38 888.4027 888.4005 888.3714 888.3359 888.3264 888.3488 888.3938 888.4498 888.509 888.5751 888.6663 888.8138 889.0493 889.4146 890.0075 891.1475 892.0483 892.9902 893.9172 894.5226 894.9518 895.2293 895.4254 895.6733 896.2267 897.5787 899.0717 900.5762 902.6636 904.9933 -9999 -9999 -9999 -9999 -9999 -9999 -9999 -9999 -9999 -9999 -9999 -9999 -9999 -9999 -9999 -9999 -9999 -9999 -9999 -9999 -9999 -9999 -9999 -9999 -9999 -9999 -9999 -9999 -9999 -9999 -9999 -9999 -9999 -9999 -9999 -9999 -9999 -9999 -9999 -9999 -9999 -9999 -9999 -9999 -9999 -9999 -9999 -9999 -9999 -9999 -9999 -9999 -9999 -9999 -9999 -9999 -9999 -9999 -9999 -9999 -9999 -9999 -9999 -9999 -9999 -9999 -9999 -9999 -9999 -9999 -9999 -9999 -9999 -9999 -9999 -9999 -9999 -9999 -9999 -9999 -9999 -9999 -9999 -9999 -9999 -9999 -9999 -9999 -9999 -9999
-9999 -9999 -9999 -9999 -9999 -9999 -9999 -9999 -9999 -9999 -9999 -9999 -9999 -9999 -9999 906.2245 905.0999 903.7577 901.9452 899.6576 897.3619 895.7271 894.5882 893.7725 893.0164 892.6696 892.4857 892.3357 892.1848 892.0244 891.8589 891.6987 891.5536 891.4298 891.3184 891.1925 891.0535 890.9093 890.7662 890.6277 890.496 890.3722 890.2576 890.153 890.0589 889.9757 889.9037 889.8427 889.7927 889.7534 889.7241 889.7039 889.6917 889.6864 889.6874 889.6932 889.7032 889.7162 889.7314 889.7483 889.7659 889.7836 889.8007 889.8171 889.8326 889.8468 889.8596 889.8715 889.882 889.8914 889.9 889.9084 889.9147 889.9179 889.9172 889.9125 889.9037 889.8903 889.8721 889.8486 889.819 889.7822 889.7375 889.6843 889.6219 889.5507 889.4716 889.386 889.2961 889.2049 889.1155 889.0307 888.9515 888.8775 888.807 888.7405 888.6758 888.6144 888.5586 888.5094 888.4675 888.4352 888.4126 888.3955 888.38 888.3527 888.3258 888.2994 888.2734 888.2548 888.2407 888.2316 888.2272 888.228 888.2317 888.2383 888.2501 888.2649 888.2827 888.3085 888.3453 888.38 888.3955 888.3781 888.3357 888.3034 888.3117 888.3549 888.4164 888.4837 888.5545 888.642 888.7781 889.0002 889.358 889.9226 890.7776 891.6544 892.7505 893.6107 894.3806 894.7731 895.0494 895.2466 895.5096 896.1381 897.5704 899.3184 900.7097 902.3627 904.2004 -9999 -9999 -9999 -9999 -9999 -9999 -9999 -9999 -9999 -9999 -9999 -9999 -9999 -9999 -9999 -9999 -9999 -9999 -9999 -9999 -9999 -9999 -9999 -9999 -9999 -9999 -9999 -9999 -9999 -9999 -9999 -9999 -9999 -9999 -9999 -9999 -9999 -9999 -9999 -9999 -9999 -9999 -9999 -9999 -9999 -9999 -9999 -9999 -9999 -9999 -9999 -9999 -9999 -9999 -9999 -9999 -9999 -9999 -9999 -9999 -9999 -9999 -9999 -9999 -9999 -9999 -9999 -9999 -9999 -9999 -9999 -9999 -9999 -9999 -9999 -9999 -9999 -9999 -9999 -9999 -9999 -9999 -9999 -9999 -9999 -9999 -9999 -9999 -9999 -9999
-9999 -9999 -9999 -9999 -9999 -9999 -9999 -9999 -9999 -9999 -9999 -9999 -9999 -9999 -9999 905.4821 904.0582 902.1962 900.2841 898.163 896.3563 895.2258 894.4294 893.6343 892.9489 892.5775 892.3923 892.2697 892.1475 892.0068 891.8528 891.6988 891.5568 891.4299 891.302 891.1709 891.0358 890.8993 890.7642 890.6329 890.5068 890.3872 890.2753 890.1721 890.0783 889.9949 889.9221 889.8602 889.8091 889.7688 889.7388 889.718 889.7053 889.7001 889.7011 889.7073 889.7174 889.7306 889.7458 889.7623 889.7795 889.7968 889.8132 889.8289 889.8431 889.8557 889.8668 889.8768 889.8854 889.8929 889.9 889.9069 889.9117 889.9131 889.9108 889.9047 889.8947 889.8807 889.8627 889.84 889.812 889.7778 889.7367 889.6873 889.6288 889.5609 889.4843 889.3998 889.3093 889.2158 889.1229 889.0338 888.95 888.8718 888.7977 888.7275 888.6615 888.599 888.5417 888.4922 888.4515 888.4198 888.3982 888.38 888.3597 888.3314 888.3029 888.2737 888.2438 888.2183 888.2013 888.1895 888.1829 888.1818 888.1847 888.1904 888.2018 888.2187 888.2393 888.2668 888.3044 888.346 888.38 888.3857 888.3583 888.3208 888.308 888.3356 888.3917 888.4603 888.5341 888.621 888.7507 888.9655 889.3145 889.8488 890.4891 891.4158 892.338 893.1143 893.9471 894.5054 894.8931 895.131 895.4016 895.995 897.2222 898.9617 900.3655 901.8141 903.3853 904.9827 -9999 -9999 -9999 -9999 -9999 -9999 -9999 -9999 -9999 -9999 -9999 -9999 -9999 -9999 -9999 -9999 -9999 -9999 -9999 -9999 -9999 -9999 -9999 -9999 -9999 -9999 -9999 -9999 -9999 -9999 -9999 -9999 -9999 -9999 -9999 -9999 -9999 -9999 -9999 -9999 -9999 -9999 -9999 -9999 -9999 -9999 -9999 -9999 -9999 -9999 -9999 -9999 -9999 -9999 -9999 -9999 -9999 -9999 -9999 -9999 -9999 -9999 -9999 -9999 -9999 -9999 -9999 -9999 -9999 -9999 -9999 -9999 -9999 -9999 -9999 -9999 -9999 -9999 -9999 -9999 -9999 -9999 -9999 -9999 -9999 -9999 -9999 -9999 -9999
-9999 -9999 -9999 -9999 -9999 -9999 -9999 -9999 -9999 -9999 -9999 -9999 -9999 -9999 -9999 904.5372 902.7473 900.8834 898.9914 896.9692 895.7142 894.9729 894.4258 893.6492 892.9562 892.5662 892.3694 892.2499 892.1371 892.0043 891.8547 891.7026 891.5603 891.4299 891.2966 891.1643 891.0327 890.9017 890.7723 890.646 890.5237 890.4066 890.2962 890.1935 890.0994 890.015 889.941 889.8779 889.8256 889.7842 889.7532 889.7319 889.7189 889.7136 889.7148 889.7213 889.7318 889.7452 889.7606 889.7771 889.7939 889.8108 889.8268 889.8416 889.8547 889.866 889.8752 889.8831 889.8895 889.895 889.9 889.9048 889.9073 889.9063 889.9015 889.8929 889.8811 889.8658 889.847 889.8242 889.7969 889.7644 889.7257 889.6797 889.6251 889.5612 889.4879 889.4058 889.3163 889.2222 889.1271 889.0345 888.9469 888.8641 888.7867 888.7131 888.6442 888.5807 888.5231 888.4725 888.4315 888.4001 888.38 888.3594 888.3359 888.3073 888.2776 888.2472 888.2151 888.1853 888.1628 888.1471 888.137 888.1331 888.1343 888.139 888.1504 888.1693 888.1932 888.2223 888.2596 888.3026 888.3457 888.38 888.3789 888.3555 888.3373 888.3456 888.3851 888.4448 888.5154 888.5989 888.7164 888.9011 889.1824 889.5768 890.1024 891.1699 892.0066 892.8549 893.6544 894.4468 894.8375 895.0503 895.2416 895.6145 896.3953 897.849 899.477 900.979 902.4807 904.0184 -9999 -9999 -9999 -9999 -9999 -9999 -9999 -9999 -9999 -9999 -9999 -9999 -9999 -9999 -9999 -9999 -9999 -9999 -9999 -9999 -9999 -9999 -9999 -9999 -9999 -9999 -9999 -9999 -9999 -9999 -9999 -9999 -9999 -9999 -9999 -9999 -9999 -9999 -9999 -9999 -9999 -9999 -9999 -9999 -9999 -9999 -9999 -9999 -9999 -9999 -9999 -9999 -9999 -9999 -9999 -9999 -9999 -9999 -9999 -9999 -9999 -9999 -9999 -9999 -9999 -9999 -9999 -9999 -9999 -9999 -9999 -9999 -9999 -9999 -9999 -9999 -9999 -9999 -9999 -9999 -9999 -9999 -9999 -9999 -9999 -9999 -9999 -9999 -9999
-9999 -9999 -9999 -9999 -9999 -9999 -9999 -9999 -9999 -9999 -9999 -9999 -9999 -9999 905.525 903.4382 901.4886 899.6913 897.926 896.2924 895.3829 894.8687 894.4397 893.6765 892.9617 892.576 892.3778 892.2545 892.14 892.007 891.8568 891.7037 891.5604 891.4299 891.2994 891.1712 891.0443 890.9178 890.7921 890.6683 890.5477 890.4315 890.3213 890.218 890.123 890.0372 889.9617 889.8969 889.843 889.8003 889.7684 889.7462 889.7328 889.7274 889.7286 889.7355 889.7464 889.7601 889.7757 889.7922 889.809 889.8256 889.8411 889.8551 889.8673 889.8771 889.8846 889.8901 889.8943 889.8973 889.9 889.9022 889.902 889.8978 889.8898 889.8781 889.8635 889.8461 889.8257 889.8021 889.7745 889.7427 889.7056 889.6622 889.611 889.5508 889.4811 889.4022 889.3151 889.2222 889.1266 889.032 888.941 888.855 888.7732 888.6971 888.6254 888.5602 888.5026 888.4531 888.4121 888.38 888.3602 888.3373 888.3111 888.2816 888.2504 888.2189 888.186 888.1525 888.1245 888.1052 888.0911 888.0836 888.0823 888.0851 888.0952 888.1154 888.1429 888.1754 888.213 888.2551 888.2981 888.3478 888.38 888.38 888.371 888.3741 888.3969 888.441 888.5013 888.578 888.6842 888.8459 889.0885 889.4359 889.9346 890.7563 891.5475 892.3947 893.2203 894.2705 894.7394 894.9802 895.1188 895.3223 895.7836 896.7204 898.3285 899.9512 901.5057 903.1421 904.7433 -9999 -9999 -9999 -9999 -9999 -9999 -9999 -9999 -9999 -9999 -9999 -9999 -9999 -9999 -9999 -9999 -9999 -9999 -9999 -9999 -9999 -9999 -9999 -9999 -9999 -9999 -9999 -9999 -9999 -9999 -9999 -9999 -9999 -9999 -9999 -9999 -9999 -9999 -9999 -9999 -9999 -9999 -9999 -9999 -9999 -9999 -9999 -9999 -9999 -9999 -9999 -9999 -9999 -9999 -9999 -9999 -9999 -9999 -9999 -9999 -9999 -9999 -9999 -9999 -9999 -9999 -9999 -9999 -9999 -9999 -9999 -9999 -9999 -9999 -9999 -9999 -9999 -9999 -9999 -9999 -9999 -9999 -9999 -9999 -9999 -9999 -9999 -9999
-9999 -9999 -9999 -9999 -9999 -9999 -9999 -9999 -9999 -9999 -9999 -9999 -9999 -9999 905.0718 902.4988 900.4033 898.7351 897.2583 896.0325 895.2933 894.8544 894.4464 893.6898 892.9628 892.6079 892.4099 892.2725 892.1452 892.0054 891.8524 891.6982 891.5557 891.4299 891.3101 891.1912 891.0703 890.947 890.823 890.6997 890.579 890.4622 890.3507 890.2461 890.1495 890.0619 889.9844 889.9176 889.8619 889.8177 889.7843 889.7612 889.7473 889.7417 889.743 889.7501 889.7612 889.7754 889.7911 889.8079 889.8246 889.8411 889.8561 889.8695 889.8807 889.8891 889.8948 889.8983 889.8999 889.9001 889.9 889.8998 889.8962 889.8881 889.8759 889.8605 889.8427 889.8225 889.7999 889.7747 889.7463 889.7142 889.6777 889.6358 889.5869 889.5299 889.4639 889.3886 889.3048 889.2142 889.1199 889.0248 888.9319 888.8427 888.7584 888.6786 888.6056 888.5391 888.4816 888.4348 888.4 888.38 888.349 888.3175 888.2859 888.254 888.2212 888.1887 888.155 888.1208 888.0892 888.0652 888.047 888.0349 888.0302 888.0306 888.0383 888.0575 888.0876 888.1246 888.165 888.2075 888.2523 888.2999 888.3401 888.3638 888.38 888.3924 888.4124 888.4442 888.4922 888.5595 888.6567 888.8062 889.0341 889.3721 889.861 890.4552 891.2707 892.007 892.8528 893.7805 894.5053 894.9136 895.0872 895.2167 895.5055 896.1718 897.4916 898.9929 900.4232 902.1096 903.918 905.0768 -9999 -9999 -9999 -9999 -9999 -9999 -9999 -9999 -9999 -9999 -9999 -9999 -9999 -9999 -9999 -9999 -9999 -9999 -9999 -9999 -9999 -9999 -9999 -9999 -9999 -9999 -9999 -9999 -9999 -9999 -9999 -9999 -9999 -9999 -9999 -9999 -9999 -9999 -9999 -9999 -9999 -9999 -9999 -9999 -9999 -9999 -9999 -9999 -9999 -9999 -9999 -9999 -9999 -9999 -9999 -9999 -9999 -9999 -9999 -9999 -9999 -9999 -9999 -9999 -9999 -9999 -9999 -9999 -9999 -9999 -9999 -9999 -9999 -9999 -9999 -9999 -9999 -9999 -9999 -9999 -9999 -9999 -9999 -9999 -9999 -9999 -9999
-9999 -9999 -9999 -9999 -9999 -9999 -9999 -9999 -9999 -9999 -9999 -9999 -9999 -9999 904.96 901.9364 899.8086 898.1927 896.9226 895.9737 895.3088 894.87 894.4503 893.7286 893.0073 892.7065 892.478 892.2999 892.1466 891.995 891.8391 891.686 891.547 891.4299 891.3309 891.2256 891.1104 890.9884 890.8636 890.7389 890.6164 890.4978 890.3845 890.278 890.1792 890.0895 890.0096 889.9406 889.8828 889.8365 889.8016 889.7772 889.7626 889.7567 889.7581 889.7654 889.7767 889.7911 889.8071 889.824 889.8407 889.8568 889.8715 889.8843 889.8944 889.9015 889.9055 889.9069 889.906 889.9036 889.9 889.8983 889.8907 889.8774 889.8602 889.8405 889.8188 889.7955 889.7704 889.7432 889.7134 889.6805 889.6438 889.6023 889.5548 889.5 889.437 889.3651 889.2851 889.1979 889.1058 889.0116 888.918 888.8271 888.7404 888.6591 888.5837 888.5172 888.4606 888.4149 888.38 888.3599 888.3296 888.2949 888.2592 888.2242 888.1901 888.156 888.1219 888.0873 888.0542 888.0262 888.0044 887.9883 887.9796 887.9773 887.9823 887.9988 888.0292 888.0688 888.112 888.1555 888.1986 888.2423 888.2828 888.3162 888.3469 888.38 888.4099 888.4412 888.4808 888.5404 888.6287 888.7643 888.9661 889.2456 889.5989 889.9976 890.707 891.4245 892.2386 893.2408 894.3731 894.905 895.1317 895.2488 895.4589 895.9597 896.8773 898.166 899.324 900.7684 902.599 904.2474 905.2643 -9999 -9999 -9999 -9999 -9999 -9999 -9999 -9999 -9999 -9999 -9999 -9999 -9999 -9999 -9999 -9999 -9999 -9999 -9999 -9999 -9999 -9999 -9999 -9999 -9999 -9999 -9999 -9999 -9999 -9999 -9999 -9999 -9999 -9999 -9999 -9999 -9999 -9999 -9999 -9999 -9999 -9999 -9999 -9999 -9999 -9999 -9999 -9999 -9999 -9999 -9999 -9999 -9999 -9999 -9999 -9999 -9999 -9999 -9999 -9999 -9999 -9999 -9999 -9999 -9999 -9999 -9999 -9999 -9999 -9999 -9999 -9999 -9999 -9999 -9999 -9999 -9999 -9999 -9999 -9999 -9999 -9999 -9999 -9999 -9999 -9999
-9999 -9999 -9999 -9999 -9999 -9999 -9999 -9999 -9999 -9999 -9999 -9999 -9999 -9999 905.1934 902.0692 899.7645 898.0511 896.8162 895.9691 895.337 894.8831 894.4635 893.8843 893.2974 892.9279 892.5731 892.3247 892.1388 891.9761 891.8203 891.6724 891.5399 891.4302 891.3677 891.2758 891.1628 891.0392 890.9116 890.7839 890.6588 890.5379 890.4225 890.3138 890.2125 890.1201 890.0376 889.9659 889.9056 889.8572 889.8203 889.7944 889.7789 889.7725 889.7739 889.7814 889.7928 889.8074 889.8235 889.8403 889.8572 889.873 889.8874 889.8995 889.9086 889.9143 889.9167 889.9161 889.913 889.9087 889.9044 889.9 889.886 889.8661 889.843 889.8184 889.7927 889.7661 889.7382 889.7088 889.6773 889.6432 889.6057 889.5637 889.5165 889.4629 889.402 889.3331 889.2566 889.1731 889.0841 888.9919 888.8989 888.8075 888.7197 888.637 888.5614 888.4949 888.4407 888.4016 888.38 888.3469 888.3099 888.2706 888.2312 888.1929 888.1565 888.1212 888.0864 888.0518 888.0179 887.9878 887.9631 887.9436 887.9312 887.926 887.9283 887.9417 887.9694 888.0092 888.0519 888.0967 888.1387 888.1783 888.2167 888.2523 888.2881 888.3351 888.38 888.42 888.459 888.5145 888.5978 888.7207 888.9022 889.1509 889.4715 889.869 890.2925 890.8817 891.6492 892.8584 894.1649 894.8137 895.1389 895.2864 895.405 895.647 896.1258 897.0325 898.0854 899.4377 901.1265 903.0315 904.5563 905.532 -9999 -9999 -9999 -9999 -9999 -9999 -9999 -9999 -9999 -9999 -9999 -9999 -9999 -9999 -9999 -9999 -9999 -9999 -9999 -9999 -9999 -9999 -9999 -9999 -9999 -9999 -9999 -9999 -9999 -9999 -9999 -9999 -9999 -9999 -9999 -9999 -9999 -9999 -9999 -9999 -9999 -9999 -9999 -9999 -9999 -9999 -9999 -9999 -9999 -9999 -9999 -9999 -9999 -9999 -9999 -9999 -9999 -9999 -9999 -9999 -9999 -9999 -9999 -9999 -9999 -9999 -9999 -9999 -9999 -9999 -9999 -9999 -9999 -9999 -9999 -9999 -9999 -9999 -9999 -9999 -9999 -9999 -9999 -9999 -9999
-9999 -9999 -9999 -9999 -9999 -9999 -9999 -9999 -9999 -9999 -9999 -9999 -9999 -9999 905.6932 902.7612 900.1089 898.1768 896.8491 895.9784 895.3846 894.9252 894.4994 894.0857 893.5263 892.9573 892.5844 892.3207 892.1219 891.9557 891.8049 891.6684 891.5541 891.4728 891.4297 891.3367 891.2218 891.0948 890.9636 890.8329 890.7052 890.5822 890.4647 890.3536 890.2498 890.1544 890.0687 889.9939 889.9307 889.8796 889.8405 889.8129 889.7963 889.7893 889.7905 889.798 889.8096 889.824 889.8401 889.8569 889.8738 889.8895 889.9034 889.9148 889.9229 889.9272 889.928 889.9253 889.9197 889.9126 889.9058 889.9 889.879 889.8527 889.8241 889.7947 889.7648 889.7347 889.7041 889.6724 889.6392 889.6035 889.5648 889.5219 889.4742 889.421 889.3611 889.2944 889.2209 889.1409 889.0552 888.9656 888.8743 888.7834 888.6956 888.613 888.5377 888.4723 888.4192 888.38 888.3588 888.3264 888.2873 888.2451 888.2024 888.161 888.1217 888.0846 888.049 888.0143 887.9807 887.9495 887.923 887.9005 887.8845 887.8763 887.876 887.8853 887.9083 887.943 887.9849 888.0301 888.0731 888.1119 888.1488 888.1865 888.2297 888.2795 888.3306 888.3799 888.423 888.4812 888.5609 888.6743 888.8365 889.0556 889.3265 889.6315 889.9401 890.4808 891.2085 892.2734 893.5674 894.5094 895.0417 895.2848 895.374 895.442 895.6337 896.1124 896.9695 898.2328 899.9083 901.807 903.5182 904.803 905.5767 -9999 -9999 -9999 -9999 -9999 -9999 -9999 -9999 -9999 -9999 -9999 -9999 -9999 -9999 -9999 -9999 -9999 -9999 -9999 -9999 -9999 -9999 -9999 -9999 -9999 -9999 -9999 -9999 -9999 -9999 -9999 -9999 -9999 -9999 -9999 -9999 -9999 -9999 -9999 -9999 -9999 -9999 -9999 -9999 -9999 -9999 -9999 -9999 -9999 -9999 -9999 -9999 -9999 -9999 -9999 -9999 -9999 -9999 -9999 -9999 -9999 -9999 -9999 -9999 -9999 -9999 -9999 -9999 -9999 -9999 -9999 -9999 -9999 -9999 -9999 -9999 -9999 -9999 -9999 -9999 -9999 -9999 -9999 -9999
-9999 -9999 -9999 -9999 -9999 -9999 -9999 -9999 -9999 -9999 -9999 -9999 -9999 -9999 906.2225 903.2667 900.4609 898.4233 897.0118 896.0708 895.5507 895.1121 894.7609 894.4448 893.8633 893.0723 892.6594 892.354 892.1292 891.9536 891.8041 891.6743 891.5681 891.4891 891.4301 891.3767 891.274 891.1487 891.0167 890.8846 890.7556 890.6311 890.5117 890.3983 890.2914 890.1926 890.1033 890.0247 889.9579 889.9036 889.8619 889.8325 889.8147 889.8072 889.8081 889.8154 889.827 889.8413 889.8573 889.874 889.8905 889.9059 889.9193 889.9298 889.9369 889.94 889.9391 889.9341 889.9255 889.9138 889.9 889.8882 889.8657 889.8364 889.8038 889.7703 889.7364 889.7029 889.6694 889.6355 889.6002 889.563 889.5228 889.4786 889.4299 889.3762 889.3168 889.2516 889.1802 889.103 889.0205 888.9337 888.8446 888.7554 888.6689 888.5876 888.5142 888.4514 888.4043 888.38 888.3458 888.307 888.2643 888.2191 888.1733 888.1292 888.0872 888.0474 888.0104 887.9751 887.9418 887.9106 887.8829 887.8583 887.8395 887.8281 887.8246 887.8306 887.8484 887.8762 887.9138 887.9578 888.0023 888.0432 888.0814 888.1204 888.1697 888.2209 888.2722 888.3243 888.3801 888.4471 888.5215 888.6237 888.7687 888.9655 889.214 889.5146 889.874 890.225 890.7888 891.6633 892.9559 894.1797 894.8735 895.2399 895.366 895.3588 895.3716 895.5692 896.1041 897.1539 898.7337 900.5966 902.3734 903.7858 904.7979 905.2819 905.3631 -9999 -9999 -9999 -9999 -9999 -9999 -9999 -9999 -9999 -9999 -9999 -9999 -9999 -9999 -9999 -9999 -9999 -9999 -9999 -9999 -9999 -9999 -9999 -9999 -9999 -9999 -9999 -9999 -9999 -9999 -9999 -9999 -9999 -9999 -9999 -9999 -9999 -9999 -9999 -9999 -9999 -9999 -9999 -9999 -9999 -9999 -9999 -9999 -9999 -9999 -9999 -9999 -9999 -9999 -9999 -9999 -9999 -9999 -9999 -9999 -9999 -9999 -9999 -9999 -9999 -9999 -9999 -9999 -9999 -9999 -9999 -9999 -9999 -9999 -9999 -9999 -9999 -9999 -9999 -9999 -9999 -9999
-9999 -9999 -9999 -9999 -9999 -9999 -9999 -9999 -9999 -9999 -9999 -9999 -9999 -9999 -9999 903.9929 900.9915 898.8804 897.4339 896.4811 895.9076 895.3688 895.0101 894.7397 894.35 893.5508 892.9189 892.475 892.1913 891.9917 891.8331 891.7004 891.5942 891.5172 891.4672 891.4297 891.3228 891.1986 891.0693 890.9391 890.8108 890.6858 890.5649 890.4489 890.3385 890.2354 890.1414 890.058 889.9868 889.9286 889.8839 889.8527 889.8339 889.8257 889.8264 889.8336 889.8451 889.8593 889.8748 889.8909 889.9069 889.9217 889.9344 889.9441 889.9502 889.9521 889.9496 889.9429 889.9319 889.9174 889.9 889.8799 889.853 889.8201 889.7838 889.7463 889.7087 889.6717 889.6353 889.5988 889.5615 889.5226 889.481 889.4353 889.3851 889.3305 889.2711 889.2065 889.1367 889.0618 888.9817 888.8975 888.8109 888.7239 888.6395 888.561 888.4909 888.4303 888.38 888.3569 888.325 888.285 888.2401 888.1927 888.1446 888.0977 888.0533 888.0112 887.9717 887.9352 887.901 887.8691 887.8397 887.8149 887.7953 887.7814 887.7747 887.7764 887.7882 887.8102 887.8428 887.8837 887.929 887.9739 888.0179 888.0647 888.1152 888.1672 888.2211 888.2828 888.3797 888.426 888.4832 888.5686 888.6938 888.8644 889.0775 889.3257 889.6033 889.8999 890.3689 891.1315 892.2343 893.4498 894.4847 895.084 895.3333 895.3466 895.2782 895.2998 895.5747 896.2836 897.6999 899.5837 901.2043 902.5051 903.59 904.4159 904.7708 905.0472 905.4016 -9999 -9999 -9999 -9999 -9999 -9999 -9999 -9999 -9999 -9999 -9999 -9999 -9999 -9999 -9999 -9999 -9999 -9999 -9999 -9999 -9999 -9999 -9999 -9999 -9999 -9999 -9999 -9999 -9999 -9999 -9999 -9999 -9999 -9999 -9999 -9999 -9999 -9999 -9999 -9999 -9999 -9999 -9999 -9999 -9999 -9999 -9999 -9999 -9999 -9999 -9999 -9999 -9999 -9999 -9999 -9999 -9999 -9999 -9999 -9999 -9999 -9999 -9999 -9999 -9999 -9999 -9999 -9999 -9999 -9999 -9999 -9999 -9999 -9999 -9999 -9999 -9999 -9999 -9999 -9999
-9999 -9999 -9999 -9999 -9999 -9999 -9999 -9999 -9999 -9999 -9999 -9999 -9999 -9999 -9999 904.8477 901.795 899.6252 898.1192 897.0404 896.1733 895.5972 895.1992 894.8865 894.4952 893.8745 893.0767 892.6227 892.3168 892.0901 891.9089 891.7587 891.6379 891.5474 891.4833 891.4299 891.3449 891.2396 891.1221 890.9984 890.8729 890.7482 890.6257 890.5063 890.3912 890.2826 890.1825 890.0931 890.0165 889.9537 889.9059 889.8726 889.8528 889.8444 889.8452 889.8523 889.8638 889.8777 889.8927 889.9081 889.9231 889.937 889.9486 889.9573 889.9623 889.9629 889.9592 889.9509 889.9381 889.921 889.9 889.8741 889.8425 889.8058 889.7658 889.7244 889.6829 889.6422 889.6025 889.5634 889.5239 889.4833 889.44 889.3929 889.3414 889.2856 889.2258 889.1617 889.0928 889.0193 888.9412 888.859 888.7744 888.6897 888.608 888.5338 888.4706 888.4204 888.38 888.3453 888.3065 888.2628 888.215 888.1654 888.1152 888.0662 888.0193 887.9757 887.9339 887.8955 887.8602 887.8278 887.7981 887.7725 887.7512 887.7357 887.726 887.7238 887.7307 887.7474 887.7739 887.8104 887.8555 887.9042 887.9553 888.0083 888.0612 888.1158 888.1752 888.2438 888.3251 888.38 888.4341 888.5071 888.6128 888.7567 888.9301 889.1188 889.3171 889.5463 889.908 890.5281 891.4434 892.5786 893.9555 894.7833 895.2073 895.3271 895.271 895.2169 895.3171 895.7664 896.7439 898.4563 899.8489 900.8539 901.7947 902.6376 903.2937 903.9626 904.7152 905.0895 905.1924 905.719 -9999 -9999 -9999 -9999 -9999 -9999 -9999 -9999 -9999 -9999 -9999 -9999 -9999 -9999 -9999 -9999 -9999 -9999 -9999 -9999 -9999 -9999 -9999 -9999 -9999 -9999 -9999 -9999 -9999 -9999 -9999 -9999 -9999 -9999 -9999 -9999 -9999 -9999 -9999 -9999 -9999 -9999 -9999 -9999 -9999 -9999 -9999 -9999 -9999 -9999 -9999 -9999 -9999 -9999 -9999 -9999 -9999 -9999 -9999 -9999 -9999 -9999 -9999 -9999 -9999 -9999 -9999 -9999 -9999 -9999 -9999 -9999 -9999 -9999 -9999 -9999 -9999
-9999 -9999 -9999 -9999 -9999 -9999 -9999 -9999 -9999 -9999 -9999 -9999 -9999 -9999 -9999 -9999 903.0289 900.7558 899.1956 898.0631 897.0205 896.1229 895.5126 895.093 894.7488 894.3488 893.5817 892.9767 892.5776 892.2827 892.0513 891.8636 891.712 891.594 891.504 891.4301 891.3707 891.2872 891.1832 891.0668 890.9443 890.8197 890.6949 890.5712 890.45 890.3338 890.2258 890.129 890.0458 889.9781 889.9268 889.8916 889.8712 889.863 889.8641 889.8716 889.8831 889.8966 889.911 889.9253 889.9388 889.9512 889.9613 889.9685 889.972 889.9716 889.9669 889.9576 889.9435 889.9243 889.9 889.8701 889.8345 889.7941 889.7504 889.7051 889.6597 889.6154 889.5723 889.5302 889.4883 889.4458 889.4011 889.3526 889.2999 889.243 889.1827 889.1187 889.0503 888.9778 888.9008 888.8201 888.7371 888.6541 888.5746 888.5035 888.4467 888.4084 888.38 888.3347 888.2878 888.2394 888.189 888.1371 888.0852 888.0343 887.9855 887.9393 887.8964 887.8561 887.8195 887.786 887.7557 887.7288 887.7062 887.6892 887.6777 887.6722 887.6747 887.6865 887.7072 887.7383 887.7818 887.8311 887.8868 887.9443 888.0005 888.058 888.1212 888.1908 888.2632 888.3232 888.38 888.4435 888.5308 888.6536 888.7954 888.9373 889.0728 889.2292 889.4799 889.9205 890.6419 891.6314 892.9524 894.1425 894.8596 895.1938 895.2561 895.1964 895.213 895.4388 896.0087 896.9799 898.2378 898.8873 899.6392 900.4248 901.2429 902.2294 903.3863 904.4647 905.0939 905.6575 906.1519 906.5175 -9999 -9999 -9999 -9999 -9999 -9999 -9999 -9999 -9999 -9999 -9999 -9999 -9999 -9999 -9999 -9999 -9999 -9999 -9999 -9999 -9999 -9999 -9999 -9999 -9999 -9999 -9999 -9999 -9999 -9999 -9999 -9999 -9999 -9999 -9999 -9999 -9999 -9999 -9999 -9999 -9999 -9999 -9999 -9999 -9999 -9999 -9999 -9999 -9999 -9999 -9999 -9999 -9999 -9999 -9999 -9999 -9999 -9999 -9999 -9999 -9999 -9999 -9999 -9999 -9999 -9999 -9999 -9999 -9999 -9999 -9999 -9999 -9999 -9999 -9999
-9999 -9999 -9999 -9999 -9999 -9999 -9999 -9999 -9999 -9999 -9999 -9999 -9999 -9999 -9999 -9999 904.4891 902.2938 900.6279 899.4774 898.2463 897.0255 895.9886 895.3349 894.9032 894.4997 894.0029 893.4575 892.9649 892.5761 892.2709 892.027 891.8309 891.6774 891.5634 891.4836 891.4299 891.3546 891.2585 891.1471 891.0265 890.9009 890.7726 890.6428 890.5135 890.3879 890.27 890.1641 890.0732 889.9999 889.9452 889.9085 889.8881 889.8807 889.8827 889.891 889.9026 889.9158 889.9293 889.9422 889.9538 889.9639 889.9719 889.9771 889.9788 889.9771 889.9718 889.9622 889.9474 889.9268 889.9 889.8673 889.8284 889.7846 889.7374 889.6885 889.6395 889.5917 889.545 889.4998 889.4553 889.4107 889.3643 889.3146 889.261 889.2034 889.1424 889.0783 889.0104 888.9385 888.8623 888.7826 888.7009 888.6193 888.5409 888.47 888.4133 888.38 888.3503 888.3094 888.2628 888.2133 888.1617 888.1085 888.0549 888.0023 887.9516 887.9034 887.8583 887.8162 887.7784 887.7441 887.713 887.6851 887.6614 887.6422 887.6287 887.6207 887.6191 887.6251 887.64 887.6648 887.7031 887.7526 887.8107 887.871 887.9288 887.9885 888.0543 888.1259 888.1974 888.2612 888.3196 888.3799 888.4512 888.5646 888.6874 888.7987 888.8905 888.9835 889.1359 889.4232 889.9256 890.7086 891.7634 893.0187 894.1641 894.8434 895.1195 895.1479 895.115 895.2219 895.4774 895.9025 896.4079 896.8347 897.5018 898.1444 898.9268 900.0464 901.4354 902.9778 904.3762 905.1602 905.6572 905.9147 906.0953 906.3664 -9999 -9999 -9999 -9999 -9999 -9999 -9999 -9999 -9999 -9999 -9999 -9999 -9999 -9999 -9999 -9999 -9999 -9999 -9999 -9999 -9999 -9999 -9999 -9999 -9999 -9999 -9999 -9999 -9999 -9999 -9999 -9999 -9999 -9999 -9999 -9999 -9999 -9999 -9999 -9999 -9999 -9999 -9999 -9999 -9999 -9999 -9999 -9999 -9999 -9999 -9999 -9999 -9999 -9999 -9999 -9999 -9999 -9999 -9999 -9999 -9999 -9999 -9999 -9999 -9999 -9999 -9999 -9999 -9999 -9999 -9999 -9999 -9999
-9999 -9999 -9999 -9999 -9999 -9999 -9999 -9999 -9999 -9999 -9999 -9999 -9999 -9999 -9999 -9999 -9999 903.9377 902.2602 900.9071 899.543 898.0284 896.5012 895.6239 895.1129 894.767 894.4512 893.9893 893.472 892.9708 892.5736 892.2577 892.004 891.8038 891.6553 891.5548 891.4904 891.4299 891.3434 891.2372 891.1182 890.9911 890.858 890.7205 890.5809 890.4434 890.3135 890.1965 890.097 890.0179 889.9601 889.9227 889.9031 889.8973 889.9008 889.9099 889.922 889.9348 889.9473 889.9581 889.967 889.974 889.979 889.9816 889.9811 889.9779 889.9724 889.9634 889.9491 889.9282 889.9 889.8652 889.8234 889.7763 889.726 889.674 889.6218 889.5709 889.5211 889.4728 889.4255 889.3785 889.3305 889.2797 889.2251 889.167 889.1056 889.0413 888.9737 888.9022 888.8268 888.7483 888.6682 888.5884 888.5118 888.441 888.3801 888.3496 888.3189 888.2802 888.2351 888.1858 888.1337 888.0801 888.0251 887.9707 887.9182 887.868 887.8209 887.7773 887.7371 887.7017 887.6699 887.6413 887.6167 887.5958 887.5793 887.5687 887.5638 887.5647 887.5728 887.5913 887.6244 887.6721 887.7299 887.7897 887.8462 887.9064 887.9745 888.0498 888.1262 888.1969 888.2601 888.3193 888.3805 888.496 888.609 888.7017 888.7671 888.8159 888.8905 889.0553 889.3796 889.9261 890.7412 891.7817 893.0295 894.162 894.7684 894.9313 894.9351 895.0217 895.1401 895.2949 895.4695 895.667 895.9887 896.2745 896.793 897.8185 899.1445 900.8297 902.6819 903.8177 904.4434 904.7056 904.9092 905.3761 905.9496 906.7427 -9999 -9999 -9999 -9999 -9999 -9999 -9999 -9999 -9999 -9999 -9999 -9999 -9999 -9999 -9999 -9999 -9999 -9999 -9999 -9999 -9999 -9999 -9999 -9999 -9999 -9999 -9999 -9999 -9999 -9999 -9999 -9999 -9999 -9999 -9999 -9999 -9999 -9999 -9999 -9999 -9999 -9999 -9999 -9999 -9999 -9999 -9999 -9999 -9999 -9999 -9999 -9999 -9999 -9999 -9999 -9999 -9999 -9999 -9999 -9999 -9999 -9999 -9999 -9999 -9999 -9999 -9999 -9999 -9999 -9999 -9999
-9999 -9999 -9999 -9999 -9999 -9999 -9999 -9999 -9999 -9999 -9999 -9999 -9999 -9999 -9999 -9999 -9999 -9999 903.787 902.1754 900.5627 899.0239 897.2401 896.0022 895.3602 895.0033 894.7529 894.4566 894.006 893.4828 892.9725 892.5674 892.2414 891.9807 891.7832 891.6471 891.5609 891.4979 891.4298 891.3328 891.2169 891.0886 890.9503 890.8034 890.6514 890.4994 890.3551 890.2255 890.1161 890.0309 889.9706 889.9333 889.9156 889.9124 889.9179 889.9282 889.9403 889.9525 889.9634 889.9717 889.9769 889.9799 889.9813 889.9808 889.9775 889.9723 889.9672 889.9599 889.9475 889.9277 889.9 889.8629 889.8175 889.7672 889.7142 889.66 889.6058 889.5524 889.5001 889.4491 889.3992 889.3499 889.2999 889.2477 889.1925 889.1339 889.0721 889.0077 888.9404 888.8696 888.795 888.7178 888.6396 888.5632 888.4923 888.4303 888.38 888.3386 888.2982 888.2552 888.209 888.1593 888.1067 888.0522 887.9963 887.9406 887.886 887.8339 887.7847 887.7391 887.6976 887.6602 887.6274 887.5977 887.5718 887.5497 887.5309 887.5169 887.5085 887.5053 887.5079 887.5204 887.5475 887.5912 887.6451 887.6994 887.7544 887.8141 887.8837 887.9633 888.0479 888.13 888.2081 888.2878 888.3796 888.4579 888.5494 888.6311 888.6848 888.7115 888.7351 888.809 888.9954 889.3525 889.9269 890.7502 891.7957 893.0276 894.0627 894.4255 894.5193 894.7511 894.8799 894.9795 895.0247 895.0654 895.1547 895.2328 895.5095 896.1258 897.0278 898.3941 900.1252 901.5829 902.1805 902.5886 903.0547 904.0288 904.9567 906.2305 907.8911 -9999 -9999 -9999 -9999 -9999 -9999 -9999 -9999 -9999 -9999 -9999 -9999 -9999 -9999 -9999 -9999 -9999 -9999 -9999 -9999 -9999 -9999 -9999 -9999 -9999 -9999 -9999 -9999 -9999 -9999 -9999 -9999 -9999 -9999 -9999 -9999 -9999 -9999 -9999 -9999 -9999 -9999 -9999 -9999 -9999 -9999 -9999 -9999 -9999 -9999 -9999 -9999 -9999 -9999 -9999 -9999 -9999 -9999 -9999 -9999 -9999 -9999 -9999 -9999 -9999 -9999 -9999 -9999 -9999 -9999
-9999 -9999 -9999 -9999 -9999 -9999 -9999 -9999 -9999 -9999 -9999 -9999 -9999 -9999 -9999 -9999 -9999 -9999 905.0826 903.0498 901.1115 899.446 897.6417 896.2474 895.5945 895.2009 894.9532 894.74 894.459 894.0128 893.4864 892.9716 892.5572 892.2207 891.9585 891.774 891.6572 891.5792 891.5113 891.4298 891.3202 891.1924 891.0492 890.8922 890.7254 890.5563 890.3948 890.2504 890.1303 890.0389 889.9766 889.9405 889.9257 889.9254 889.9333 889.9445 889.9562 889.9672 889.9763 889.9813 889.9816 889.9792 889.9772 889.9736 889.9669 889.9585 889.9541 889.9495 889.9401 889.9221 889.9 889.857 889.8074 889.7546 889.7001 889.6449 889.5897 889.5352 889.4812 889.4283 889.3762 889.3247 889.2728 889.2194 889.1632 889.104 889.042 888.9775 888.9104 888.8401 888.7667 888.6908 888.6146 888.5414 888.4757 888.4218 888.38 888.3342 888.2858 888.2358 888.1863 888.1346 888.0811 888.0257 887.9691 887.9117 887.8554 887.8012 887.7502 887.7028 887.6593 887.6203 887.5857 887.5555 887.5281 887.5041 887.4838 887.4672 887.4551 887.4473 887.4453 887.4528 887.4739 887.5118 887.561 887.6073 887.6578 887.7155 887.7845 887.8669 887.9589 888.0522 888.1403 888.2242 888.3066 888.3802 888.4731 888.56 888.62 888.6443 888.6464 888.6625 888.7491 888.962 889.3464 889.9355 890.7613 891.7529 892.789 893.4201 893.853 894.2808 894.5014 894.7418 894.7865 894.7588 894.7562 894.7527 894.8869 895.3295 896.0397 896.975 897.7582 898.7482 899.431 900.154 900.9933 902.1226 903.4782 905.223 907.3472 -9999 -9999 -9999 -9999 -9999 -9999 -9999 -9999 -9999 -9999 -9999 -9999 -9999 -9999 -9999 -9999 -9999 -9999 -9999 -9999 -9999 -9999 -9999 -9999 -9999 -9999 -9999 -9999 -9999 -9999 -9999 -9999 -9999 -9999 -9999 -9999 -9999 -9999 -9999 -9999 -9999 -9999 -9999 -9999 -9999 -9999 -9999 -9999 -9999 -9999 -9999 -9999 -9999 -9999 -9999 -9999 -9999 -9999 -9999 -9999 -9999 -9999 -9999 -9999 -9999 -9999 -9999 -9999 -9999 -9999
-9999 -9999 -9999 -9999 -9999 -9999 -9999 -9999 -9999 -9999 -9999 -9999 -9999 -9999 -9999 -9999 -9999 -9999 -9999 903.8092 901.4495 899.6229 897.9498 896.6531 895.9184 895.3985 895.0958 894.9034 894.724 894.4589 894.0133 893.484 892.9675 892.5435 892.2006 891.9553 891.8026 891.6997 891.6172 891.5315 891.4298 891.3042 891.1573 890.9897 890.8061 890.6165 890.4343 890.2727 890.1407 890.0427 889.9786 889.9446 889.9333 889.9365 889.9463 889.9569 889.9663 889.976 889.983 889.9843 889.9785 889.9689 889.9644 889.9594 889.9492 889.9343 889.9316 889.9301 889.9236 889.9 889.8752 889.8354 889.7874 889.7355 889.6817 889.6271 889.5724 889.5179 889.4635 889.4095 889.356 889.3027 889.2493 889.1945 889.1372 889.0773 889.0148 888.9501 888.8832 888.8137 888.7413 888.667 888.5925 888.5211 888.4573 888.4081 888.3799 888.3289 888.2751 888.2208 888.1669 888.1125 888.0571 888.0005 887.9427 887.8846 887.8267 887.7705 887.7173 887.668 887.6227 887.5818 887.5457 887.5137 887.4858 887.4603 887.4375 887.4187 887.4038 887.3921 887.3853 887.3877 887.403 887.4325 887.4718 887.514 887.5607 887.6151 887.6815 887.7635 887.8594 887.9613 888.0577 888.1437 888.2215 888.2949 888.3802 888.4757 888.5521 888.5907 888.5939 888.5854 888.6097 888.7183 888.9589 889.3606 889.9383 890.68 891.4287 892.1458 892.7375 893.1581 893.7736 894.3318 894.4648 894.4705 894.4858 894.5728 894.6412 894.9944 895.5934 896.3608 896.5142 896.6686 897.0788 897.935 898.9164 900.0685 901.678 903.7498 906.1416 908.4805 -9999 -9999 -9999 -9999 -9999 -9999 -9999 -9999 -9999 -9999 -9999 -9999 -9999 -9999 -9999 -9999 -9999 -9999 -9999 -9999 -9999 -9999 -9999 -9999 -9999 -9999 -9999 -9999 -9999 -9999 -9999 -9999 -9999 -9999 -9999 -9999 -9999 -9999 -9999 -9999 -9999 -9999 -9999 -9999 -9999 -9999 -9999 -9999 -9999 -9999 -9999 -9999 -9999 -9999 -9999 -9999 -9999 -9999 -9999 -9999 -9999 -9999 -9999 -9999 -9999 -9999 -9999 -9999 -9999
-9999 -9999 -9999 -9999 -9999 -9999 -9999 -9999 -9999 -9999 -9999 -9999 -9999 -9999 -9999 -9999 -9999 -9999 -9999 904.8655 902.3275 900.1581 898.4149 897.0548 896.103 895.5684 895.2274 895.0179 894.8807 894.7219 894.4575 894.007 893.4844 892.982 892.5387 892.2167 892.0293 891.8897 891.778 891.6676 891.5529 891.4297 891.2809 891.103 890.9005 890.6864 890.4795 890.2972 890.151 890.0452 889.9787 889.9464 889.9385 889.9442 889.9548 889.9625 889.9659 889.9734 889.979 889.9773 889.9651 889.9438 889.9399 889.9368 889.9264 889.9 889.9 889.9 889.9 889.8737 889.8427 889.8037 889.7583 889.7094 889.6581 889.6059 889.5531 889.4999 889.4463 889.3923 889.3381 889.2838 889.2292 889.173 889.1146 889.0536 888.9905 888.9254 888.8586 888.7899 888.7189 888.6464 888.5737 888.5032 888.4371 888.3801 888.3524 888.3105 888.2598 888.205 888.1486 888.0917 888.0345 887.9766 887.9178 887.8585 887.7997 887.7422 887.687 887.6354 887.588 887.5452 887.5068 887.4736 887.444 887.4177 887.3931 887.3715 887.3541 887.34 887.3293 887.326 887.335 887.3571 887.3866 887.424 887.4678 887.5186 887.5803 887.6583 887.7539 887.8604 887.9645 888.0557 888.1346 888.2087 888.2901 888.3802 888.4709 888.5325 888.5524 888.5446 888.5394 888.5815 888.714 888.9698 889.3519 889.8234 890.1965 890.8463 891.4238 891.8694 892.7018 893.3434 893.7063 893.8964 894.1594 894.4575 894.4822 894.7377 895.0885 895.6105 895.7748 895.7636 895.9248 896.4282 897.0554 898.1127 899.7639 901.9567 904.5226 907.0315 908.8425 909.7111 -9999 -9999 -9999 -9999 -9999 -9999 -9999 -9999 -9999 -9999 -9999 -9999 -9999 -9999 -9999 -9999 -9999 -9999 -9999 -9999 -9999 -9999 -9999 -9999 -9999 -9999 -9999 -9999 -9999 -9999 -9999 -9999 -9999 -9999 -9999 -9999 -9999 -9999 -9999 -9999 -9999 -9999 -9999 -9999 -9999 -9999 -9999 -9999 -9999 -9999 -9999 -9999 -9999 -9999 -9999 -9999 -9999 -9999 -9999 -9999 -9999 -9999 -9999 -9999 -9999 -9999 -9999
-9999 -9999 -9999 -9999 -9999 -9999 -9999 -9999 -9999 -9999 -9999 -9999 -9999 -9999 -9999 -9999 -9999 -9999 -9999 -9999 903.4906 901.0995 899.2365 897.7688 896.6849 895.9817 895.4972 895.1948 895.0377 894.9054 894.7324 894.4564 894.0348 893.6128 893.0229 892.5892 892.3802 892.1797 892.0247 891.8647 891.7119 891.5736 891.4293 891.2437 891.0209 890.7777 890.5402 890.3329 890.1692 890.0522 889.9802 889.9473 889.941 889.9465 889.9564 889.9581 889.947 889.9517 889.9562 889.9542 889.9397 889.9001 889.9 889.9 889.9 889.8716 889.8589 889.853 889.8464 889.8253 889.7968 889.7616 889.7208 889.6764 889.6295 889.5808 889.5311 889.4806 889.4287 889.3759 889.3219 889.2673 889.2119 889.1548 889.0953 889.0334 888.9692 888.9035 888.8367 888.7686 888.6992 888.6293 888.5599 888.4932 888.4319 888.38 888.34 888.2959 888.2448 888.189 888.1308 888.0718 888.0129 887.9539 887.894 887.8338 887.7739 887.7155 887.6589 887.6056 887.5554 887.5103 887.4701 887.4346 887.4036 887.3756 887.3501 887.3265 887.3065 887.29 887.2769 887.2688 887.2701 887.2836 887.3065 887.338 887.3784 887.4264 887.4839 887.5555 887.6464 887.7532 887.8635 887.9631 888.0478 888.1252 888.2043 888.2911 888.3802 888.4609 888.5055 888.5129 888.504 888.5101 888.5685 888.7078 888.9329 889.2139 889.5006 889.9465 890.4507 890.8521 891.5126 892.1752 892.7299 893.0688 893.5763 894.0034 894.2159 894.4468 894.5474 894.9935 895.3228 895.384 895.4635 895.8467 896.4629 896.7145 897.9814 899.9797 902.4527 905.0038 907.1699 908.6021 908.9639 -9999 -9999 -9999 -9999 -9999 -9999 -9999 -9999 -9999 -9999 -9999 -9999 -9999 -9999 -9999 -9999 -9999 -9999 -9999 -9999 -9999 -9999 -9999 -9999 -9999 -9999 -9999 -9999 -9999 -9999 -9999 -9999 -9999 -9999 -9999 -9999 -9999 -9999 -9999 -9999 -9999 -9999 -9999 -9999 -9999 -9999 -9999 -9999 -9999 -9999 -9999 -9999 -9999 -9999 -9999 -9999 -9999 -9999 -9999 -9999 -9999 -9999 -9999 -9999 -9999 -9999
-9999 -9999 -9999 -9999 -9999 -9999 -9999 -9999 -9999 -9999 -9999 -9999 -9999 -9999 -9999 -9999 -9999 -9999 -9999 -9999 905.0074 902.6218 900.5328 898.869 897.5852 896.6594 895.9962 895.5456 895.3279 895.1353 894.9624 894.744 894.4963 894.3429 893.7384 893.1109 892.9054 892.5859 892.3892 892.1466 891.9283 891.7622 891.6138 891.4289 891.187 890.9093 890.6336 890.3953 890.2096 890.0747 889.9886 889.9481 889.9388 889.9364 889.944 889.9398 889.9001 889.9 889.9 889.9 889.8997 889.855 889.835 889.8272 889.8218 889.8049 889.793 889.7856 889.7773 889.7614 889.7388 889.7101 889.6759 889.6376 889.5963 889.5526 889.507 889.4597 889.4105 889.3596 889.3069 889.2527 889.1971 889.1394 889.0791 889.0161 888.9509 888.8845 888.8174 888.7499 888.6821 888.615 888.5493 888.4871 888.4302 888.38 888.3342 888.2859 888.2323 888.174 888.1133 888.0525 887.9921 887.9319 887.8712 887.8101 887.7493 887.6897 887.6318 887.5773 887.5247 887.4774 887.4353 887.3977 887.3644 887.3349 887.3082 887.2837 887.2616 887.2428 887.2271 887.2153 887.2106 887.2162 887.2319 887.2574 887.2922 887.3363 887.3896 887.4553 887.5392 887.6428 887.7561 887.8649 887.9597 888.0435 888.1244 888.2084 888.2965 888.3801 888.447 888.4758 888.4772 888.4728 888.489 888.5525 888.6749 888.8517 889.0846 889.4285 889.8243 890.0103 890.5154 891.0029 891.5776 892.226 892.9097 893.4218 893.7119 893.9608 894.1712 894.5124 894.9419 895.1489 895.2331 895.4963 895.9426 895.974 896.5665 898.0979 900.2478 902.6528 904.8915 906.5237 907.2859 -9999 -9999 -9999 -9999 -9999 -9999 -9999 -9999 -9999 -9999 -9999 -9999 -9999 -9999 -9999 -9999 -9999 -9999 -9999 -9999 -9999 -9999 -9999 -9999 -9999 -9999 -9999 -9999 -9999 -9999 -9999 -9999 -9999 -9999 -9999 -9999 -9999 -9999 -9999 -9999 -9999 -9999 -9999 -9999 -9999 -9999 -9999 -9999 -9999 -9999 -9999 -9999 -9999 -9999 -9999 -9999 -9999 -9999 -9999 -9999 -9999 -9999 -9999 -9999 -9999 -9999
-9999 -9999 -9999 -9999 -9999 -9999 -9999 -9999 -9999 -9999 -9999 -9999 -9999 -9999 -9999 -9999 -9999 -9999 -9999 -9999 -9999 904.4096 902.269 900.371 898.8564 897.7167 896.8669 896.2228 895.9171 895.5508 895.3044 895.0348 894.825 894.7014 894.4022 893.8943 893.5715 893.0929 892.9065 892.5302 892.2209 892.0291 891.8821 891.6821 891.4279 891.1125 890.7875 890.5104 890.2973 890.1304 890.011 889.9479 889.9286 889.9001 889.9 889.8995 889.8353 889.8002 889.784 889.7772 889.7706 889.7447 889.7271 889.7192 889.7151 889.7085 889.7036 889.7006 889.6962 889.687 889.6722 889.6516 889.6254 889.5945 889.5601 889.5221 889.4811 889.4376 889.3917 889.3435 889.2926 889.2395 889.1842 889.1264 889.0657 889.002 888.9359 888.8687 888.801 888.7338 888.6674 888.6024 888.54 888.4819 888.4288 888.38 888.3317 888.2795 888.222 888.1602 888.0963 888.0337 887.9719 887.9107 887.8491 887.7871 887.7253 887.6643 887.6046 887.5477 887.4941 887.4458 887.4026 887.3632 887.3268 887.2953 887.2676 887.2424 887.2192 887.1985 887.1805 887.1656 887.1561 887.1548 887.1634 887.1815 887.2092 887.2477 887.2958 887.3551 887.4312 887.5284 887.6418 887.7584 887.8661 887.9606 888.0476 888.1323 888.2188 888.3051 888.3801 888.4312 888.4476 888.4476 888.4482 888.4705 888.5314 888.639 888.8026 889.0349 889.2919 889.4897 889.8267 890.0542 890.6514 891.4056 892.1464 892.7169 893.0177 893.4266 893.7492 894.1265 894.5087 894.8622 895.0114 895.1957 895.5068 895.467 895.703 896.5759 898.2323 900.3544 902.5533 904.3997 905.5382 906.2845 -9999 -9999 -9999 -9999 -9999 -9999 -9999 -9999 -9999 -9999 -9999 -9999 -9999 -9999 -9999 -9999 -9999 -9999 -9999 -9999 -9999 -9999 -9999 -9999 -9999 -9999 -9999 -9999 -9999 -9999 -9999 -9999 -9999 -9999 -9999 -9999 -9999 -9999 -9999 -9999 -9999 -9999 -9999 -9999 -9999 -9999 -9999 -9999 -9999 -9999 -9999 -9999 -9999 -9999 -9999 -9999 -9999 -9999 -9999 -9999 -9999 -9999 -9999 -9999 -9999
-9999 -9999 -9999 -9999 -9999 -9999 -9999 -9999 -9999 -9999 -9999 -9999 -9999 -9999 -9999 -9999 -9999 -9999 -9999 -9999 -9999 906.1765 904.1975 902.25 900.5407 899.2552 898.3118 897.5651 896.9263 896.2842 895.9091 895.4354 895.1021 894.9228 894.728 894.4872 894.3594 893.9064 893.5754 893.0212 892.6161 892.4186 892.2918 892.0513 891.78 891.4393 891.0465 890.7189 890.4742 890.2495 890.0582 889.9379 889.8994 889.8224 889.777 889.7416 889.684 889.6411 889.6174 889.6069 889.601 889.5905 889.5842 889.5844 889.588 889.5925 889.5978 889.6031 889.6064 889.6057 889.6002 889.5887 889.5714 889.5488 889.5219 889.4904 889.4545 889.4152 889.3729 889.3278 889.2791 889.2273 889.1726 889.1151 889.0546 888.9907 888.9243 888.8564 888.7881 888.7207 888.6548 888.591 888.5308 888.4756 888.4261 888.38 888.3304 888.2748 888.2134 888.1476 888.0801 888.0161 887.9529 887.8903 887.8275 887.7649 887.7023 887.64 887.5784 887.5195 887.4648 887.4157 887.3718 887.3312 887.2909 887.257 887.2283 887.2026 887.179 887.1571 887.1367 887.1192 887.1058 887.0989 887.1005 887.1106 887.1299 887.1604 887.2023 887.2553 887.3231 887.4116 887.5206 887.6415 887.7617 887.8716 887.9688 888.059 888.1465 888.2336 888.316 888.38 888.4158 888.424 888.4255 888.4307 888.457 888.5159 888.6142 888.7538 888.9115 889.064 889.2678 889.4839 889.9375 890.6111 891.2891 891.6784 892.2032 892.7731 893.2977 893.7338 894.1164 894.4936 894.7396 894.8812 895.1644 895.1075 895.1477 895.6036 896.6472 898.3749 900.4467 902.4197 904.0372 905.3364 906.7377 -9999 -9999 -9999 -9999 -9999 -9999 -9999 -9999 -9999 -9999 -9999 -9999 -9999 -9999 -9999 -9999 -9999 -9999 -9999 -9999 -9999 -9999 -9999 -9999 -9999 -9999 -9999 -9999 -9999 -9999 -9999 -9999 -9999 -9999 -9999 -9999 -9999 -9999 -9999 -9999 -9999 -9999 -9999 -9999 -9999 -9999 -9999 -9999 -9999 -9999 -9999 -9999 -9999 -9999 -9999 -9999 -9999 -9999 -9999 -9999 -9999 -9999 -9999 -9999
-9999 -9999 -9999 -9999 -9999 -9999 -9999 -9999 -9999 -9999 -9999 -9999 -9999 -9999 -9999 -9999 -9999 -9999 -9999 -9999 -9999 -9999 906.1309 904.3621 902.6917 901.316 900.3315 899.5062 898.5846 897.7062 896.9106 896.1095 895.5452 895.2466 895.0164 894.8425 894.7185 894.4935 894.3365 893.7523 893.213 892.9995 892.8922 892.5496 892.3032 891.9999 891.4842 891.0809 890.8076 890.4811 890.1541 889.8992 889.7756 889.686 889.6136 889.5505 889.4899 889.4454 889.421 889.4122 889.412 889.4148 889.4221 889.4341 889.4492 889.4659 889.483 889.4989 889.5121 889.5213 889.5256 889.5241 889.5162 889.5023 889.4832 889.4586 889.4282 889.3932 889.3546 889.3126 889.2664 889.216 889.1622 889.1053 889.0453 888.982 888.9159 888.8478 888.7791 888.7108 888.6442 888.5802 888.5203 888.4664 888.4204 888.38 888.3291 888.2698 888.205 888.1367 888.0679 888.0009 887.9352 887.8708 887.8069 887.7431 887.6798 887.6166 887.5538 887.4933 887.4374 887.387 887.3423 887.3011 887.2561 887.2205 887.1904 887.1641 887.1395 887.1167 887.0951 887.0754 887.0591 887.0474 887.0424 887.045 887.0555 887.0763 887.1099 887.1559 887.2158 887.2946 887.3956 887.5156 887.6448 887.7697 887.8822 887.9821 888.0758 888.1663 888.2529 888.3282 888.38 888.4033 888.4086 888.4124 888.4219 888.4489 888.4994 888.5726 888.6613 888.7633 888.9009 889.095 889.4387 889.9281 890.483 890.9109 891.374 891.8063 892.6444 893.2435 893.6664 894.0919 894.4512 894.4962 894.7301 894.8208 894.7906 895.0081 895.6542 896.8565 898.7244 900.6216 902.3639 904.2136 905.8462 907.3712 908.705 -9999 -9999 -9999 -9999 -9999 -9999 -9999 -9999 -9999 -9999 -9999 -9999 -9999 -9999 -9999 -9999 -9999 -9999 -9999 -9999 -9999 -9999 -9999 -9999 -9999 -9999 -9999 -9999 -9999 -9999 -9999 -9999 -9999 -9999 -9999 -9999 -9999 -9999 -9999 -9999 -9999 -9999 -9999 -9999 -9999 -9999 -9999 -9999 -9999 -9999 -9999 -9999 -9999 -9999 -9999 -9999 -9999 -9999 -9999 -9999 -9999 -9999
-9999 -9999 -9999 -9999 -9999 -9999 -9999 -9999 -9999 -9999 -9999 -9999 -9999 -9999 -9999 -9999 -9999 -9999 -9999 -9999 -9999 -9999 -9999 906.5701 905.1713 904.0095 902.9366 901.9236 900.7689 899.6921 898.5275 897.3879 896.449 895.9418 895.5065 895.2397 895.037 894.8824 894.755 894.4802 894.2516 893.8661 893.5845 893.1076 892.958 892.7911 892.2142 891.6832 891.3812 890.8889 890.3762 889.9207 889.7255 889.6008 889.481 889.377 889.2971 889.2457 889.2207 889.2153 889.2223 889.2365 889.2562 889.2805 889.3078 889.3367 889.3658 889.3933 889.4176 889.4374 889.452 889.4604 889.4619 889.4568 889.4454 889.4278 889.4033 889.3727 889.3378 889.2988 889.255 889.2062 889.1531 889.0967 889.0376 888.9756 888.9105 888.8429 888.7738 888.7045 888.6363 888.5704 888.5084 888.4525 888.408 888.3799 888.324 888.261 888.1942 888.1248 888.0548 887.986 887.9183 887.8521 887.7869 887.7219 887.6577 887.5939 887.5304 887.4687 887.4113 887.359 887.3116 887.2674 887.2238 887.1866 887.1549 887.1273 887.1013 887.077 887.0548 887.0342 887.0153 886.9995 886.9888 886.9846 886.9868 886.9976 887.0208 887.0582 887.1103 887.1797 887.2711 887.3853 887.517 887.6538 887.7817 887.8962 888 888.0984 888.1905 888.2736 888.3391 888.38 888.3964 888.4024 888.4081 888.418 888.438 888.4708 888.5155 888.5773 888.677 888.8379 889.1052 889.4751 889.9059 890.311 890.6993 891.1027 891.7288 892.5688 893.0078 893.5505 893.9952 894.2409 894.4767 894.5802 894.5735 894.6768 895.0559 895.8538 897.175 899.0767 900.9041 902.796 904.5911 906.1499 907.3951 908.2012 -9999 -9999 -9999 -9999 -9999 -9999 -9999 -9999 -9999 -9999 -9999 -9999 -9999 -9999 -9999 -9999 -9999 -9999 -9999 -9999 -9999 -9999 -9999 -9999 -9999 -9999 -9999 -9999 -9999 -9999 -9999 -9999 -9999 -9999 -9999 -9999 -9999 -9999 -9999 -9999 -9999 -9999 -9999 -9999 -9999 -9999 -9999 -9999 -9999 -9999 -9999 -9999 -9999 -9999 -9999 -9999 -9999 -9999 -9999 -9999 -9999
-9999 -9999 -9999 -9999 -9999 -9999 -9999 -9999 -9999 -9999 -9999 -9999 -9999 -9999 -9999 -9999 -9999 -9999 -9999 -9999 -9999 -9999 -9999 -9999 -9999 906.8043 905.8071 904.7788 903.4922 902.2053 900.7828 899.3811 898.1918 897.2571 896.4363 895.9466 895.5228 895.2959 895.1162 894.9409 894.7603 894.5045 894.3735 893.9353 893.6528 893.403 893.0032 892.7082 892.1711 891.4889 890.8482 890.2906 889.9077 889.6661 889.4352 889.2581 889.1404 889.0728 889.0427 889.0381 889.0496 889.0712 889.1001 889.1344 889.1722 889.2122 889.2526 889.2912 889.3265 889.3571 889.382 889.4 889.4108 889.4142 889.4105 889.3994 889.3805 889.3543 889.3228 889.2867 889.2452 889.1978 889.1453 889.0894 889.0313 888.9709 888.9076 888.8411 888.772 888.7018 888.6318 888.5635 888.4978 888.4358 888.3801 888.3504 888.3032 888.2443 888.179 888.1101 888.04 887.9702 887.9014 887.8336 887.767 887.7012 887.6362 887.5718 887.5079 887.4453 887.3864 887.3323 887.2828 887.2362 887.1925 887.1543 887.1208 887.0917 887.064 887.0382 887.0148 886.9938 886.9739 886.9552 886.9395 886.9291 886.9243 886.9258 886.9378 886.9651 887.0087 887.0697 887.1512 887.257 887.3851 887.5267 887.6668 887.7962 887.9142 888.0235 888.1249 888.2151 888.2905 888.3457 888.38 888.3959 888.4041 888.4082 888.4127 888.4229 888.4421 888.4783 888.5489 888.6782 888.8875 889.1801 889.5284 889.8951 890.2263 890.5702 891.0282 891.6005 892.217 892.9019 893.4897 893.9235 894.2604 894.4772 894.5146 894.5541 894.7396 895.2307 896.1484 897.6307 899.3632 901.1424 902.9544 904.6316 905.928 906.7308 907.2434 -9999 -9999 -9999 -9999 -9999 -9999 -9999 -9999 -9999 -9999 -9999 -9999 -9999 -9999 -9999 -9999 -9999 -9999 -9999 -9999 -9999 -9999 -9999 -9999 -9999 -9999 -9999 -9999 -9999 -9999 -9999 -9999 -9999 -9999 -9999 -9999 -9999 -9999 -9999 -9999 -9999 -9999 -9999 -9999 -9999 -9999 -9999 -9999 -9999 -9999 -9999 -9999 -9999 -9999 -9999 -9999 -9999 -9999 -9999 -9999
-9999 -9999 -9999 -9999 -9999 -9999 -9999 -9999 -9999 -9999 -9999 -9999 -9999 -9999 -9999 -9999 -9999 -9999 -9999 -9999 -9999 -9999 -9999 -9999 -9999 -9999 908.7819 907.7634 906.4097 905.1497 903.6949 902.0322 900.6233 899.3233 898.161 897.1746 896.3734 895.9839 895.5981 895.3676 895.1389 894.9144 894.7456 894.4664 894.1766 893.9217 893.6383 893.3611 892.9016 892.2242 891.4878 890.8326 890.29 889.8699 889.4756 889.2097 889.0456 888.9537 888.911 888.9 888.9091 888.9315 888.9639 889.0038 889.049 889.0975 889.1475 889.1963 889.2419 889.283 889.3178 889.3452 889.3645 889.3757 889.3792 889.3744 889.3606 889.3386 889.3102 889.2769 889.2375 889.1915 889.1393 889.0836 889.0264 888.9677 888.9065 888.8417 888.7733 888.7025 888.631 888.5612 888.4946 888.4335 888.38 888.3356 888.2849 888.2261 888.1614 888.0932 888.0234 887.9532 887.8836 887.8149 887.7473 887.6807 887.615 887.5502 887.4862 887.423 887.3625 887.307 887.2562 887.2073 887.1625 887.1225 887.0865 887.0557 887.0259 886.9997 886.9756 886.9539 886.9339 886.9139 886.8948 886.8788 886.8676 886.8616 886.8634 886.8792 886.9136 886.9663 887.0396 887.1364 887.2581 887.3969 887.542 887.6826 887.8151 887.9376 888.0499 888.1488 888.232 888.2977 888.3459 888.38 888.4 888.4084 888.4083 888.4069 888.4125 888.4328 888.4824 888.5818 888.7469 888.9785 889.2656 889.58 889.895 890.1859 890.5314 890.9642 891.4901 892.1766 892.8971 893.4827 893.9496 894.2865 894.4781 894.5317 894.5868 894.845 895.3984 896.3286 897.6847 899.2863 901.074 902.8798 904.4635 905.5265 906.1781 -9999 -9999 -9999 -9999 -9999 -9999 -9999 -9999 -9999 -9999 -9999 -9999 -9999 -9999 -9999 -9999 -9999 -9999 -9999 -9999 -9999 -9999 -9999 -9999 -9999 -9999 -9999 -9999 -9999 -9999 -9999 -9999 -9999 -9999 -9999 -9999 -9999 -9999 -9999 -9999 -9999 -9999 -9999 -9999 -9999 -9999 -9999 -9999 -9999 -9999 -9999 -9999 -9999 -9999 -9999 -9999 -9999 -9999 -9999 -9999
-9999 -9999 -9999 -9999 -9999 -9999 -9999 -9999 -9999 -9999 -9999 -9999 -9999 -9999 -9999 -9999 -9999 -9999 -9999 -9999 -9999 -9999 -9999 -9999 -9999 -9999 -9999 -9999 909.226 908.2058 906.8552 905.3204 903.7642 901.992 900.4346 898.9842 897.9044 897.1875 896.3535 895.9393 895.5286 895.2039 894.9551 894.7095 894.4789 894.2717 894.0621 893.8187 893.4421 892.9071 892.2162 891.4506 890.7269 890.011 889.567 889.2533 889.0436 888.9167 888.8486 888.8184 888.8133 888.8265 888.8544 888.8939 888.9423 888.9965 889.0537 889.1111 889.1659 889.2164 889.2607 889.297 889.3244 889.343 889.3529 889.3535 889.3444 889.326 889.3006 889.2694 889.232 889.1871 889.1353 889.0795 889.0227 888.9656 888.9065 888.8436 888.7761 888.7048 888.6321 888.5611 888.4945 888.4341 888.38 888.3279 888.2717 888.2102 888.1444 888.0759 888.0062 887.936 887.866 887.7965 887.728 887.6606 887.5942 887.5289 887.4647 887.4011 887.3396 887.2819 887.2288 887.1792 887.1335 887.0917 887.0505 887.0137 886.9856 886.9608 886.9376 886.9153 886.8949 886.8746 886.8539 886.834 886.817 886.8047 886.7985 886.8036 886.8271 886.8718 886.9374 887.0273 887.1414 887.2745 887.4164 887.5615 887.7038 887.8392 887.962 888.0701 888.1602 888.2333 888.2914 888.3391 888.38 888.4044 888.4107 888.4077 888.4049 888.4163 888.4503 888.5242 888.6514 888.8357 889.0669 889.3336 889.6147 889.8959 890.176 890.5118 890.9374 891.4863 892.1833 892.9023 893.4982 893.9651 894.2909 894.4761 894.4807 894.6149 894.905 895.4142 896.2033 897.3508 899.0928 900.9843 902.8251 904.3674 905.3959 906.2219 -9999 -9999 -9999 -9999 -9999 -9999 -9999 -9999 -9999 -9999 -9999 -9999 -9999 -9999 -9999 -9999 -9999 -9999 -9999 -9999 -9999 -9999 -9999 -9999 -9999 -9999 -9999 -9999 -9999 -9999 -9999 -9999 -9999 -9999 -9999 -9999 -9999 -9999 -9999 -9999 -9999 -9999 -9999 -9999 -9999 -9999 -9999 -9999 -9999 -9999 -9999 -9999 -9999 -9999 -9999 -9999 -9999 -9999 -9999
-9999 -9999 -9999 -9999 -9999 -9999 -9999 -9999 -9999 -9999 -9999 -9999 -9999 -9999 -9999 -9999 -9999 -9999 -9999 -9999 -9999 -9999 -9999 -9999 -9999 -9999 -9999 -9999 -9999 910.8455 909.9158 908.7266 907.1895 905.1243 902.9271 901.0752 899.7277 898.8483 897.5833 896.694 896.0203 895.5289 895.1565 894.8637 894.6421 894.4792 894.3225 894.1238 893.8038 893.3622 892.8246 892.0847 891.3731 890.6144 889.9547 889.4966 889.1873 888.9924 888.8754 888.8062 888.7701 888.7609 888.7748 888.8074 888.8541 888.9105 888.9728 889.0369 889.0996 889.1584 889.2114 889.2559 889.2909 889.3163 889.332 889.3373 889.3321 889.3171 889.2942 889.2649 889.2289 889.1848 889.1333 889.0774 889.0208 888.9646 888.9073 888.8461 888.7793 888.7074 888.633 888.5602 888.493 888.4337 888.38 888.3236 888.2623 888.197 888.1289 888.0596 887.9895 887.9193 887.8487 887.7786 887.7092 887.6411 887.5742 887.5083 887.4437 887.3798 887.3175 887.258 887.2029 887.1522 887.106 887.0634 887.0183 886.9799 886.9496 886.9242 886.9014 886.879 886.8575 886.837 886.8157 886.7936 886.7715 886.7543 886.7424 886.7393 886.7526 886.7878 886.8472 886.9304 887.0386 887.1643 887.3008 887.442 887.5869 887.73 887.8625 887.9772 888.0733 888.1514 888.2152 888.2712 888.3258 888.3799 888.4048 888.4095 888.4072 888.411 888.4353 888.488 888.5835 888.7258 888.9123 889.1313 889.3753 889.6324 889.897 890.1733 890.5095 890.9402 891.4896 892.1875 892.9042 893.4941 893.9373 894.2182 894.3448 894.4785 894.631 894.8792 895.3076 896.0411 897.2513 899.0899 901.0642 902.9052 904.4562 905.6925 -9999 -9999 -9999 -9999 -9999 -9999 -9999 -9999 -9999 -9999 -9999 -9999 -9999 -9999 -9999 -9999 -9999 -9999 -9999 -9999 -9999 -9999 -9999 -9999 -9999 -9999 -9999 -9999 -9999 -9999 -9999 -9999 -9999 -9999 -9999 -9999 -9999 -9999 -9999 -9999 -9999 -9999 -9999 -9999 -9999 -9999 -9999 -9999 -9999 -9999 -9999 -9999 -9999 -9999 -9999 -9999 -9999 -9999 -9999
-9999 -9999 -9999 -9999 -9999 -9999 -9999 -9999 -9999 -9999 -9999 -9999 -9999 -9999 -9999 -9999 -9999 -9999 -9999 -9999 -9999 -9999 -9999 -9999 -9999 -9999 -9999 -9999 -9999 -9999 -9999 -9999 910.5107 908.541 906.0181 903.5261 901.606 900.1572 898.7377 897.6127 896.757 896.0706 895.5018 895.0708 894.7784 894.6007 894.4797 894.3236 894.0142 893.5704 893.0131 892.5139 891.9658 891.35 890.6309 889.962 889.495 889.1946 889.0017 888.8685 888.781 888.7346 888.7245 888.7437 888.7848 888.8408 888.9058 888.9749 889.044 889.11 889.1703 889.2222 889.264 889.2955 889.3165 889.3261 889.3243 889.312 889.2913 889.2635 889.2283 889.1848 889.1334 889.0772 889.0204 888.9647 888.9085 888.8485 888.782 888.7089 888.6318 888.556 888.4869 888.4288 888.38 888.3206 888.2539 888.1846 888.1144 888.0442 887.9739 887.9035 887.8325 887.7617 887.6914 887.6224 887.5551 887.4888 887.4235 887.3594 887.2965 887.2358 887.1786 887.1256 887.0771 887.0319 886.9877 886.9488 886.9164 886.8895 886.8663 886.8439 886.8217 886.8003 886.7774 886.7543 886.7306 886.7098 886.6937 886.6852 886.6906 886.7168 886.7687 886.8469 886.9486 887.0686 887.1976 887.3335 887.4738 887.6171 887.7538 887.8743 887.9739 888.056 888.1241 888.1853 888.2479 888.325 888.38 888.4019 888.4067 888.41 888.425 888.4639 888.5323 888.6388 888.7842 888.9636 889.1691 889.3958 889.6392 889.8975 890.175 890.5128 890.9418 891.4904 892.1899 892.9011 893.4684 893.8727 894.1295 894.3197 894.4781 894.6113 894.8162 895.2316 896.0255 897.3503 899.333 901.2837 903.0845 904.7188 906.3038 -9999 -9999 -9999 -9999 -9999 -9999 -9999 -9999 -9999 -9999 -9999 -9999 -9999 -9999 -9999 -9999 -9999 -9999 -9999 -9999 -9999 -9999 -9999 -9999 -9999 -9999 -9999 -9999 -9999 -9999 -9999 -9999 -9999 -9999 -9999 -9999 -9999 -9999 -9999 -9999 -9999 -9999 -9999 -9999 -9999 -9999 -9999 -9999 -9999 -9999 -9999 -9999 -9999 -9999 -9999 -9999 -9999 -9999
-9999 -9999 -9999 -9999 -9999 -9999 -9999 -9999 -9999 -9999 -9999 -9999 -9999 -9999 -9999 -9999 -9999 -9999 -9999 -9999 -9999 -9999 -9999 -9999 -9999 -9999 -9999 -9999 -9999 -9999 -9999 -9999 -9999 -9999 909.5823 906.7946 904.3023 902.0738 900.2544 898.8681 897.8674 897.0662 896.1497 895.459 894.998 894.728 894.5848 894.4741 894.1805 893.7983 893.3593 892.9483 892.5026 891.99 891.3639 890.6382 889.9516 889.5146 889.2242 888.9999 888.8395 888.7424 888.7004 888.7015 888.7339 888.787 888.853 888.9255 888.9995 889.0712 889.1376 889.1957 889.2435 889.2805 889.3062 889.3196 889.3207 889.3107 889.2917 889.2651 889.2303 889.1869 889.1353 889.0789 889.0218 888.9662 888.9103 888.8507 888.7838 888.709 888.6287 888.5477 888.4734 888.4147 888.3799 888.3137 888.2424 888.1709 888.0999 888.0295 887.9595 887.8889 887.8176 887.7457 887.6747 887.605 887.5367 887.4705 887.4047 887.3402 887.2767 887.215 887.1561 887.1008 887.0497 887.0023 886.9583 886.9188 886.8847 886.8558 886.8314 886.808 886.7856 886.7632 886.7409 886.7186 886.6953 886.6724 886.6514 886.6388 886.6398 886.6594 886.7042 886.7762 886.8721 886.9851 887.1084 887.2368 887.3713 887.5089 887.6435 887.7657 887.8696 887.9556 888.0303 888.1019 888.183 888.2677 888.3364 888.38 888.3988 888.4058 888.4171 888.4427 888.4921 888.5692 888.6782 888.8206 888.9916 889.1869 889.4037 889.641 889.8978 890.1765 890.514 890.9429 891.4919 892.193 892.8967 893.4398 893.8295 894.1111 894.3209 894.4781 894.5865 894.7889 895.2791 896.218 897.8066 899.6895 901.5392 903.3312 905.0955 -9999 -9999 -9999 -9999 -9999 -9999 -9999 -9999 -9999 -9999 -9999 -9999 -9999 -9999 -9999 -9999 -9999 -9999 -9999 -9999 -9999 -9999 -9999 -9999 -9999 -9999 -9999 -9999 -9999 -9999 -9999 -9999 -9999 -9999 -9999 -9999 -9999 -9999 -9999 -9999 -9999 -9999 -9999 -9999 -9999 -9999 -9999 -9999 -9999 -9999 -9999 -9999 -9999 -9999 -9999 -9999 -9999 -9999
-9999 -9999 -9999 -9999 -9999 -9999 -9999 -9999 -9999 -9999 -9999 -9999 -9999 -9999 -9999 -9999 -9999 -9999 -9999 -9999 -9999 -9999 -9999 -9999 -9999 -9999 -9999 -9999 -9999 -9999 -9999 -9999 -9999 -9999 -9999 -9999 907.6116 904.8914 902.4044 900.5845 899.3579 898.4962 897.2198 896.1316 895.4052 894.9489 894.6747 894.4825 894.291 894.014 893.6805 893.3333 892.9528 892.5125 891.9218 891.273 890.507 889.9193 889.5238 889.1805 888.9314 888.777 888.7 888.6807 888.702 888.7504 888.8157 888.8899 888.967 889.0426 889.1135 889.1765 889.2289 889.2703 889.3001 889.3171 889.3209 889.3128 889.2953 889.2695 889.2349 889.1908 889.1387 889.0819 889.0245 888.9686 888.9127 888.8529 888.7854 888.7087 888.625 888.5384 888.4543 888.3801 888.3431 888.2882 888.2228 888.1537 888.0845 888.0153 887.9459 887.8757 887.804 887.731 887.6591 887.5885 887.5198 887.4528 887.3871 887.3221 887.2583 887.1959 887.1356 887.0784 887.025 886.9756 886.9305 886.8898 886.8536 886.8217 886.7939 886.7712 886.7495 886.7277 886.7059 886.6851 886.6637 886.6412 886.6145 886.5978 886.5964 886.6133 886.6534 886.7192 886.8077 886.9133 887.0302 887.1526 887.2796 887.4102 887.5388 887.6588 887.7651 887.8575 887.9407 888.0271 888.1182 888.2079 888.2844 888.3423 888.38 888.3977 888.4071 888.4233 888.4579 888.5128 888.5922 888.7001 888.8389 889.0037 889.1934 889.4061 889.6417 889.898 890.1771 890.5157 890.9439 891.4909 892.1969 892.8948 893.4275 893.8237 894.1172 894.3303 894.4779 894.5809 894.8771 895.507 896.5972 898.2437 900.032 901.8492 903.6813 905.4893 -9999 -9999 -9999 -9999 -9999 -9999 -9999 -9999 -9999 -9999 -9999 -9999 -9999 -9999 -9999 -9999 -9999 -9999 -9999 -9999 -9999 -9999 -9999 -9999 -9999 -9999 -9999 -9999 -9999 -9999 -9999 -9999 -9999 -9999 -9999 -9999 -9999 -9999 -9999 -9999 -9999 -9999 -9999 -9999 -9999 -9999 -9999 -9999 -9999 -9999 -9999 -9999 -9999 -9999 -9999 -9999 -9999
-9999 -9999 -9999 -9999 -9999 -9999 -9999 -9999 -9999 -9999 -9999 -9999 -9999 -9999 -9999 -9999 -9999 -9999 -9999 -9999 -9999 -9999 -9999 -9999 -9999 -9999 -9999 -9999 -9999 -9999 -9999 -9999 -9999 -9999 -9999 -9999 -9999 908.2091 905.306 902.816 901.0905 899.8253 898.4514 897.1603 896.1189 895.4071 894.9427 894.6581 894.476 894.2432 893.9651 893.6517 893.2974 892.8871 892.2432 891.5286 890.9229 890.3422 889.8503 889.3726 889.0418 888.8365 888.7264 888.6854 888.6935 888.7345 888.7961 888.8694 888.9472 889.0245 889.0978 889.1637 889.2195 889.2642 889.2974 889.3176 889.3239 889.3175 889.3013 889.2764 889.2416 889.1967 889.1434 889.0857 889.0278 888.9716 888.9154 888.8553 888.7871 888.7095 888.6244 888.5365 888.4524 888.38 888.325 888.2673 888.2034 888.1362 888.0695 888.0021 887.9336 887.8635 887.7914 887.717 887.6439 887.5729 887.5039 887.4366 887.3704 887.3053 887.241 887.1782 887.1171 887.0583 887.0031 886.952 886.9053 886.8628 886.8243 886.79 886.7607 886.7365 886.7141 886.6926 886.6715 886.6509 886.6296 886.6062 886.5799 886.5612 886.5582 886.5744 886.6132 886.6744 886.755 886.8525 886.962 887.0787 887.1984 887.3209 887.4423 887.5577 887.6646 887.7626 887.8553 887.9496 888.0458 888.1393 888.2225 888.291 888.3439 888.38 888.3975 888.4023 888.4271 888.4683 888.5232 888.6029 888.7102 888.8459 889.0073 889.196 889.4094 889.6448 889.8989 890.1772 890.507 890.9111 891.482 892.2003 892.8958 893.4283 893.8346 894.1351 894.3434 894.482 894.7084 895.1506 895.9521 897.1786 898.7658 900.4984 902.3328 904.1394 -9999 -9999 -9999 -9999 -9999 -9999 -9999 -9999 -9999 -9999 -9999 -9999 -9999 -9999 -9999 -9999 -9999 -9999 -9999 -9999 -9999 -9999 -9999 -9999 -9999 -9999 -9999 -9999 -9999 -9999 -9999 -9999 -9999 -9999 -9999 -9999 -9999 -9999 -9999 -9999 -9999 -9999 -9999 -9999 -9999 -9999 -9999 -9999 -9999 -9999 -9999 -9999 -9999 -9999 -9999 -9999 -9999
-9999 -9999 -9999 -9999 -9999 -9999 -9999 -9999 -9999 -9999 -9999 -9999 -9999 -9999 -9999 -9999 -9999 -9999 -9999 -9999 -9999 -9999 -9999 -9999 -9999 -9999 -9999 -9999 -9999 -9999 -9999 -9999 -9999 -9999 -9999 -9999 -9999 -9999 -9999 905.8197 903.6066 901.8025 900.1508 898.6147 897.2997 896.2356 895.4647 894.9747 894.6909 894.476 894.2203 893.9081 893.509 893.0035 892.5243 891.9635 891.407 890.7513 890.0251 889.542 889.1856 888.942 888.7963 888.7278 888.7166 888.7446 888.7982 888.8663 888.9412 889.0171 889.0899 889.1565 889.2139 889.2607 889.2965 889.3197 889.3285 889.3239 889.3088 889.2844 889.2496 889.2037 889.1489 889.0898 889.0311 888.9744 888.918 888.8577 888.7892 888.7111 888.6259 888.5382 888.4543 888.38 888.3163 888.2542 888.1894 888.1222 888.0573 887.991 887.9225 887.8523 887.7797 887.703 887.6293 887.5582 887.4893 887.4219 887.3546 887.2887 887.2244 887.1614 887.0999 887.0403 886.9835 886.9308 886.8824 886.8379 886.7969 886.7599 886.7283 886.7022 886.6782 886.656 886.6356 886.6153 886.5946 886.5728 886.5496 886.5304 886.5258 886.5406 886.5787 886.6375 886.7114 886.8008 886.9033 887.0132 887.1265 887.2396 887.3523 887.4612 887.5659 887.6662 887.764 887.862 887.9606 888.0567 888.1456 888.2238 888.2897 888.343 888.3799 888.38 888.4 888.4314 888.4701 888.5261 888.6071 888.7129 888.8468 889.0096 889.2026 889.4192 889.6541 889.9005 890.1569 890.3982 890.8542 891.4765 892.2042 892.899 893.4432 893.8725 894.2025 894.4709 894.6456 894.9426 895.4869 896.3597 897.771 899.4357 901.1248 902.8817 904.6389 -9999 -9999 -9999 -9999 -9999 -9999 -9999 -9999 -9999 -9999 -9999 -9999 -9999 -9999 -9999 -9999 -9999 -9999 -9999 -9999 -9999 -9999 -9999 -9999 -9999 -9999 -9999 -9999 -9999 -9999 -9999 -9999 -9999 -9999 -9999 -9999 -9999 -9999 -9999 -9999 -9999 -9999 -9999 -9999 -9999 -9999 -9999 -9999 -9999 -9999 -9999 -9999 -9999 -9999 -9999 -9999
-9999 -9999 -9999 -9999 -9999 -9999 -9999 -9999 -9999 -9999 -9999 -9999 -9999 -9999 -9999 -9999 -9999 -9999 -9999 -9999 -9999 -9999 -9999 -9999 -9999 -9999 -9999 -9999 -9999 -9999 -9999 -9999 -9999 -9999 -9999 -9999 -9999 -9999 -9999 -9999 906.5161 904.4996 902.3738 900.4866 898.9125 897.5949 896.3151 895.4796 895.0009 894.7127 894.4757 894.1902 893.8278 893.3903 892.9491 892.4646 891.9579 891.3676 890.6346 889.9638 889.4836 889.15 888.9393 888.8253 888.7821 888.7883 888.8264 888.8835 888.9503 889.0204 889.0894 889.1539 889.2109 889.2588 889.2963 889.3218 889.3333 889.3306 889.3165 889.2927 889.2579 889.2113 889.1548 889.0939 889.0337 888.9762 888.9195 888.859 888.7903 888.7124 888.6274 888.5402 888.4562 888.38 888.3124 888.2479 888.1829 888.1165 888.0505 887.983 887.9133 887.8412 887.7661 887.6885 887.6157 887.5446 887.4753 887.4079 887.3392 887.2725 887.2079 887.145 887.0833 887.0234 886.9658 886.9117 886.8616 886.8149 886.7714 886.7312 886.6954 886.6644 886.6404 886.6188 886.5989 886.5797 886.5599 886.5395 886.5204 886.5032 886.4985 886.512 886.5476 886.6035 886.6726 886.7555 886.8517 886.9553 887.0602 887.1645 887.266 887.3649 887.464 887.563 887.662 887.7609 887.86 887.9579 888.0516 888.1372 888.213 888.2775 888.326 888.3522 888.38 888.4045 888.4235 888.4668 888.5269 888.6055 888.7097 888.8463 889.0162 889.2148 889.4328 889.6626 889.8815 889.9307 890.3077 890.845 891.4835 892.2079 892.9072 893.4655 893.885 894.1886 894.4681 894.7576 895.1977 895.9127 896.9289 898.2828 899.8326 901.4878 903.1789 904.7321 -9999 -9999 -9999 -9999 -9999 -9999 -9999 -9999 -9999 -9999 -9999 -9999 -9999 -9999 -9999 -9999 -9999 -9999 -9999 -9999 -9999 -9999 -9999 -9999 -9999 -9999 -9999 -9999 -9999 -9999 -9999 -9999 -9999 -9999 -9999 -9999 -9999 -9999 -9999 -9999 -9999 -9999 -9999 -9999 -9999 -9999 -9999 -9999 -9999 -9999 -9999 -9999 -9999 -9999 -9999
-9999 -9999 -9999 -9999 -9999 -9999 -9999 -9999 -9999 -9999 -9999 -9999 -9999 -9999 -9999 -9999 -9999 -9999 -9999 -9999 -9999 -9999 -9999 -9999 -9999 -9999 -9999 -9999 -9999 -9999 -9999 -9999 -9999 -9999 -9999 -9999 -9999 -9999 -9999 -9999 -9999 906.8674 904.6146 902.6008 900.7444 899.2621 897.5094 896.1865 895.441 895.0074 894.7131 894.4738 894.1792 893.8175 893.4092 892.9552 892.4872 891.9498 891.3505 890.6501 889.9745 889.4902 889.1759 888.991 888.899 888.8713 888.8851 888.9236 888.9757 889.0344 889.0951 889.1543 889.209 889.2564 889.2949 889.3224 889.3364 889.3359 889.3231 889.2997 889.2651 889.2179 889.1602 889.0973 889.0352 888.9762 888.9187 888.858 888.7897 888.7122 888.6276 888.5407 888.4569 888.38 888.3112 888.2461 888.1813 888.115 888.0475 887.9778 887.9063 887.8326 887.757 887.6802 887.6058 887.5323 887.461 887.3916 887.3232 887.2565 887.192 887.1293 887.067 887.0067 886.9489 886.8939 886.8422 886.7937 886.7478 886.7051 886.6666 886.6332 886.6063 886.5834 886.5626 886.5433 886.524 886.5045 886.4866 886.4738 886.4726 886.4866 886.5195 886.5702 886.6341 886.7123 886.8041 886.9014 886.9977 887.0906 887.1795 887.2643 887.354 887.4489 887.5464 887.6448 887.744 887.8433 887.941 888.0333 888.1173 888.192 888.2546 888.3031 888.3459 888.3799 888.3801 888.4169 888.4665 888.5195 888.5956 888.702 888.8453 889.0169 889.2037 889.3856 889.5369 889.6304 889.9024 890.3303 890.8629 891.4721 892.2098 892.9092 893.4066 893.6942 894.0521 894.4583 894.8628 895.4059 896.1016 897.1309 898.4498 899.9656 901.5618 903.075 904.4429 -9999 -9999 -9999 -9999 -9999 -9999 -9999 -9999 -9999 -9999 -9999 -9999 -9999 -9999 -9999 -9999 -9999 -9999 -9999 -9999 -9999 -9999 -9999 -9999 -9999 -9999 -9999 -9999 -9999 -9999 -9999 -9999 -9999 -9999 -9999 -9999 -9999 -9999 -9999 -9999 -9999 -9999 -9999 -9999 -9999 -9999 -9999 -9999 -9999 -9999 -9999 -9999 -9999 -9999
-9999 -9999 -9999 -9999 -9999 -9999 -9999 -9999 -9999 -9999 -9999 -9999 -9999 -9999 -9999 -9999 -9999 -9999 -9999 -9999 -9999 -9999 -9999 -9999 -9999 -9999 -9999 -9999 -9999 -9999 -9999 -9999 -9999 -9999 -9999 -9999 -9999 -9999 -9999 -9999 -9999 -9999 906.8931 904.7585 902.5203 900.4985 898.5955 897.0522 896.0192 895.3853 894.9433 894.671 894.4731 894.1968 893.8271 893.3754 892.9039 892.3882 891.8856 891.3484 890.6649 889.9635 889.5098 889.2302 889.072 888.9974 888.9767 888.9876 889.0171 889.0577 889.1053 889.156 889.2058 889.2518 889.2906 889.3199 889.3363 889.3383 889.327 889.3042 889.2698 889.2224 889.1637 889.0991 889.0347 888.9738 888.915 888.854 888.7859 888.7091 888.6254 888.5394 888.4563 888.38 888.3119 888.2473 888.1829 888.1162 888.0469 887.975 887.9011 887.8259 887.7498 887.6735 887.5978 887.521 887.447 887.3761 887.3077 887.2413 887.1763 887.1128 887.0507 886.9902 886.932 886.8766 886.8237 886.7736 886.726 886.6814 886.6409 886.6052 886.5751 886.5498 886.528 886.5067 886.4875 886.4694 886.4523 886.4423 886.4448 886.4608 886.4919 886.5374 886.5948 886.6679 886.7563 886.8479 886.9335 887.0127 887.0837 887.1552 887.2345 887.3231 887.4178 887.515 887.6145 887.7156 887.8171 887.9153 888.0075 888.0918 888.1664 888.2299 888.2827 888.322 888.3433 888.38 888.4202 888.4476 888.5013 888.5768 888.6891 888.8295 888.9833 889.1293 889.252 889.3672 889.5796 889.9041 890.3179 890.7516 891.4363 892.1997 892.8208 893.046 893.5016 894.0221 894.5191 895.0145 895.4949 896.1415 897.1581 898.4601 899.9153 901.3408 902.7074 904.2272 -9999 -9999 -9999 -9999 -9999 -9999 -9999 -9999 -9999 -9999 -9999 -9999 -9999 -9999 -9999 -9999 -9999 -9999 -9999 -9999 -9999 -9999 -9999 -9999 -9999 -9999 -9999 -9999 -9999 -9999 -9999 -9999 -9999 -9999 -9999 -9999 -9999 -9999 -9999 -9999 -9999 -9999 -9999 -9999 -9999 -9999 -9999 -9999 -9999 -9999 -9999 -9999 -9999
-9999 -9999 -9999 -9999 -9999 -9999 -9999 -9999 -9999 -9999 -9999 -9999 -9999 -9999 -9999 -9999 -9999 -9999 -9999 -9999 -9999 -9999 -9999 -9999 -9999 -9999 -9999 -9999 -9999 -9999 -9999 -9999 -9999 -9999 -9999 -9999 -9999 -9999 -9999 -9999 -9999 -9999 -9999 906.6815 904.2446 901.925 899.7866 898.0197 896.7273 895.8554 895.1812 894.8027 894.6182 894.4722 894.1633 893.6671 893.0396 892.6259 892.2039 891.7746 891.2822 890.5367 889.9287 889.5402 889.3009 889.1674 889.102 889.0754 889.0732 889.0885 889.1176 889.156 889.1993 889.2429 889.2819 889.3126 889.3315 889.3361 889.3265 889.3045 889.2701 889.2228 889.1638 889.098 889.0315 888.9684 888.908 888.8463 888.7786 888.7029 888.6205 888.5359 888.4544 888.38 888.3143 888.2513 888.1871 888.1194 888.048 887.9735 887.897 887.8198 887.7425 887.6659 887.5898 887.5092 887.4331 887.3615 887.2933 887.2272 887.1615 887.0972 887.0348 886.9743 886.9156 886.8595 886.8056 886.7542 886.7052 886.6595 886.6174 886.5793 886.546 886.517 886.4921 886.4711 886.4517 886.4339 886.4183 886.41 886.4142 886.4318 886.4614 886.5027 886.5547 886.6217 886.7054 886.791 886.8624 886.9235 886.9803 887.04 887.1091 887.1899 887.2802 887.376 887.4756 887.579 887.6843 887.7885 887.8879 887.9813 888.0659 888.1392 888.2003 888.2485 888.2868 888.3319 888.3799 888.3801 888.4265 888.4692 888.5531 888.658 888.783 888.9041 889.014 889.1273 889.2965 889.5449 889.8482 890.0182 890.6333 891.4003 892.067 892.4957 892.9821 893.6175 894.3455 894.7785 895.1121 895.507 896.1414 897.1555 898.4124 899.7041 900.9354 902.6057 904.6465 -9999 -9999 -9999 -9999 -9999 -9999 -9999 -9999 -9999 -9999 -9999 -9999 -9999 -9999 -9999 -9999 -9999 -9999 -9999 -9999 -9999 -9999 -9999 -9999 -9999 -9999 -9999 -9999 -9999 -9999 -9999 -9999 -9999 -9999 -9999 -9999 -9999 -9999 -9999 -9999 -9999 -9999 -9999 -9999 -9999 -9999 -9999 -9999 -9999 -9999 -9999 -9999
-9999 -9999 -9999 -9999 -9999 -9999 -9999 -9999 -9999 -9999 -9999 -9999 -9999 -9999 -9999 -9999 -9999 -9999 -9999 -9999 -9999 -9999 -9999 -9999 -9999 -9999 -9999 -9999 -9999 -9999 -9999 -9999 -9999 -9999 -9999 -9999 -9999 -9999 -9999 -9999 -9999 -9999 -9999 -9999 906.2278 903.666 901.2261 899.2279 897.6249 896.344 895.4877 894.9689 894.7162 894.6078 894.4662 894.0676 893.4678 892.9136 892.4091 891.9583 891.468 890.9563 890.4073 889.915 889.582 889.3796 889.2611 889.1859 889.1412 889.1234 889.129 889.1526 889.1877 889.2279 889.2667 889.2992 889.3207 889.3279 889.3206 889.2994 889.2653 889.218 889.1589 889.0924 889.0244 888.9593 888.8973 888.8348 888.7678 888.6936 888.6133 888.5307 888.4512 888.38 888.319 888.2588 888.1944 888.1248 888.0508 887.9731 887.8936 887.8135 887.7338 887.6547 887.5753 887.4943 887.4186 887.3472 887.2794 887.2141 887.1473 887.0824 887.0198 886.9593 886.8999 886.8427 886.788 886.7351 886.6852 886.6387 886.5957 886.5555 886.5193 886.4865 886.4579 886.4364 886.4177 886.4001 886.3855 886.3777 886.3822 886.3992 886.426 886.4637 886.5114 886.5728 886.649 886.7271 886.7798 886.8256 886.8715 886.9226 886.9832 887.0563 887.141 887.2341 887.3339 887.4392 887.5479 887.6577 887.764 887.8646 887.9576 888.0385 888.1052 888.1597 888.2064 888.2546 888.3068 888.3372 888.3799 888.3802 888.4447 888.5066 888.6061 888.7041 888.8032 888.902 889.0199 889.172 889.3462 889.5129 889.946 890.633 891.3641 891.9365 892.4578 893.025 893.7505 894.3951 894.7925 895.1169 895.5657 896.2388 897.2554 898.3508 899.5317 901.0872 903.3177 905.9864 -9999 -9999 -9999 -9999 -9999 -9999 -9999 -9999 -9999 -9999 -9999 -9999 -9999 -9999 -9999 -9999 -9999 -9999 -9999 -9999 -9999 -9999 -9999 -9999 -9999 -9999 -9999 -9999 -9999 -9999 -9999 -9999 -9999 -9999 -9999 -9999 -9999 -9999 -9999 -9999 -9999 -9999 -9999 -9999 -9999 -9999 -9999 -9999 -9999 -9999 -9999
