ncols         162
nrows         77
xllcorner     511800
yllcorner     5867800
cellsize      50
NODATA_value  -9999
-9999 -9999 -9999 -9999 -9999 -9999 -9999 -9999 -9999 -9999 -9999 -9999 -9999 -9999 -9999 -9999 -9999 -9999 -9999 892.5697 892.1135 890.8925 889.2975 887.3925 885.1479 882.9653 881.1407 879.6102 878.3746 877.4895 876.9132 876.5235 876.2439 875.858 875.4566 875.1774 875.0156 874.82 874.6151 874.4248 874.2482 874.118 873.89 873.6039 873.3181 872.8964 872.4457 872.0782 871.8006 871.4813 871.1686 870.9037 870.8041 870.5026 870.1644 869.871 869.6648 869.5129 869.4741 869.5706 869.8236 870.2628 870.8752 871.6246 872.3486 872.8768 873.3538 873.9078 874.6581 875.5972 876.7325 877.5052 878.1948 879.0839 880.7604 883.0575 885.9724 888.9906 891.7496 894.1063 -9999 -9999 -9999 -9999 -9999 -9999 -9999 -9999 -9999 -9999 -9999 -9999 -9999 -9999 -9999 -9999 -9999 -9999 -9999 -9999 -9999 -9999 -9999 -9999 -9999 -9999 -9999 -9999 -9999 -9999 -9999 -9999 -9999 -9999 -9999 -9999 -9999 -9999 -9999 -9999 -9999 -9999 -9999 -9999 -9999 -9999 -9999 -9999 -9999 -9999 -9999 -9999 -9999 -9999 -9999 -9999 -9999 -9999 -9999 -9999 -9999 -9999 -9999 -9999 -9999 -9999 -9999 -9999 -9999 -9999 -9999 -9999 -9999 -9999 -9999 -9999 -9999 -9999 -9999 -9999 -9999 -9999
-9999 -9999 -9999 -9999 -9999 -9999 -9999 -9999 -9999 -9999 -9999 -9999 -9999 -9999 -9999 -9999 -9999 -9999 -9999 891.564 891.1583 890.0624 888.4444 886.3426 883.9634 881.7953 879.9949 878.6031 877.6044 876.9159 876.4312 876.0774 875.7767 875.4432 875.1423 874.9161 874.7502 874.5736 874.3743 874.1538 873.9299 873.8356 873.5318 873.2017 872.8349 872.4039 872.0086 871.693 871.4258 871.142 870.852 870.5862 870.4012 870.1433 869.8536 869.6049 869.4664 869.3325 869.3297 869.4559 869.7291 870.214 870.8728 871.6342 872.3506 872.8757 873.3577 873.926 874.7078 875.6611 876.7757 877.5902 878.3645 879.3099 880.8646 883.0483 885.8684 888.8245 891.5297 893.843 -9999 -9999 -9999 -9999 -9999 -9999 -9999 -9999 -9999 -9999 -9999 -9999 -9999 -9999 -9999 -9999 -9999 -9999 -9999 -9999 -9999 -9999 -9999 -9999 -9999 -9999 -9999 -9999 -9999 -9999 -9999 -9999 -9999 -9999 -9999 -9999 -9999 -9999 -9999 -9999 -9999 -9999 -9999 -9999 -9999 -9999 -9999 -9999 -9999 -9999 -9999 -9999 -9999 -9999 -9999 -9999 -9999 -9999 -9999 -9999 -9999 -9999 -9999 -9999 -9999 -9999 -9999 -9999 -9999 -9999 -9999 -9999 -9999 -9999 -9999 -9999 -9999 -9999 -9999 -9999 -9999 -9999
-9999 -9999 -9999 -9999 -9999 -9999 -9999 -9999 -9999 -9999 -9999 -9999 -9999 -9999 -9999 -9999 -9999 -9999 -9999 890.5516 890.2488 889.2269 887.5051 885.212 882.858 880.726 878.9886 877.7587 876.9402 876.3951 876.0109 875.7084 875.4319 875.1625 874.92 874.718 874.5461 874.3629 874.147 873.8897 873.5977 873.35 873.0319 872.7486 872.3832 871.9885 871.6409 871.3773 871.1273 870.8521 870.5457 870.265 870.0386 869.8188 869.5662 869.3462 869.3159 869.1932 869.1831 869.3214 869.5899 870.1379 870.8607 871.6391 872.3517 872.8766 873.3765 873.9917 874.8452 875.8411 876.856 877.6622 878.4642 879.4622 880.9575 883.0397 885.7714 888.6749 891.3055 893.5096 895.3525 -9999 -9999 -9999 -9999 -9999 -9999 -9999 -9999 -9999 -9999 -9999 -9999 -9999 -9999 -9999 -9999 -9999 -9999 -9999 -9999 -9999 -9999 -9999 -9999 -9999 -9999 -9999 -9999 -9999 -9999 -9999 -9999 -9999 -9999 -9999 -9999 -9999 -9999 -9999 -9999 -9999 -9999 -9999 -9999 -9999 -9999 -9999 -9999 -9999 -9999 -9999 -9999 -9999 -9999 -9999 -9999 -9999 -9999 -9999 -9999 -9999 -9999 -9999 -9999 -9999 -9999 -9999 -9999 -9999 -9999 -9999 -9999 -9999 -9999 -9999 -9999 -9999 -9999 -9999 -9999 -9999
-9999 -9999 -9999 -9999 -9999 -9999 -9999 -9999 -9999 -9999 -9999 -9999 -9999 -9999 -9999 -9999 -9999 -9999 889.5381 890.0699 889.8495 888.7102 886.7066 884.2053 881.8337 879.776 878.1926 877.0776 876.4031 875.9793 875.681 875.4265 875.1822 874.9521 874.7441 874.5511 874.3608 874.1492 873.8901 873.5583 873.1956 872.8376 872.4795 872.297 871.9509 871.5859 871.2789 871.0948 870.8554 870.5557 870.2338 869.9369 869.6992 869.5443 869.33 869.1396 869.0534 868.9717 868.9756 869.1067 869.3937 870.0461 870.8433 871.6409 872.3519 872.8756 873.3921 874.0631 875.1094 876.0424 876.9263 877.6868 878.4815 879.4933 880.9772 883.0022 885.5631 888.4438 891.05 893.1254 894.743 -9999 -9999 -9999 -9999 -9999 -9999 -9999 -9999 -9999 -9999 -9999 -9999 -9999 -9999 -9999 -9999 -9999 -9999 -9999 -9999 -9999 -9999 -9999 -9999 -9999 -9999 -9999 -9999 -9999 -9999 -9999 -9999 -9999 -9999 -9999 -9999 -9999 -9999 -9999 -9999 -9999 -9999 -9999 -9999 -9999 -9999 -9999 -9999 -9999 -9999 -9999 -9999 -9999 -9999 -9999 -9999 -9999 -9999 -9999 -9999 -9999 -9999 -9999 -9999 -9999 -9999 -9999 -9999 -9999 -9999 -9999 -9999 -9999 -9999 -9999 -9999 -9999 -9999 -9999 -9999 -9999
-9999 -9999 -9999 -9999 -9999 -9999 -9999 -9999 -9999 -9999 -9999 -9999 -9999 -9999 -9999 -9999 -9999 888.4205 889.4402 890.0877 889.7941 888.3433 886.0112 883.3257 880.909 878.9049 877.4797 876.575 876.0106 875.6691 875.4207 875.1851 874.9695 874.7697 874.5752 874.3762 874.1544 873.8921 873.565 873.1865 872.7817 872.3831 872.0344 871.7874 871.5038 871.1845 870.9021 870.8255 870.571 870.2558 869.9226 869.6116 869.3606 869.2999 869.0897 868.9005 868.7872 868.7334 868.7794 868.9675 869.3464 870.0264 870.8431 871.6456 872.3525 872.8734 873.3988 874.1015 875.2183 876.1389 876.9503 877.6505 878.4034 879.375 880.874 882.8218 885.2021 888.086 890.7548 892.7911 894.213 895.3642 -9999 -9999 -9999 -9999 -9999 -9999 -9999 -9999 -9999 -9999 -9999 -9999 -9999 -9999 -9999 -9999 -9999 -9999 -9999 -9999 -9999 -9999 -9999 -9999 -9999 -9999 -9999 -9999 -9999 -9999 -9999 -9999 -9999 -9999 -9999 -9999 -9999 -9999 -9999 -9999 -9999 -9999 -9999 -9999 -9999 -9999 -9999 -9999 -9999 -9999 -9999 -9999 -9999 -9999 -9999 -9999 -9999 -9999 -9999 -9999 -9999 -9999 -9999 -9999 -9999 -9999 -9999 -9999 -9999 -9999 -9999 -9999 -9999 -9999 -9999 -9999 -9999 -9999 -9999 -9999
-9999 -9999 -9999 -9999 -9999 -9999 -9999 -9999 -9999 -9999 -9999 -9999 -9999 -9999 -9999 -9999 -9999 888.8035 890.2164 890.7974 889.7925 887.8205 885.2078 882.4763 880.0697 878.2264 877.103 876.2661 875.7253 875.4099 875.1534 874.9434 874.7606 874.5803 874.3874 874.1622 873.8899 873.5591 873.1903 872.7888 872.3697 871.9539 871.5976 871.3268 871.1276 870.8651 870.6358 870.4839 870.2439 869.9448 869.6257 869.3288 869.0936 868.9602 868.7838 868.619 868.5177 868.4993 868.6052 868.874 869.3395 870.0383 870.8516 871.6526 872.3544 872.8718 873.395 874.1024 875.224 876.1345 876.9318 877.551 878.207 879.1213 880.7198 882.5989 884.7481 887.6149 890.3792 892.4641 893.7908 894.7988 -9999 -9999 -9999 -9999 -9999 -9999 -9999 -9999 -9999 -9999 -9999 -9999 -9999 -9999 -9999 -9999 -9999 -9999 -9999 -9999 -9999 -9999 -9999 -9999 -9999 -9999 -9999 -9999 -9999 -9999 -9999 -9999 -9999 -9999 -9999 -9999 -9999 -9999 -9999 -9999 -9999 -9999 -9999 -9999 -9999 -9999 -9999 -9999 -9999 -9999 -9999 -9999 -9999 -9999 -9999 -9999 -9999 -9999 -9999 -9999 -9999 -9999 -9999 -9999 -9999 -9999 -9999 -9999 -9999 -9999 -9999 -9999 -9999 -9999 -9999 -9999 -9999 -9999 -9999 -9999
-9999 -9999 -9999 -9999 -9999 -9999 -9999 -9999 -9999 -9999 -9999 -9999 -9999 -9999 -9999 -9999 887.5084 889.4269 890.9398 890.8508 889.2628 886.7864 884.1287 881.5045 879.2288 877.6304 876.8328 875.9869 875.4344 875.1014 874.8658 874.6879 874.5369 874.3708 874.1592 873.8842 873.5347 873.1652 872.7811 872.3726 871.946 871.5405 871.1849 870.9053 870.8253 870.5976 870.3732 870.1702 869.9237 869.634 869.3289 869.0414 868.8063 868.6333 868.4711 868.3291 868.2537 868.2695 868.4359 868.791 869.3365 870.0565 870.8617 871.6609 872.3577 872.8685 873.3793 874.0612 875.121 876.0046 876.8607 877.4313 878.0432 878.9731 880.6277 882.4629 884.5028 887.0809 889.8452 892.0003 893.3113 894.2482 -9999 -9999 -9999 -9999 -9999 -9999 -9999 -9999 -9999 -9999 -9999 -9999 -9999 -9999 -9999 -9999 -9999 -9999 -9999 -9999 -9999 -9999 -9999 -9999 -9999 -9999 -9999 -9999 -9999 -9999 -9999 -9999 -9999 -9999 -9999 -9999 -9999 -9999 -9999 -9999 -9999 -9999 -9999 -9999 -9999 -9999 -9999 -9999 -9999 -9999 -9999 -9999 -9999 -9999 -9999 -9999 -9999 -9999 -9999 -9999 -9999 -9999 -9999 -9999 -9999 -9999 -9999 -9999 -9999 -9999 -9999 -9999 -9999 -9999 -9999 -9999 -9999 -9999 -9999 -9999
-9999 -9999 -9999 -9999 -9999 -9999 -9999 -9999 -9999 -9999 -9999 -9999 -9999 -9999 -9999 -9999 887.5181 889.5752 890.7354 890.2284 888.1341 885.3979 882.8986 880.5168 878.4843 877.0689 876.2609 875.5648 875.1146 874.8058 874.5895 874.4341 874.3036 874.1356 873.8818 873.5168 873.1191 872.7493 872.372 871.9587 871.5424 871.173 870.8561 870.6135 870.481 870.2993 870.0941 869.8733 869.6179 869.3282 869.0262 868.7455 868.5096 868.3271 868.1829 868.0547 868.0093 868.0402 868.2554 868.6992 869.3289 870.074 870.8727 871.6698 872.3613 872.8582 873.348 873.9727 874.8604 875.7122 876.6732 877.2488 877.8475 878.7209 880.1524 881.8868 883.9167 886.3559 889.0689 891.267 892.6901 893.7145 -9999 -9999 -9999 -9999 -9999 -9999 -9999 -9999 -9999 -9999 -9999 -9999 -9999 -9999 -9999 -9999 -9999 -9999 -9999 -9999 -9999 -9999 -9999 -9999 -9999 -9999 -9999 -9999 -9999 -9999 -9999 -9999 -9999 -9999 -9999 -9999 -9999 -9999 -9999 -9999 -9999 -9999 -9999 -9999 -9999 -9999 -9999 -9999 -9999 -9999 -9999 -9999 -9999 -9999 -9999 -9999 -9999 -9999 -9999 -9999 -9999 -9999 -9999 -9999 -9999 -9999 -9999 -9999 -9999 -9999 -9999 -9999 -9999 -9999 -9999 -9999 -9999 -9999 -9999 -9999
-9999 -9999 -9999 -9999 -9999 -9999 -9999 -9999 -9999 -9999 -9999 -9999 -9999 -9999 -9999 885.511 887.1537 889.0063 889.8176 888.713 886.4555 884.0146 881.7298 879.6053 877.8082 876.5767 875.8304 875.3353 874.885 874.5673 874.3499 874.2004 874.0802 873.8869 873.5539 873.1363 872.7101 872.3843 872.0229 871.6021 871.1804 870.8494 870.5577 870.3349 870.1778 870.0121 869.8197 869.5933 869.327 869.028 868.7281 868.4544 868.2255 868.0511 867.9482 867.8162 867.8036 867.8138 868.0554 868.5955 869.3159 870.0887 870.8834 871.6725 872.3555 872.8243 873.3145 873.9256 874.7095 875.5189 876.3815 877.0123 877.6274 878.4182 879.5732 881.152 883.0985 885.4129 888.0626 890.2719 891.7832 892.9961 894.2054 -9999 -9999 -9999 -9999 -9999 -9999 -9999 -9999 -9999 -9999 -9999 -9999 -9999 -9999 -9999 -9999 -9999 -9999 -9999 -9999 -9999 -9999 -9999 -9999 -9999 -9999 -9999 -9999 -9999 -9999 -9999 -9999 -9999 -9999 -9999 -9999 -9999 -9999 -9999 -9999 -9999 -9999 -9999 -9999 -9999 -9999 -9999 -9999 -9999 -9999 -9999 -9999 -9999 -9999 -9999 -9999 -9999 -9999 -9999 -9999 -9999 -9999 -9999 -9999 -9999 -9999 -9999 -9999 -9999 -9999 -9999 -9999 -9999 -9999 -9999 -9999 -9999 -9999 -9999
-9999 -9999 -9999 -9999 -9999 -9999 -9999 -9999 -9999 -9999 -9999 -9999 -9999 -9999 -9999 885.2334 886.4268 887.6277 887.8392 886.5073 884.5316 882.5642 880.6519 878.8394 877.2778 876.1897 875.4815 875.0316 874.6594 874.3768 874.1656 874.0057 873.891 873.6465 873.2965 872.8697 872.4291 872.2079 871.8428 871.3776 870.8988 870.5737 870.3008 870.0819 869.9132 869.7531 869.5629 869.327 869.045 868.7435 868.4507 868.1897 867.9789 867.8182 867.8014 867.6688 867.6082 867.6304 867.8636 868.502 869.3021 870.0944 870.8839 871.6388 872.293 872.7139 873.2516 873.9092 874.6615 875.4566 876.2575 876.9246 877.4364 878.051 878.9446 880.3629 882.1899 884.3816 886.8949 889.0928 890.719 892.0977 893.5624 895.0753 -9999 -9999 -9999 -9999 -9999 -9999 -9999 -9999 -9999 -9999 -9999 -9999 -9999 -9999 -9999 -9999 -9999 -9999 -9999 -9999 -9999 -9999 -9999 -9999 -9999 -9999 -9999 -9999 -9999 -9999 -9999 -9999 -9999 -9999 -9999 -9999 -9999 -9999 -9999 -9999 -9999 -9999 -9999 -9999 -9999 -9999 -9999 -9999 -9999 -9999 -9999 -9999 -9999 -9999 -9999 -9999 -9999 -9999 -9999 -9999 -9999 -9999 -9999 -9999 -9999 -9999 -9999 -9999 -9999 -9999 -9999 -9999 -9999 -9999 -9999 -9999 -9999 -9999
-9999 -9999 -9999 -9999 -9999 -9999 -9999 -9999 -9999 -9999 -9999 -9999 -9999 -9999 -9999 885.0732 885.561 885.9599 885.5355 884.2087 882.7493 881.3159 879.8615 878.4025 877.0508 876.0571 875.3877 874.902 874.5599 874.3119 874.1053 873.9053 873.7606 873.5341 873.2338 872.8792 872.5485 872.3297 871.8802 871.3572 870.8472 870.4462 870.1309 869.8818 869.6887 869.5255 869.3259 869.0691 868.7828 868.4894 868.2123 867.975 867.8086 867.6781 867.6168 867.5249 867.4814 867.5464 867.8275 868.4712 869.2858 870.0646 870.8547 871.5248 872.0682 872.4869 873.1418 873.8795 874.6205 875.4193 876.1653 876.8373 877.2527 877.7463 878.4837 879.642 881.2607 883.2275 885.5265 887.687 889.437 891.0277 892.6852 894.4161 896.0581 897.5647 -9999 -9999 -9999 -9999 -9999 -9999 -9999 -9999 -9999 -9999 -9999 -9999 -9999 -9999 -9999 -9999 -9999 -9999 -9999 -9999 -9999 -9999 -9999 -9999 -9999 -9999 -9999 -9999 -9999 -9999 -9999 -9999 -9999 -9999 -9999 -9999 -9999 -9999 -9999 -9999 -9999 -9999 -9999 -9999 -9999 -9999 -9999 -9999 -9999 -9999 -9999 -9999 -9999 -9999 -9999 -9999 -9999 -9999 -9999 -9999 -9999 -9999 -9999 -9999 -9999 -9999 -9999 -9999 -9999 -9999 -9999 -9999 -9999 -9999 -9999 -9999
-9999 -9999 -9999 -9999 -9999 -9999 -9999 -9999 -9999 -9999 -9999 -9999 -9999 -9999 -9999 884.7248 884.6652 884.3523 883.5371 882.3576 881.3073 880.4389 879.4232 878.2589 877.0256 876.0976 875.4052 874.9282 874.6389 874.4548 874.2993 874.1243 873.9197 873.6763 873.4105 873.0786 872.7422 872.4112 872.0026 871.454 870.8645 870.4163 870.0465 869.7405 869.4987 869.3223 869.0919 868.8285 868.5504 868.2781 868.0287 867.8164 867.6865 867.5743 867.4948 867.4282 867.4189 867.5229 867.8235 868.4241 869.1968 869.9309 870.7764 871.4011 871.9285 872.4157 873.0597 873.7848 874.459 875.2645 875.9274 876.5442 877.001 877.4745 878.0863 878.9926 880.4037 882.0993 884.0213 885.9988 887.8291 889.595 891.4367 893.3296 895.1513 896.783 898.1186 899.1161 -9999 -9999 -9999 -9999 -9999 -9999 -9999 -9999 -9999 -9999 -9999 -9999 -9999 -9999 -9999 -9999 -9999 -9999 -9999 -9999 -9999 -9999 -9999 -9999 -9999 -9999 -9999 -9999 -9999 -9999 -9999 -9999 -9999 -9999 -9999 -9999 -9999 -9999 -9999 -9999 -9999 -9999 -9999 -9999 -9999 -9999 -9999 -9999 -9999 -9999 -9999 -9999 -9999 -9999 -9999 -9999 -9999 -9999 -9999 -9999 -9999 -9999 -9999 -9999 -9999 -9999 -9999 -9999 -9999 -9999 -9999 -9999 -9999 -9999
-9999 -9999 -9999 -9999 -9999 -9999 -9999 -9999 -9999 -9999 -9999 -9999 -9999 -9999 -9999 883.7018 883.5416 882.988 882.0725 881.1318 880.3871 880.0823 879.3677 878.3248 877.1788 876.3096 875.5743 875.1315 874.9249 874.8317 874.7593 874.6533 874.4673 874.1532 873.8774 873.4955 873.1177 872.7564 872.332 871.7247 871.0072 870.512 870.0632 869.6719 869.3421 869.1182 868.8768 868.6171 868.3565 868.1173 867.9249 867.8058 867.6492 867.5192 867.4283 867.3785 867.3981 867.5277 867.8151 868.3065 868.9384 869.6225 870.5759 871.22 871.8126 872.3743 872.9203 873.516 874.1032 874.8895 875.5725 876.2524 876.8386 877.2688 877.8104 878.5934 879.6971 881.0052 882.4708 884.0386 885.7791 887.7407 889.7582 891.7672 893.686 895.4367 896.8864 897.9258 898.4961 -9999 -9999 -9999 -9999 -9999 -9999 -9999 -9999 -9999 -9999 -9999 -9999 -9999 -9999 -9999 -9999 -9999 -9999 -9999 -9999 -9999 -9999 -9999 -9999 -9999 -9999 -9999 -9999 -9999 -9999 -9999 -9999 -9999 -9999 -9999 -9999 -9999 -9999 -9999 -9999 -9999 -9999 -9999 -9999 -9999 -9999 -9999 -9999 -9999 -9999 -9999 -9999 -9999 -9999 -9999 -9999 -9999 -9999 -9999 -9999 -9999 -9999 -9999 -9999 -9999 -9999 -9999 -9999 -9999 -9999 -9999 -9999 -9999
-9999 -9999 -9999 -9999 -9999 -9999 -9999 -9999 -9999 -9999 -9999 -9999 -9999 -9999 -9999 883.1025 882.9182 882.2318 881.2933 880.698 880.4034 880.3595 879.6693 878.5552 877.5419 876.7902 876.1241 875.6054 875.4498 875.4256 875.4247 875.4077 875.3226 875.0847 874.6362 874.1257 873.6542 873.2501 872.7761 872.1761 871.4094 870.7703 870.1859 869.708 869.3245 869.0062 868.7197 868.45 868.2009 867.9851 867.8135 867.7188 867.5938 867.4741 867.3865 867.3508 867.392 867.5389 867.8111 868.1968 868.7476 869.4193 870.2729 870.9698 871.6662 872.29 872.746 873.3142 873.9347 874.6371 875.3224 875.9091 876.4536 876.9386 877.4949 878.2457 879.0672 880.0032 881.0521 882.2504 883.6683 885.611 887.7743 889.8632 891.8108 893.6586 895.2576 896.4212 897.0652 897.314 -9999 -9999 -9999 -9999 -9999 -9999 -9999 -9999 -9999 -9999 -9999 -9999 -9999 -9999 -9999 -9999 -9999 -9999 -9999 -9999 -9999 -9999 -9999 -9999 -9999 -9999 -9999 -9999 -9999 -9999 -9999 -9999 -9999 -9999 -9999 -9999 -9999 -9999 -9999 -9999 -9999 -9999 -9999 -9999 -9999 -9999 -9999 -9999 -9999 -9999 -9999 -9999 -9999 -9999 -9999 -9999 -9999 -9999 -9999 -9999 -9999 -9999 -9999 -9999 -9999 -9999 -9999 -9999 -9999 -9999 -9999 -9999
-9999 -9999 -9999 -9999 -9999 -9999 -9999 -9999 -9999 -9999 -9999 -9999 -9999 -9999 -9999 -9999 882.7873 882.2523 881.2245 880.7086 880.5457 880.4685 879.9792 878.7708 877.8387 877.1963 876.7678 876.3549 876.1954 876.1637 876.1737 876.1735 876.0845 875.8302 875.445 875.0057 874.3472 873.8727 873.286 872.5558 871.7664 870.9552 870.3174 869.7752 869.3237 868.9333 868.6046 868.3234 868.0868 867.9073 867.8073 867.6759 867.5456 867.4302 867.3481 867.3199 867.3694 867.5214 867.788 868.078 868.6262 869.3409 870.141 870.8727 871.5251 872.066 872.4927 873.1243 873.7841 874.3387 874.9065 875.443 875.9664 876.468 877.0011 877.6578 878.3687 879.0705 879.8206 880.7738 882.0201 883.6853 885.6132 887.603 889.476 891.4594 893.304 894.7399 895.6221 896.0787 896.3528 -9999 -9999 -9999 -9999 -9999 -9999 -9999 -9999 -9999 -9999 -9999 -9999 -9999 -9999 -9999 -9999 -9999 -9999 -9999 -9999 -9999 -9999 -9999 -9999 -9999 -9999 -9999 -9999 -9999 -9999 -9999 -9999 -9999 -9999 -9999 -9999 -9999 -9999 -9999 -9999 -9999 -9999 -9999 -9999 -9999 -9999 -9999 -9999 -9999 -9999 -9999 -9999 -9999 -9999 -9999 -9999 -9999 -9999 -9999 -9999 -9999 -9999 -9999 -9999 -9999 -9999 -9999 -9999 -9999 -9999 -9999
-9999 -9999 -9999 -9999 -9999 -9999 -9999 -9999 -9999 -9999 -9999 -9999 -9999 -9999 -9999 -9999 882.9178 882.4651 881.4238 880.9289 880.79 880.6365 880.115 878.9448 878.0612 877.4447 877.0835 876.91 876.8793 876.9077 876.9611 876.9824 876.8665 876.5438 876.1823 875.7496 875.2162 874.6141 873.9155 873.145 872.2729 871.3095 870.548 869.8835 869.3284 868.8768 868.5157 868.2257 867.9935 867.8128 867.7219 867.6071 867.4858 867.377 867.2999 867.2723 867.3102 867.4243 867.6139 867.8795 868.5142 869.2982 870.0737 870.8295 871.4236 871.934 872.4037 872.9407 873.467 873.9271 874.4207 874.9292 875.4407 875.9473 876.4524 876.988 877.59 878.1616 878.7062 879.4865 880.519 881.8469 883.4275 885.1248 886.7737 888.8952 891.0288 892.8531 894.1102 894.8356 895.1981 895.5865 895.8991 896.0645 896.1105 895.9603 895.326 894.1921 -9999 -9999 -9999 -9999 -9999 -9999 -9999 -9999 -9999 -9999 -9999 -9999 -9999 -9999 -9999 -9999 -9999 -9999 -9999 -9999 -9999 -9999 -9999 -9999 -9999 -9999 -9999 -9999 -9999 -9999 -9999 -9999 -9999 -9999 -9999 -9999 -9999 -9999 -9999 -9999 -9999 -9999 -9999 -9999 -9999 -9999 -9999 -9999 -9999 -9999 -9999 -9999 -9999 -9999 -9999 -9999 -9999 -9999 -9999 -9999 -9999 -9999 -9999 -9999
-9999 -9999 -9999 -9999 -9999 -9999 -9999 -9999 -9999 -9999 -9999 -9999 -9999 -9999 -9999 -9999 -9999 882.3532 881.4444 881.3061 881.3186 881.1235 880.4644 879.4189 878.4252 877.6923 877.2847 877.1809 877.313 877.5652 877.8233 877.9437 877.7272 877.2871 876.8972 876.4015 875.8443 875.2274 874.4684 873.7009 872.811 871.9071 870.8707 870.0156 869.3394 868.8329 868.4482 868.1591 867.9511 867.8098 867.6808 867.5483 867.4228 867.3165 867.2433 867.218 867.251 867.3508 867.53 867.8318 868.4346 869.1962 869.905 870.6817 871.2413 871.7638 872.3 872.7249 873.1362 873.5229 873.9326 874.4122 874.9203 875.4224 875.8857 876.2996 876.7979 877.1962 877.7099 878.344 879.1631 880.1389 881.3886 882.9127 884.3973 886.2599 888.4651 890.6168 892.3067 893.3135 893.7892 894.1807 894.5398 894.8316 894.9614 894.8555 894.1756 893.0896 893.7099 894.888 895.8314 896.437 -9999 -9999 -9999 -9999 -9999 -9999 -9999 -9999 -9999 -9999 -9999 -9999 -9999 -9999 -9999 -9999 -9999 -9999 -9999 -9999 -9999 -9999 -9999 -9999 -9999 -9999 -9999 -9999 -9999 -9999 -9999 -9999 -9999 -9999 -9999 -9999 -9999 -9999 -9999 -9999 -9999 -9999 -9999 -9999 -9999 -9999 -9999 -9999 -9999 -9999 -9999 -9999 -9999 -9999 -9999 -9999 -9999 -9999 -9999 -9999
-9999 -9999 -9999 -9999 -9999 -9999 -9999 -9999 -9999 -9999 -9999 -9999 -9999 -9999 -9999 -9999 -9999 -9999 882.256 882.3708 882.548 882.437 881.7044 880.4277 879.1216 878.1567 877.6171 877.5347 877.8501 878.3954 878.9538 879.2513 878.9151 878.3572 877.7045 877.0172 876.3179 875.5256 874.7433 873.9201 873.0679 872.1528 871.0045 870.074 869.3403 868.7977 868.3937 868.1 867.9053 867.8064 867.644 867.4904 867.3575 867.2523 867.1838 867.1649 867.2049 867.3132 867.5066 867.8163 868.2894 868.897 869.5115 870.2401 870.8542 871.3979 871.9359 872.3782 872.7666 873.128 873.4989 873.9193 874.4092 874.9008 875.3347 875.5999 876.0365 876.4406 876.8625 877.2961 877.9594 878.5686 879.4326 880.652 882.0746 883.8964 885.7196 887.963 889.9568 891.261 891.9354 892.3752 892.7457 893.1068 893.3293 893.3676 893.0829 892.5334 893.6286 894.4832 895.5992 896.3688 896.929 897.1919 897.2952 -9999 -9999 -9999 -9999 -9999 -9999 -9999 -9999 -9999 -9999 -9999 -9999 -9999 -9999 -9999 -9999 -9999 -9999 -9999 -9999 -9999 -9999 -9999 -9999 -9999 -9999 -9999 -9999 -9999 -9999 -9999 -9999 -9999 -9999 -9999 -9999 -9999 -9999 -9999 -9999 -9999 -9999 -9999 -9999 -9999 -9999 -9999 -9999 -9999 -9999 -9999 -9999 -9999 -9999 -9999 -9999 -9999
-9999 -9999 -9999 -9999 -9999 -9999 -9999 -9999 -9999 -9999 -9999 -9999 -9999 -9999 -9999 -9999 -9999 -9999 883.6487 884.1512 884.5358 884.4728 883.6399 882.1251 880.4926 879.1144 878.3309 878.2243 878.7448 879.6469 880.6219 880.9863 880.4893 879.6069 878.6252 877.7084 876.8358 875.8663 874.9643 874.0038 873.1388 872.2048 871.028 870.0822 869.335 868.7734 868.3531 868.0407 867.8142 867.7032 867.5635 867.4177 867.288 867.1874 867.1253 867.114 867.1632 867.2822 867.4848 867.7856 868.1101 868.6309 869.2408 869.8336 870.4331 870.9788 871.536 871.9935 872.3847 872.7429 873.0869 873.4526 873.9045 874.3795 874.7779 875.0649 875.4241 875.8119 876.1372 876.4897 876.8998 877.2734 877.8859 878.6946 879.7796 881.2714 882.9741 885.0576 887.1496 888.6655 889.514 889.9959 890.3792 890.747 891.0641 891.3496 891.6007 891.9146 892.7665 893.5989 894.548 895.4233 896.144 896.6985 896.9955 897.165 897.1688 -9999 -9999 -9999 -9999 -9999 -9999 -9999 -9999 -9999 -9999 -9999 -9999 -9999 -9999 -9999 -9999 -9999 -9999 -9999 -9999 -9999 -9999 -9999 891.1652 890.7424 890.5436 -9999 -9999 -9999 -9999 -9999 -9999 -9999 -9999 -9999 -9999 -9999 -9999 -9999 -9999 -9999 -9999 -9999 -9999 -9999 -9999 -9999 -9999 -9999 -9999 -9999 -9999 -9999 -9999 -9999
-9999 -9999 -9999 -9999 -9999 -9999 -9999 -9999 -9999 -9999 -9999 -9999 -9999 -9999 -9999 -9999 -9999 -9999 885.315 886.0782 886.6531 886.7659 885.9731 884.3521 882.4238 880.728 879.624 879.467 880.2148 881.5554 882.7778 883.1301 882.2955 880.9784 879.6268 878.4175 877.3943 876.4197 875.2597 874.0824 873.1464 872.1968 871.0178 870.0746 869.3308 868.7643 868.3406 868.0302 867.809 867.6499 867.5003 867.3547 867.2261 867.1285 867.0718 867.0652 867.1169 867.2301 867.4016 867.6188 867.8598 868.3513 868.9049 869.4516 870.0956 870.7337 871.2141 871.6327 872.0236 872.3792 872.6929 872.9701 873.3943 873.8752 874.2642 874.514 874.8085 875.2326 875.4879 875.8253 876.1125 876.4128 876.8068 877.2646 878.0115 879.0178 880.3943 882.2308 884.1783 885.7403 886.6002 887.0522 887.4008 887.7493 888.1193 888.565 889.0341 889.6764 890.4996 891.3742 892.3289 893.3341 894.3212 895.1724 895.7966 896.1743 896.3835 896.3851 895.9883 895.8815 -9999 -9999 -9999 -9999 -9999 -9999 -9999 -9999 -9999 -9999 -9999 -9999 -9999 -9999 -9999 889.1546 889.2399 889.0421 888.9049 888.8613 888.7758 888.7849 888.992 889.3284 889.4716 888.9335 887.4474 885.3916 -9999 -9999 -9999 -9999 -9999 -9999 -9999 -9999 -9999 -9999 -9999 -9999 -9999 -9999 -9999 -9999 -9999 -9999 -9999 -9999 -9999 -9999 -9999 -9999
-9999 -9999 -9999 -9999 -9999 -9999 -9999 -9999 -9999 -9999 -9999 -9999 -9999 -9999 -9999 -9999 -9999 -9999 -9999 887.6635 888.4231 888.8386 888.2081 886.6667 884.6937 882.8685 881.7045 881.5566 882.4224 883.8707 885.1371 885.3922 884.2416 882.3726 880.5928 879.0162 877.8088 876.6818 875.376 874.1016 873.1277 872.1794 871.0062 870.0674 869.3295 868.7645 868.3425 868.0342 867.8093 867.6246 867.4614 867.312 867.1816 867.0839 867.0292 867.0239 867.0746 867.183 867.3438 867.5519 867.8127 868.1971 868.6904 869.2479 869.7766 870.3532 870.8484 871.2643 871.673 872.0341 872.3303 872.4697 872.8689 873.339 873.7402 873.8987 874.0764 874.4832 874.8163 875.2341 875.4724 875.7756 876.0435 876.3616 876.8135 877.4105 878.411 879.7905 881.4977 882.9848 883.5427 883.8722 884.1334 884.4545 884.8073 885.3045 885.7338 886.4434 887.2403 888.1546 889.1807 890.3192 891.5527 892.6793 893.5321 894.152 894.559 894.762 894.8691 895.1957 895.7488 895.9751 895.7554 895.0466 893.8677 -9999 -9999 -9999 -9999 -9999 -9999 -9999 885.5875 886.2062 886.9727 887.3281 887.1602 886.7248 886.4511 886.4585 886.5737 886.8256 887.1588 887.3849 887.3041 886.6498 885.3938 883.8646 882.4515 881.3881 -9999 -9999 -9999 -9999 -9999 -9999 -9999 -9999 -9999 -9999 -9999 -9999 -9999 -9999 -9999 -9999 -9999 -9999 -9999 -9999 -9999 -9999
-9999 -9999 -9999 -9999 -9999 -9999 -9999 -9999 -9999 -9999 -9999 -9999 -9999 -9999 -9999 -9999 -9999 -9999 -9999 888.6189 889.6312 890.3358 889.9144 888.6108 886.9015 885.255 884.1779 884.0115 884.811 886.1015 887.2179 887.3226 885.995 883.8116 881.5657 879.6548 878.1629 876.8032 875.3945 874.0839 873.101 872.1639 870.9981 870.0632 869.33 868.7678 868.3474 868.0392 867.8094 867.6135 867.4424 867.29 867.1583 867.0582 867.0015 866.994 867.0405 867.1438 867.3025 867.5173 867.7918 868.0494 868.4619 868.9469 869.4261 869.9905 870.5011 870.9267 871.3564 871.6962 871.9486 872.1237 872.4107 872.7842 873.0559 873.2618 873.4733 873.8096 874.0673 874.4883 874.8201 875.2314 875.4548 875.7472 876.0214 876.3923 876.9943 877.8972 879.2008 880.5043 881.1113 881.563 881.808 882.1216 882.3057 882.5791 882.8964 883.3797 883.962 884.6501 885.6624 886.8378 888.2241 889.5176 890.4326 891.0538 891.5607 892.0549 892.6954 893.525 894.4634 895.0907 895.1142 894.4393 893.4404 892.5306 891.5734 890.16 888.2254 886.4341 885.3868 885.005 885.0063 885.2738 885.761 885.8522 885.5065 884.8871 884.4879 884.4008 884.5195 884.8107 885.0888 885.1527 884.8573 884.2034 883.3575 882.5921 882.1543 881.8193 881.4079 -9999 -9999 -9999 -9999 -9999 -9999 -9999 -9999 -9999 -9999 -9999 -9999 -9999 -9999 -9999 -9999 -9999 -9999 -9999 -9999 -9999
-9999 -9999 -9999 -9999 -9999 -9999 -9999 -9999 -9999 -9999 -9999 -9999 -9999 -9999 -9999 -9999 -9999 -9999 -9999 -9999 890.0815 890.8026 890.764 889.8027 888.5511 887.327 886.4821 886.2722 886.7473 887.7435 888.4353 888.331 887.0867 884.8286 882.3808 880.335 878.4852 876.8857 875.3962 874.0698 873.0847 872.1518 870.9905 870.0587 869.3301 868.7704 868.3503 868.0412 867.8095 867.6117 867.4393 867.2871 867.1555 867.0527 866.9907 866.9764 867.0129 867.1023 867.2434 867.427 867.6373 867.8438 868.241 868.7164 869.2473 869.7321 870.2667 870.7855 871.1346 871.4165 871.6392 871.8317 872.0713 872.3419 872.465 872.7059 872.8948 873.1765 873.4484 873.8085 874.0726 874.4948 874.8263 875.2287 875.4331 875.7056 876.0481 876.5703 877.382 878.2725 878.9171 879.4818 879.7483 880.0154 880.1619 880.2985 880.4598 880.7231 881.1189 881.7065 882.5925 883.6578 884.8459 886.1277 886.9926 887.5081 888.0173 888.7378 889.7699 890.959 892.1142 892.9392 893.2141 892.9293 892.4564 891.9781 891.1282 889.999 888.1498 886.3796 885.2556 884.8538 884.6264 884.5964 884.6643 884.4509 883.9507 883.2968 882.8577 882.5875 882.5966 882.8179 882.9981 882.9285 882.5546 882.0462 881.7032 881.7336 881.9795 881.9286 881.811 881.9438 -9999 -9999 -9999 -9999 -9999 -9999 -9999 -9999 -9999 -9999 -9999 -9999 -9999 -9999 -9999 -9999 -9999 -9999 -9999 -9999
-9999 -9999 -9999 -9999 -9999 -9999 -9999 -9999 -9999 -9999 -9999 -9999 -9999 -9999 -9999 -9999 -9999 -9999 -9999 -9999 -9999 890.4745 890.5352 890.0563 889.402 888.7409 888.225 888.0263 888.1423 888.6442 888.9981 888.7651 887.5813 885.3881 882.8658 880.5876 878.6172 876.9485 875.4522 874.1187 873.1154 872.1508 870.9829 870.052 869.3289 868.7708 868.3499 868.0397 867.8096 867.6179 867.4515 867.3029 867.1725 867.0669 866.9973 866.9716 866.9924 867.0616 867.1792 867.3407 867.5419 867.7905 868.0621 868.4524 868.9367 869.4174 869.9694 870.4761 870.855 871.137 871.3602 871.5564 871.7673 871.98 872.1425 872.3486 872.4266 872.6718 872.8801 873.1732 873.4432 873.7889 874.0688 874.4815 874.7626 875.0852 875.3036 875.569 876.1005 876.6472 877.1262 877.6125 877.89 878.1235 878.3379 878.4369 878.4873 878.5945 878.8428 879.3331 880.0935 881.0021 882.0539 883.1198 883.8724 884.2151 884.6406 885.4269 886.6184 887.928 889.1161 890.0089 890.5422 890.7931 890.9577 891.0165 890.5208 889.345 887.6473 886.0688 885.0714 884.63 884.0602 883.6923 883.3051 882.7921 882.2606 881.7635 881.3855 880.9963 880.9009 881.0195 881.0926 880.9957 880.715 880.4766 880.6132 881.0498 881.7169 882.0134 882.3632 883.0066 -9999 -9999 -9999 -9999 -9999 -9999 -9999 -9999 -9999 -9999 -9999 -9999 -9999 -9999 -9999 -9999 -9999 -9999 -9999 -9999
-9999 -9999 -9999 -9999 -9999 -9999 -9999 -9999 -9999 -9999 -9999 -9999 -9999 -9999 -9999 -9999 -9999 -9999 -9999 -9999 -9999 -9999 -9999 889.9929 889.769 889.5093 889.2922 889.1101 888.9617 889.0223 889.0226 888.6691 887.4753 885.4827 883.073 880.728 878.7239 877.1081 875.6926 874.3391 873.2523 872.1809 870.9806 870.0444 869.3265 868.7685 868.3457 868.0346 867.8096 867.6331 867.4797 867.3378 867.2089 867.1 867.0208 866.9802 866.9808 867.0242 867.111 867.2391 867.401 867.5946 867.8157 868.1593 868.6643 869.2327 869.7034 870.1672 870.5553 870.8591 871.0969 871.2969 871.5007 871.6977 871.8715 872.0422 872.1682 872.3553 872.4259 872.6682 872.8527 873.0756 873.3849 873.7474 873.9463 874.1563 874.4695 874.7505 875.1749 875.4681 875.7789 876.1986 876.4662 876.6846 876.9156 877.0071 877.0245 877.0849 877.2805 877.7173 878.2488 878.8808 879.7392 880.6293 881.34 881.5934 881.9337 882.5799 883.7332 884.9804 886.0149 886.8185 887.4678 888.0913 888.6288 888.9225 888.6105 887.5971 886.2197 884.9597 884.1443 883.6467 882.9553 882.3406 881.717 881.0258 880.5553 880.2491 880.0289 879.7939 879.6852 879.6893 879.7025 879.6487 879.5488 879.5687 879.8967 880.4254 881.1706 881.9738 882.8917 884.025 885.46 -9999 -9999 -9999 -9999 -9999 -9999 -9999 -9999 -9999 -9999 -9999 -9999 -9999 -9999 -9999 -9999 -9999 -9999 -9999
-9999 -9999 -9999 -9999 -9999 -9999 -9999 -9999 -9999 -9999 -9999 -9999 -9999 -9999 -9999 -9999 -9999 -9999 -9999 -9999 -9999 -9999 -9999 -9999 -9999 -9999 -9999 -9999 -9999 -9999 -9999 887.9626 886.8425 885.1768 883.0432 880.7819 878.8587 877.4286 876.2144 874.8113 873.5199 872.2551 870.9891 870.0385 869.3239 868.7651 868.3401 868.0279 867.8093 867.6609 867.5259 867.3912 867.2627 867.1492 867.0591 867.001 866.9796 866.9946 867.0479 867.1389 867.2629 867.4139 867.5999 867.869 868.3608 868.9106 869.3953 869.8723 870.2751 870.601 870.8582 871.062 871.2748 871.4714 871.646 871.8042 871.9407 872.0822 872.1866 872.355 872.3866 872.4621 872.7501 873.0024 873.2345 873.4723 873.7908 874.0143 874.3722 874.6173 874.9159 875.2545 875.4429 875.6235 875.9147 876.0402 876.0839 876.1938 876.3811 876.6931 876.9401 877.2951 877.8941 878.5344 879.0405 879.4009 879.8075 880.4481 881.488 882.6282 883.3392 883.9142 884.4031 885.1289 885.7002 886.0054 885.8019 885.0437 883.9995 883.0151 882.562 882.0726 881.4667 880.8353 880.2272 879.6718 879.3362 879.1695 879.0673 878.9555 878.8776 878.843 878.8748 878.9094 878.9465 879.0853 879.4329 880.0201 880.9178 882.0217 883.4003 885.0253 886.7772 -9999 -9999 -9999 -9999 -9999 -9999 -9999 -9999 -9999 -9999 -9999 -9999 -9999 -9999 -9999 -9999 -9999 -9999 -9999
-9999 -9999 -9999 -9999 -9999 -9999 -9999 -9999 -9999 -9999 -9999 -9999 -9999 -9999 -9999 -9999 -9999 -9999 -9999 -9999 -9999 -9999 -9999 -9999 -9999 -9999 -9999 -9999 -9999 -9999 -9999 887.191 886.0856 884.7561 882.9854 880.8798 879.0009 877.6934 876.575 875.2083 873.7681 872.3311 870.9994 870.0327 869.3214 868.7633 868.3395 868.0289 867.8132 867.7135 867.5922 867.4598 867.3289 867.2096 867.1087 867.0326 866.9882 866.9764 866.9987 867.0576 867.1548 867.2915 867.4865 867.7808 868.1416 868.6689 869.2351 869.647 870.0389 870.3829 870.6621 870.8737 871.1054 871.2963 871.4606 871.6096 871.7432 871.8641 871.9623 872.0566 872.0897 872.1635 872.3506 872.4431 872.6783 872.8787 873.1725 873.4672 873.8071 873.9799 874.2726 874.5094 874.7305 874.9684 875.2936 875.415 875.4818 875.6698 875.7974 875.9254 876.0451 876.2747 876.6282 877.0174 877.3594 877.7401 878.1617 878.6918 879.5636 880.5142 880.9872 881.448 881.9567 882.5368 882.853 882.9518 882.9232 882.5363 881.9468 881.3892 881.0189 880.6331 880.175 879.6113 879.1075 878.6387 878.447 878.4171 878.4376 878.4579 878.4695 878.4768 878.6409 878.8169 878.9626 879.1356 879.4329 879.9941 880.9707 882.2937 884.0208 886.0658 888.1876 -9999 -9999 -9999 -9999 -9999 -9999 -9999 -9999 -9999 -9999 -9999 -9999 -9999 -9999 -9999 -9999 -9999 -9999 -9999
-9999 -9999 -9999 -9999 -9999 -9999 -9999 -9999 -9999 -9999 -9999 -9999 -9999 -9999 -9999 -9999 -9999 -9999 -9999 -9999 -9999 -9999 -9999 -9999 -9999 -9999 -9999 -9999 -9999 -9999 -9999 886.7661 885.5644 884.4402 882.9698 880.9696 879.1266 877.8606 876.7376 875.3705 873.8683 872.3583 870.9967 870.0236 869.3187 868.7651 868.3515 868.0627 867.8865 867.8077 867.67 867.5322 867.3988 867.2743 867.164 867.072 867.0053 866.9694 866.9651 866.9967 867.0699 867.1888 867.3585 867.5894 867.8718 868.376 868.9247 869.3813 869.817 870.2023 870.5437 870.8433 871.0132 871.1625 871.3037 871.4426 871.5723 871.6854 871.7748 871.8429 871.884 871.9485 872.0634 872.1713 872.3524 872.4219 872.6899 872.9926 873.3009 873.5486 873.8347 873.9633 874.2058 874.4098 874.6963 874.917 875.1218 875.3755 875.4219 875.4305 875.4709 875.6812 875.864 876.1079 876.3389 876.5988 876.9073 877.2776 877.8793 878.4805 878.871 879.351 879.8176 880.2113 880.3922 880.4717 880.5007 880.3669 880.1251 879.8978 879.6335 879.3183 878.8907 878.5518 878.2878 877.9508 877.8159 877.8586 878.0059 878.2021 878.4111 878.6391 879.106 879.4799 879.724 879.8896 880.0652 880.514 881.5335 883.0394 885.0438 887.4033 889.8158 -9999 -9999 -9999 -9999 -9999 -9999 -9999 -9999 -9999 -9999 -9999 -9999 -9999 -9999 -9999 -9999 -9999 -9999 -9999
-9999 -9999 -9999 -9999 -9999 -9999 -9999 -9999 -9999 -9999 -9999 -9999 -9999 -9999 -9999 -9999 -9999 -9999 -9999 -9999 -9999 -9999 -9999 -9999 -9999 -9999 -9999 -9999 -9999 -9999 -9999 886.811 885.5421 884.3881 883.1118 881.239 879.3247 878.0003 876.8021 875.4073 873.8812 872.3504 870.983 870.0109 869.3138 868.7662 868.3623 868.0842 867.9111 867.8099 867.7068 867.5893 867.4637 867.3378 867.2198 867.1152 867.0295 866.9717 866.9458 866.9548 867.006 867.1066 867.2609 867.4789 867.7811 868.1519 868.6823 869.2396 869.6318 870.0144 870.3667 870.6633 870.8604 871.0145 871.1494 871.2883 871.4219 871.5378 871.6277 871.6927 871.7399 871.7966 871.8772 871.9685 872.0853 872.1798 872.3804 872.635 872.902 873.1542 873.4102 873.6124 873.8541 873.9498 874.2236 874.4916 874.7378 874.955 875.0452 875.0962 875.1938 875.3942 875.4553 875.6319 875.7499 875.8811 876.0982 876.371 876.7158 877.0121 877.2971 877.7946 878.2265 878.4232 878.4825 878.5379 878.6401 878.6594 878.6162 878.5587 878.4653 878.3033 878.006 877.7828 877.6279 877.4949 877.5132 877.7133 878.079 878.5673 879.1279 879.7557 880.53 881.0554 881.3641 881.5217 881.5426 881.8923 882.7339 884.2715 886.4971 889.0986 891.7045 -9999 -9999 -9999 -9999 -9999 -9999 -9999 -9999 -9999 -9999 -9999 -9999 -9999 -9999 -9999 -9999 -9999 -9999 -9999
-9999 -9999 -9999 -9999 -9999 -9999 -9999 -9999 -9999 -9999 -9999 -9999 -9999 -9999 -9999 -9999 -9999 -9999 -9999 -9999 -9999 -9999 -9999 -9999 -9999 -9999 -9999 -9999 -9999 -9999 -9999 886.9109 885.3912 884.2531 883.096 881.3768 879.4954 878.1075 876.8303 875.3999 873.861 872.3292 870.9684 870.0029 869.3082 868.7721 868.3781 868.1033 867.9241 867.8105 867.7451 867.6456 867.5265 867.3995 867.2744 867.1589 867.0585 866.9818 866.938 866.9291 866.9604 867.0399 867.1709 867.3528 867.588 867.8739 868.3818 868.9315 869.3783 869.7971 870.1603 870.4615 870.6871 870.8596 870.9968 871.1466 871.2901 871.4144 871.5131 871.5861 871.6419 871.6968 871.7628 871.8395 871.9286 872.0277 872.1824 872.3798 872.5961 872.8194 873.0568 873.2798 873.4977 873.66 873.9 874.1563 874.3925 874.5863 874.708 874.8019 874.9219 875.0851 875.2155 875.4009 875.4247 875.4528 875.6359 875.808 876.0129 876.1463 876.4023 876.9298 877.4425 877.2737 877.1805 877.236 877.4617 877.5663 877.5917 877.5881 877.5546 877.4753 877.3542 877.301 877.3213 877.4202 877.6779 878.1481 878.8584 879.7813 880.8452 882.0438 883.0391 883.6034 883.9211 884.0864 883.9575 883.9066 884.3811 885.8864 888.226 890.944 893.6095 -9999 -9999 -9999 -9999 -9999 -9999 -9999 -9999 -9999 -9999 -9999 -9999 -9999 -9999 -9999 -9999 -9999 -9999 -9999
-9999 -9999 -9999 -9999 -9999 -9999 -9999 -9999 -9999 -9999 -9999 -9999 -9999 -9999 -9999 -9999 -9999 -9999 -9999 -9999 -9999 -9999 -9999 -9999 -9999 -9999 -9999 -9999 -9999 -9999 -9999 886.689 885.091 883.8712 882.7468 881.3135 879.6264 878.2037 876.8527 875.384 873.8365 872.3169 870.9813 870.0361 869.3233 868.811 868.4254 868.1475 867.965 867.8596 867.8091 867.7075 867.5885 867.4592 867.3271 867.202 867.0903 866.9995 866.9402 866.9175 866.9324 866.9919 867.1014 867.2614 867.4801 867.7807 868.1513 868.6933 869.2456 869.6124 869.9595 870.2679 870.5215 870.7195 870.8654 871.0308 871.1812 871.3132 871.4222 871.5084 871.5778 871.6411 871.7062 871.7768 871.8558 871.9468 872.0674 872.2145 872.3793 872.5568 872.7811 873.0107 873.2306 873.4318 873.6607 873.8987 874.1131 874.2901 874.4221 874.5321 874.6501 874.7859 874.9197 875.0597 875.1289 875.2172 875.3995 875.4536 875.6276 875.6787 875.8594 876.2867 876.7394 876.6604 876.5858 876.662 876.8766 876.9409 876.95 876.9518 876.9526 876.9557 876.9988 877.1633 877.4293 877.8243 878.4238 879.2979 880.4843 881.9595 883.6715 885.2656 886.4427 887.1046 887.3378 887.2372 886.7411 886.2065 886.2457 887.5822 889.8687 892.5264 -9999 -9999 -9999 -9999 -9999 -9999 -9999 -9999 -9999 -9999 -9999 -9999 -9999 -9999 -9999 -9999 -9999 -9999 -9999 -9999
-9999 -9999 -9999 -9999 -9999 -9999 -9999 -9999 -9999 -9999 -9999 -9999 -9999 -9999 -9999 -9999 -9999 -9999 -9999 -9999 -9999 -9999 -9999 -9999 -9999 -9999 -9999 -9999 -9999 -9999 -9999 886.1757 884.5428 883.2162 882.1728 880.9902 879.5623 878.23 876.8606 875.371 873.8314 872.3545 871.0954 870.2031 869.4426 868.9473 868.5397 868.2343 868.0269 867.8958 867.8105 867.7474 867.6415 867.5139 867.3776 867.2448 867.125 867.0247 866.953 866.9189 866.9216 866.9639 867.0519 867.1866 867.3663 867.5947 867.8763 868.4167 868.9609 869.3714 869.752 870.0845 870.3768 870.6333 870.8531 870.9656 871.0963 871.2289 871.3484 871.4509 871.5391 871.6188 871.6954 871.771 871.8481 871.9305 872.0258 872.134 872.253 872.3854 872.6005 872.8264 873.0477 873.2616 873.4814 873.7004 873.8996 874.0645 874.1933 874.2994 874.3997 874.5042 874.6136 874.7252 874.8177 874.9264 875.0769 875.2039 875.4043 875.437 875.5619 875.796 876.136 876.1776 876.1997 876.302 876.4562 876.5369 876.5735 876.6086 876.6713 876.7874 876.9765 877.3997 877.9633 878.7281 879.7928 881.3077 883.0986 885.0514 887.1005 888.8304 889.985 890.5314 890.5536 890.1794 889.3388 888.4117 888.0614 889.1068 891.1042 -9999 -9999 -9999 -9999 -9999 -9999 -9999 -9999 -9999 -9999 -9999 -9999 -9999 -9999 -9999 -9999 -9999 -9999 -9999 -9999 -9999
-9999 -9999 -9999 -9999 -9999 -9999 -9999 -9999 -9999 -9999 -9999 -9999 -9999 -9999 -9999 -9999 -9999 -9999 -9999 -9999 -9999 -9999 -9999 -9999 -9999 -9999 -9999 -9999 -9999 -9999 -9999 885.5278 883.924 882.5797 881.71 880.7378 879.5356 878.2766 876.8856 875.3892 873.8918 872.5096 871.4207 870.6017 869.8174 869.2383 868.7387 868.3788 868.1329 867.9714 867.8701 867.8087 867.695 867.5634 867.4246 867.2876 867.1628 867.0573 866.9777 866.9333 866.9268 866.9563 867.0269 867.1434 867.3063 867.5231 867.8158 868.2531 868.7722 869.2676 869.5872 869.9097 870.2206 870.5032 870.7316 870.864 871.0116 871.1523 871.2842 871.4059 871.5192 871.6241 871.7208 871.8099 871.8923 871.9708 872.0519 872.1392 872.2444 872.3779 872.5402 872.7341 872.9402 873.1473 873.3551 873.5565 873.7412 873.8995 874.0221 874.1169 874.194 874.2639 874.3363 874.4177 874.5038 874.6055 874.7348 874.8829 875.0714 875.2371 875.4103 875.4434 875.6599 875.804 875.9241 876.0662 876.2166 876.3265 876.4075 876.4958 876.6405 876.9193 877.341 877.9857 878.8428 880.0375 881.5919 883.5984 885.8812 888.1415 890.2331 891.8262 892.7849 893.1337 892.9532 892.4606 891.4745 890.343 889.7072 890.2472 -9999 -9999 -9999 -9999 -9999 -9999 -9999 -9999 -9999 -9999 -9999 -9999 -9999 -9999 -9999 -9999 -9999 -9999 -9999 -9999 -9999 -9999
-9999 -9999 -9999 -9999 -9999 -9999 -9999 -9999 -9999 -9999 -9999 -9999 -9999 -9999 -9999 -9999 -9999 -9999 -9999 -9999 -9999 -9999 -9999 -9999 -9999 -9999 -9999 -9999 -9999 -9999 -9999 885.0814 883.5386 882.163 881.2069 880.4176 879.5513 878.3542 876.9432 875.4833 874.0969 872.8346 871.8303 870.9694 870.1962 869.4889 868.9758 868.5855 868.297 868.0876 867.9331 867.8116 867.73 867.6037 867.4667 867.331 867.2054 867.0975 867.0137 866.9614 866.9461 866.9658 867.0232 867.1252 867.2783 867.4927 867.7864 868.0841 868.5452 869.0161 869.3654 869.7186 870.0513 870.3627 870.637 870.8536 870.9597 871.0891 871.2274 871.3691 871.512 871.6501 871.776 871.885 871.9772 872.0551 872.1284 872.1967 872.2843 872.3812 872.5315 872.7063 872.8928 873.0837 873.2738 873.4576 873.6279 873.7776 873.8997 873.9868 874.0444 874.0828 874.1156 874.1581 874.2157 874.2927 874.3961 874.5358 874.7194 874.9269 875.142 875.2656 875.4374 875.6213 875.7827 875.9464 876.1127 876.2625 876.3994 876.5435 876.7365 877.0982 877.8208 878.7071 879.8256 881.2178 883.0381 885.3857 887.9092 890.2844 892.2598 893.5645 894.3209 894.5525 894.3256 893.8907 893.0538 891.9158 891.0111 -9999 -9999 -9999 -9999 -9999 -9999 -9999 -9999 -9999 -9999 -9999 -9999 -9999 -9999 -9999 -9999 -9999 -9999 -9999 -9999 -9999 -9999 -9999
-9999 -9999 -9999 -9999 -9999 -9999 -9999 -9999 -9999 -9999 -9999 -9999 -9999 -9999 -9999 -9999 -9999 -9999 -9999 -9999 -9999 -9999 -9999 -9999 -9999 -9999 -9999 -9999 -9999 -9999 -9999 884.7797 883.2845 881.8984 880.9247 880.121 879.3507 878.3282 877.0062 875.7011 874.5685 873.4907 872.4584 871.5787 870.797 870.0504 869.4039 868.9176 868.5537 868.2791 868.0685 867.9103 867.8062 867.6503 867.5092 867.3784 867.2557 867.1473 867.0604 867.0016 866.9775 866.9882 867.0334 867.1178 867.2463 867.417 867.624 867.8541 868.3334 868.8386 869.2836 869.5659 869.8793 870.1989 870.4927 870.7267 870.8645 871.0215 871.1703 871.3358 871.5152 871.6938 871.855 871.988 872.0914 872.1677 872.2424 872.2878 872.3789 872.4645 872.5874 872.7357 872.8969 873.0636 873.2308 873.3942 873.5494 873.6901 873.8095 873.8999 873.951 873.9678 873.9645 873.9636 873.9791 874.0205 874.0927 874.2101 874.3851 874.613 874.8768 875.1357 875.4128 875.5747 875.7317 875.9027 876.0906 876.2887 876.498 876.7233 876.9838 877.5125 878.3478 879.3315 880.4222 881.6275 883.4974 885.8956 888.4611 890.8051 892.663 893.9206 894.666 894.966 894.9009 894.587 893.9546 -9999 -9999 -9999 -9999 -9999 -9999 -9999 -9999 -9999 -9999 -9999 -9999 -9999 -9999 -9999 -9999 -9999 -9999 -9999 -9999 -9999 -9999 -9999 -9999 -9999
-9999 -9999 -9999 -9999 -9999 -9999 -9999 -9999 -9999 -9999 -9999 -9999 -9999 -9999 -9999 -9999 -9999 -9999 -9999 -9999 -9999 -9999 -9999 -9999 -9999 -9999 -9999 -9999 -9999 -9999 885.8242 884.6455 883.1152 881.6811 880.7542 879.9902 879.2229 878.3012 877.085 876.015 875.0938 874.083 873.1383 872.2598 871.478 870.7337 870.0106 869.3737 868.9074 868.551 868.2639 868.0229 867.8165 867.683 867.5576 867.4373 867.3196 867.2095 867.1176 867.0518 867.0185 867.0201 867.0548 867.1245 867.2328 867.3794 867.5646 867.8116 868.2177 868.6704 869.0751 869.3596 869.6902 870.0201 870.3361 870.6184 870.8514 870.978 871.1105 871.2988 871.5242 871.7531 871.9554 872.1122 872.2261 872.2863 872.3773 872.3826 872.4744 872.5709 872.6812 872.8059 872.9402 873.0787 873.219 873.3589 873.4968 873.6284 873.7461 873.8403 873.9 873.9129 873.8831 873.8409 873.8113 873.8081 873.8458 873.9358 874.0933 874.3186 874.5977 874.8987 875.196 875.429 875.6339 875.8394 876.0638 876.317 876.6061 876.9336 877.2389 877.761 878.5025 879.3335 880.2214 881.2551 882.8409 884.9827 887.3968 889.6988 891.5772 892.9277 893.8301 894.321 894.4814 894.39 894.0483 893.4178 -9999 -9999 -9999 -9999 -9999 -9999 -9999 -9999 -9999 -9999 -9999 -9999 -9999 -9999 -9999 -9999 -9999 -9999 -9999 -9999 -9999 -9999 -9999 -9999
-9999 -9999 -9999 -9999 -9999 -9999 -9999 -9999 -9999 -9999 -9999 -9999 -9999 -9999 -9999 -9999 -9999 -9999 -9999 -9999 -9999 -9999 -9999 -9999 -9999 -9999 -9999 -9999 -9999 -9999 885.9015 884.8594 883.4225 881.9383 880.8531 879.9715 879.1285 878.2512 877.1145 876.2362 875.4788 874.6931 873.8298 872.8894 872.1359 871.3507 870.6193 869.8958 869.3342 868.903 868.5463 868.2437 867.9926 867.8096 867.6575 867.5267 867.4059 867.2878 867.1849 867.1085 867.0651 867.0576 867.0839 867.1446 867.2426 867.3818 867.5652 867.8102 868.1483 868.5469 868.9463 869.3019 869.5456 869.842 870.1533 870.4449 870.6893 870.8578 871.0056 871.246 871.5352 871.8252 872.0741 872.2495 872.3763 872.3851 872.483 872.542 872.6257 872.7153 872.8093 872.9085 873.013 873.1209 873.2318 873.3459 873.4644 873.5856 873.7025 873.8033 873.8751 873.9 873.8557 873.7827 873.7136 873.6674 873.6656 873.7258 873.857 874.0618 874.3242 874.6171 874.9103 875.1768 875.4289 875.68 875.9462 876.2418 876.5717 876.9304 877.2438 877.7239 878.3601 878.9895 879.6375 880.3883 881.4923 883.2403 885.3507 887.5162 889.3885 890.8226 891.8864 892.6127 893.0138 893.1586 893.1133 892.7991 892.0814 891.3496 -9999 -9999 -9999 -9999 -9999 -9999 -9999 -9999 -9999 -9999 -9999 -9999 -9999 -9999 -9999 -9999 -9999 -9999 -9999 -9999 -9999 -9999
-9999 -9999 -9999 -9999 -9999 -9999 -9999 -9999 -9999 -9999 -9999 -9999 -9999 -9999 -9999 -9999 -9999 -9999 -9999 -9999 -9999 -9999 -9999 -9999 -9999 -9999 -9999 -9999 -9999 -9999 885.9933 885.163 883.8613 882.3589 881.0397 879.9591 878.9761 878.1239 877.0973 876.4315 875.8873 875.3151 874.5692 873.6865 872.7545 871.8881 871.0583 870.3651 869.7897 869.3175 868.9045 868.5472 868.2475 868.0076 867.8105 867.6525 867.5184 867.3828 867.2611 867.1691 867.1134 867.0959 867.1154 867.1704 867.2637 867.4001 867.5828 867.8113 868.0789 868.4193 868.7863 869.1157 869.353 869.6538 869.9592 870.2502 870.5023 870.6987 870.8735 871.1908 871.5478 871.9072 872.21 872.3847 872.5215 872.5826 872.6646 872.7366 872.8132 872.8895 872.9642 873.037 873.1097 873.185 873.2646 873.3516 873.4487 873.5571 873.6716 873.7794 873.8635 873.9 873.8547 873.7699 873.6738 873.5969 873.5577 873.5835 873.6848 873.856 874.0824 874.3396 874.6069 874.8723 875.1429 875.4274 875.7238 876.0363 876.3596 876.6775 876.9705 877.3734 877.83 878.3853 878.8886 879.3859 880.1168 881.3293 882.9963 884.8565 886.5358 887.908 889.0292 889.8919 890.4823 890.8622 891.153 891.4422 891.723 891.9827 891.892 892.8123 -9999 -9999 -9999 -9999 -9999 -9999 -9999 -9999 -9999 -9999 -9999 -9999 -9999 -9999 -9999 -9999 -9999 -9999 -9999 -9999
-9999 -9999 -9999 -9999 -9999 -9999 -9999 -9999 -9999 -9999 -9999 -9999 -9999 -9999 -9999 -9999 -9999 -9999 -9999 -9999 -9999 -9999 -9999 -9999 -9999 -9999 -9999 -9999 -9999 -9999 885.9771 885.4304 884.1422 882.5712 881.1185 879.8847 878.7303 877.8822 877.0801 876.635 876.2496 875.7921 875.1976 874.3768 873.5001 872.5341 871.6811 870.9301 870.3083 869.781 869.3215 868.912 868.5602 868.2643 868.0151 867.8117 867.6559 867.4888 867.3427 867.2316 867.1614 867.1324 867.1437 867.1929 867.2808 867.4109 867.5868 867.8021 867.9797 868.2808 868.639 868.9928 869.3085 869.5205 869.7868 870.0713 870.3469 870.6039 870.8629 871.1743 871.5518 871.9741 872.3632 872.5631 872.699 872.7869 872.868 872.9418 873.012 873.0767 873.1333 873.1827 873.225 873.2676 873.3162 873.3757 873.4506 873.5429 873.6504 873.7615 873.855 873.9 873.8585 873.7764 873.6778 873.582 873.5199 873.5134 873.5781 873.7101 873.8893 874.0956 874.3173 874.5538 874.8148 875.1069 875.4255 875.748 876.0587 876.3468 876.6148 876.9065 877.1464 877.6274 878.088 878.4059 878.8481 879.7081 880.8865 882.2651 883.5529 884.7105 885.7788 886.6815 887.3817 887.9307 888.493 889.2627 890.2389 891.26 892.1901 893.4684 894.8348 -9999 -9999 -9999 -9999 -9999 -9999 -9999 -9999 -9999 -9999 -9999 -9999 -9999 -9999 -9999 -9999 -9999 -9999 -9999
-9999 -9999 -9999 -9999 -9999 -9999 -9999 -9999 -9999 -9999 -9999 -9999 -9999 -9999 -9999 -9999 -9999 -9999 -9999 -9999 -9999 -9999 -9999 -9999 -9999 -9999 -9999 -9999 -9999 -9999 885.6721 885.0707 883.9241 882.4831 881.0841 879.8359 878.6539 877.8801 877.2893 876.9312 876.5898 876.1276 875.5312 874.8489 874.0317 873.1962 872.3832 871.6145 870.9151 870.3147 869.7908 869.3284 868.9222 868.5687 868.2584 867.9965 867.799 867.5883 867.4241 867.2966 867.2098 867.1672 867.1675 867.2078 867.2848 867.3967 867.5366 867.686 867.8234 868.1353 868.4906 868.8395 869.1392 869.347 869.6176 869.9024 870.1974 870.5044 870.8337 871.0989 871.4691 871.9386 872.3834 872.6613 872.8372 872.9566 873.0513 873.131 873.2003 873.2594 873.3059 873.3378 873.3557 873.369 873.3892 873.4232 873.4754 873.5487 873.6427 873.7505 873.8502 873.9 873.8595 873.786 873.7003 873.6124 873.5408 873.5125 873.5441 873.6318 873.7576 873.9048 874.0681 874.2556 874.4825 874.7593 875.0807 875.4213 875.7301 875.9955 876.2339 876.4509 876.647 876.9323 877.1734 877.5134 877.8891 878.4247 879.1304 880.0541 880.95 881.8302 882.7306 883.5862 884.3218 884.8872 885.5645 886.6155 888.0513 889.7064 891.3718 893.0511 894.6126 895.9753 -9999 -9999 -9999 -9999 -9999 -9999 -9999 -9999 -9999 -9999 -9999 -9999 -9999 -9999 -9999 -9999 -9999 -9999
-9999 -9999 -9999 -9999 -9999 -9999 -9999 -9999 -9999 -9999 -9999 -9999 -9999 -9999 -9999 -9999 -9999 -9999 -9999 -9999 -9999 -9999 -9999 -9999 -9999 -9999 -9999 -9999 -9999 -9999 884.9854 884.4481 883.4669 882.2051 880.9888 879.8398 878.7349 878.051 877.5362 877.1852 876.8866 876.4224 875.8834 875.293 874.572 873.8452 873.0955 872.3377 871.6082 870.9242 870.3278 869.8026 869.3355 868.9189 868.5302 868.1594 867.8312 867.6533 867.5087 867.3721 867.2656 867.2045 867.1901 867.2188 867.2846 867.3826 867.5057 867.646 867.8095 868.0651 868.3796 868.7147 869.0342 869.3145 869.5 869.7429 870.0178 870.3065 870.5964 870.868 871.2561 871.8131 872.3679 872.6939 872.9132 873.0721 873.1925 873.2869 873.3633 873.4259 873.4743 873.5034 873.5033 873.4956 873.4943 873.5073 873.5378 873.5885 873.6609 873.7552 873.8571 873.9 873.8615 873.7989 873.7358 873.6724 873.6147 873.5801 873.5847 873.6317 873.7059 873.7921 873.8911 874.0169 874.1917 874.4325 874.7401 875.0861 875.4192 875.6774 875.9073 876.0974 876.265 876.4637 876.6747 876.9532 877.2563 877.5475 877.9624 878.4634 878.9652 879.5568 880.3271 881.1361 881.9341 882.2144 882.8292 883.9546 885.567 887.5319 889.6218 891.5802 893.2261 894.5134 -9999 -9999 -9999 -9999 -9999 -9999 -9999 -9999 -9999 -9999 -9999 -9999 -9999 -9999 -9999 -9999 -9999 -9999
-9999 -9999 -9999 -9999 -9999 -9999 -9999 -9999 -9999 -9999 -9999 -9999 -9999 -9999 -9999 -9999 -9999 -9999 -9999 -9999 -9999 -9999 -9999 -9999 -9999 -9999 -9999 -9999 -9999 -9999 884.4642 883.9142 883.055 881.9657 880.9213 879.9252 879.0166 878.3622 877.8018 877.3746 876.9901 876.6241 876.1492 875.5624 874.9921 874.3676 873.705 872.9792 872.2997 871.6104 870.9376 870.3448 869.8142 869.3282 868.8696 868.4209 868.0492 867.811 867.644 867.473 867.3364 867.2504 867.217 867.2313 867.2865 867.3762 867.4955 867.6404 867.8105 868.0114 868.28 868.5898 868.8987 869.1635 869.3423 869.5801 869.8298 870.0871 870.3443 870.6112 870.9682 871.6 872.2658 872.6254 872.9095 873.1265 873.2864 873.4038 873.4942 873.5695 873.6351 873.6863 873.6801 873.6628 873.6529 873.6536 873.6657 873.6902 873.7302 873.7951 873.8992 873.9202 873.8883 873.8436 873.8026 873.772 873.7451 873.723 873.7167 873.7315 873.7614 873.7952 873.833 873.8917 874.0007 874.1874 874.4652 874.8096 875.1601 875.4431 875.6816 875.8556 876.0054 876.1686 876.3674 876.6211 876.894 876.998 877.2593 877.5023 877.7948 878.1494 878.6224 879.1689 879.7799 880.1521 880.7555 881.7506 883.2926 885.1938 887.4068 889.4731 891.0509 892.1487 892.8674 -9999 -9999 -9999 -9999 -9999 -9999 -9999 -9999 -9999 -9999 -9999 -9999 -9999 -9999 -9999 -9999 -9999
-9999 -9999 -9999 -9999 -9999 -9999 -9999 -9999 -9999 -9999 -9999 -9999 -9999 -9999 -9999 -9999 -9999 -9999 -9999 -9999 -9999 -9999 -9999 -9999 -9999 -9999 -9999 -9999 -9999 -9999 884.1291 883.5482 882.8412 881.8115 880.9159 880.077 879.3345 878.6506 878.1077 877.655 877.2698 876.9325 876.5184 876.0071 875.4425 874.8046 874.0822 873.4663 872.8858 872.2922 871.6272 870.9541 870.3448 869.7697 869.2369 868.7112 868.2953 867.9989 867.7971 867.579 867.4177 867.3087 867.2535 867.25 867.2922 867.3732 867.4881 867.6343 867.8059 867.9381 868.1737 868.4679 868.7775 869.0687 869.319 869.4733 869.6718 869.8962 870.1394 870.4247 870.8171 871.3229 871.9468 872.427 872.8371 873.1321 873.34 873.4869 873.5958 873.6887 873.783 873.8943 873.9041 873.9045 873.903 873.9013 873.9 873.8992 873.8991 873.9076 873.9915 874.0212 874.0029 873.9707 873.9519 873.9524 873.9671 873.9751 873.9761 873.9779 873.9812 873.9788 873.9672 873.9595 873.9885 874.0981 874.3243 874.6613 875.0546 875.4181 875.5933 875.7131 875.8301 875.9695 876.1403 876.3436 876.5462 876.6907 876.9044 876.9825 877.1816 877.3621 877.6404 877.986 878.3784 878.7232 879.369 880.3809 881.7643 883.1963 885.2463 887.2142 888.5714 889.3599 889.9126 -9999 -9999 -9999 -9999 -9999 -9999 -9999 -9999 -9999 -9999 -9999 -9999 -9999 -9999 -9999 -9999 -9999
-9999 -9999 -9999 -9999 -9999 -9999 -9999 -9999 -9999 -9999 -9999 -9999 -9999 -9999 -9999 -9999 -9999 -9999 -9999 -9999 -9999 -9999 -9999 -9999 -9999 -9999 -9999 -9999 -9999 -9999 884.0978 883.4504 882.8504 882.0033 881.2122 880.5208 879.9114 879.2937 878.634 878.0682 877.6169 877.261 876.9196 876.4792 875.929 875.2842 874.569 873.9482 873.4197 872.8925 872.3081 871.6367 870.9227 870.2057 869.4937 868.9726 868.5344 868.1525 867.8298 867.65 867.5066 867.3839 867.3047 867.2787 867.303 867.3692 867.4677 867.5872 867.7101 867.8167 868.062 868.3511 868.6541 868.9434 869.1846 869.3374 869.5302 869.736 869.9606 870.2238 870.5604 870.9923 871.6758 872.3409 872.788 873.1205 873.3665 873.544 873.6755 873.7891 873.9055 874.0897 874.2145 874.2881 874.3083 874.3035 874.2865 874.2672 874.2528 874.255 874.2935 874.3065 874.2844 874.2528 874.2461 874.2852 874.3595 874.4133 874.4418 874.4558 874.4624 874.4528 874.4122 874.3411 874.2693 874.259 874.386 874.6638 875.0415 875.4163 875.5392 875.6143 875.7007 875.8157 875.9569 876.1146 876.2676 876.4053 876.5693 876.7095 876.9152 876.965 877.145 877.3464 877.5869 877.9137 878.5213 879.5129 880.8633 881.8362 883.5746 885.2709 886.3052 886.7102 887.0827 -9999 -9999 -9999 -9999 -9999 -9999 -9999 -9999 -9999 -9999 -9999 -9999 -9999 -9999 -9999 -9999 -9999
-9999 -9999 -9999 -9999 -9999 -9999 -9999 -9999 -9999 -9999 -9999 -9999 -9999 -9999 -9999 -9999 -9999 -9999 -9999 -9999 -9999 -9999 -9999 -9999 -9999 -9999 -9999 -9999 -9999 -9999 -9999 883.519 882.9396 882.3596 881.8664 881.1844 880.6121 880.1333 879.4182 878.6166 878.0092 877.5701 877.2375 876.8939 876.3646 875.6403 875.0071 874.4338 873.9108 873.4159 872.8774 872.2795 871.5533 870.7376 869.9613 869.3499 868.8587 868.4082 868.0441 867.8104 867.6454 867.486 867.3737 867.3203 867.3225 867.3713 867.4545 867.5602 867.6775 867.8095 868.009 868.2612 868.5438 868.8323 869.0996 869.3223 869.4463 869.6165 869.8167 870.0571 870.3737 870.8212 871.4338 872.1919 872.6738 873.0641 873.3627 873.5797 873.7419 873.8954 874.0887 874.3551 874.6071 874.7888 874.8536 874.8716 874.8585 874.8365 874.8207 874.8186 874.8314 874.8282 874.7986 874.7615 874.7622 874.853 875.0361 875.1649 875.25 875.3096 875.361 875.3854 875.3458 875.215 875.0104 874.8101 874.7629 874.8954 875.1478 875.4245 875.5035 875.5415 875.6027 875.6954 875.8099 875.929 876.0418 876.153 876.2872 876.4412 876.6233 876.7539 876.9402 877.0671 877.2029 877.4709 877.98 878.7579 879.8261 880.7916 882.2813 883.7748 884.5931 884.6455 884.8355 -9999 -9999 -9999 -9999 -9999 -9999 -9999 -9999 -9999 -9999 -9999 -9999 -9999 -9999 -9999 -9999 -9999
-9999 -9999 -9999 -9999 -9999 -9999 -9999 -9999 -9999 -9999 -9999 -9999 -9999 -9999 -9999 -9999 -9999 -9999 -9999 -9999 -9999 -9999 -9999 -9999 -9999 -9999 -9999 -9999 -9999 -9999 -9999 883.7882 883.1057 882.7505 882.5963 881.9929 881.3394 880.8923 880.2432 879.2651 878.437 877.8595 877.4772 877.1681 876.7919 876.1293 875.4794 874.9005 874.3387 873.8249 873.2941 872.7366 872.0829 871.1733 870.4204 869.778 869.2296 868.7021 868.2894 867.9962 867.798 867.5906 867.4515 867.3739 867.3535 867.3834 867.4535 867.553 867.6732 867.8103 867.9674 868.1793 868.437 868.7158 868.9837 869.2024 869.3347 869.5173 869.7017 869.9088 870.1763 870.546 871.0426 871.7954 872.4361 872.9559 873.3329 873.6 873.7847 873.9194 874.2411 874.6295 875.0333 875.372 875.5284 875.6353 875.6602 875.6517 875.6411 875.6362 875.6342 875.6228 875.5941 875.5605 875.5785 875.7499 876.1304 876.3829 876.591 876.7553 876.9106 877.0216 877.0163 876.8267 876.4431 875.9542 875.6443 875.5375 875.546 875.6038 875.5745 875.5411 875.5559 875.6182 875.7056 875.7937 875.8715 875.9503 876.0589 876.2107 876.3958 876.5784 876.7748 876.9426 877.0365 877.2846 877.7581 878.4597 879.3383 880.2304 881.3553 882.6907 883.4815 883.3294 883.3776 -9999 -9999 -9999 -9999 -9999 -9999 -9999 -9999 -9999 -9999 -9999 -9999 -9999 -9999 -9999 -9999 -9999
-9999 -9999 -9999 -9999 -9999 -9999 -9999 -9999 -9999 -9999 -9999 -9999 -9999 -9999 -9999 -9999 -9999 -9999 -9999 -9999 -9999 -9999 -9999 -9999 -9999 -9999 -9999 -9999 -9999 -9999 -9999 -9999 883.6201 883.1883 883.1176 882.8256 882.2563 881.7557 880.9073 879.9011 878.9046 878.2019 877.7146 877.3488 876.9752 876.5044 875.9308 875.3169 874.6579 874.0268 873.5523 873.0344 872.4209 871.6844 870.9096 870.1918 869.4873 868.9684 868.5294 868.1475 867.8283 867.6572 867.5328 867.44 867.3958 867.4044 867.459 867.5499 867.6696 867.808 867.9097 868.0886 868.3281 868.6016 868.8809 869.1334 869.3301 869.4801 869.6216 869.7874 870.0128 870.3409 870.8283 871.5037 872.298 872.8662 873.296 873.6274 873.8922 874.0925 874.4218 874.8594 875.3802 875.8848 876.3314 876.6763 876.7763 876.7816 876.7654 876.7491 876.7351 876.7185 876.6976 876.6934 876.7837 877.1064 877.7244 878.2072 878.7088 879.0876 879.4408 879.6995 879.7499 879.4753 878.8407 877.9907 877.3097 876.8602 876.5334 876.1626 875.8579 875.665 875.5912 875.6047 875.6586 875.7177 875.767 875.8182 875.9033 876.0472 876.2404 876.4482 876.6456 876.8075 876.9493 877.2554 877.7685 878.4741 879.3403 880.1012 880.8631 882.0209 882.8005 882.7162 882.6744 883.0844 -9999 -9999 -9999 -9999 -9999 -9999 -9999 -9999 -9999 -9999 -9999 -9999 -9999 -9999 -9999 -9999
-9999 -9999 -9999 -9999 -9999 -9999 -9999 -9999 -9999 -9999 -9999 -9999 -9999 -9999 -9999 -9999 -9999 -9999 -9999 -9999 -9999 -9999 -9999 -9999 -9999 -9999 -9999 -9999 -9999 -9999 -9999 -9999 -9999 884.074 883.9854 883.876 883.4138 882.9214 882.1556 880.9902 879.8749 878.8688 878.147 877.6439 877.2569 876.8823 876.3326 875.6176 874.9904 874.3768 873.8392 873.3132 872.774 872.1794 871.4189 870.6832 869.9426 869.3466 868.8541 868.3996 868.0353 867.8098 867.6603 867.5276 867.4495 867.4316 867.4644 867.535 867.6305 867.7319 867.8133 867.9868 868.2162 868.4858 868.7764 869.0653 869.3221 869.4415 869.5438 869.6765 869.8631 870.1392 870.553 871.1425 872.0583 872.694 873.1944 873.5911 873.9044 874.1873 874.5233 874.9489 875.481 876.1729 876.8431 877.2428 877.411 877.4321 877.3851 877.3232 877.2832 877.2925 877.3767 877.5728 877.9507 878.5936 879.4844 880.4328 881.4412 882.1246 882.76 883.2133 883.3425 882.9802 882.0623 880.8016 879.6373 878.6609 877.7889 876.9907 876.3545 875.9393 875.7335 875.6767 875.6863 875.7151 875.7421 875.7729 875.8405 875.9774 876.1801 876.4105 876.6226 876.7936 876.9662 877.3629 877.96 878.7215 879.7667 880.5146 880.9924 881.9578 882.5377 882.5433 882.4337 882.5802 -9999 -9999 -9999 -9999 -9999 -9999 -9999 -9999 -9999 -9999 -9999 -9999 -9999 -9999 -9999 -9999
-9999 -9999 -9999 -9999 -9999 -9999 -9999 -9999 -9999 -9999 -9999 -9999 -9999 -9999 -9999 -9999 -9999 -9999 -9999 -9999 -9999 -9999 -9999 -9999 -9999 -9999 -9999 -9999 -9999 -9999 -9999 -9999 -9999 -9999 885.1852 885.2338 884.8219 884.269 883.5707 882.5189 881.2917 880.0253 878.91 878.1382 877.6071 877.1967 876.7604 876.075 875.4165 874.7523 874.0636 873.5562 873.0512 872.4576 871.7869 871.0264 870.3685 869.7716 869.2304 868.6948 868.2738 867.9839 867.8001 867.615 867.506 867.4641 867.4727 867.5197 867.5964 867.6945 867.8079 867.9147 868.1112 868.3617 868.6407 868.9243 869.174 869.3298 869.4379 869.5668 869.7295 869.9637 870.3208 870.8582 871.6181 872.3934 873.0147 873.5126 873.905 874.2302 874.5612 874.963 875.4868 876.2391 876.9625 877.4647 877.7017 877.7365 877.663 877.5714 877.5428 877.6447 877.9373 878.4723 879.2947 880.4133 881.7887 883.1713 884.4637 885.5259 886.3691 886.948 887.124 886.683 885.6024 884.0891 882.4908 880.9498 879.4744 878.1752 877.116 876.4066 876.0204 875.8687 875.8115 875.802 875.8112 875.8317 875.8872 876.0161 876.2283 876.4905 876.7367 876.9427 877.1716 877.6117 878.2906 879.1229 880.2618 881.3775 881.8574 882.699 883.0959 883.0474 882.7954 882.6581 -9999 -9999 -9999 -9999 -9999 -9999 -9999 -9999 -9999 -9999 -9999 -9999 -9999 -9999 -9999 -9999
-9999 -9999 -9999 -9999 -9999 -9999 -9999 -9999 -9999 -9999 -9999 -9999 -9999 -9999 -9999 -9999 -9999 -9999 -9999 -9999 -9999 -9999 -9999 -9999 -9999 -9999 -9999 -9999 -9999 -9999 -9999 -9999 -9999 -9999 -9999 886.7091 886.2286 885.543 884.8499 884.1126 882.9361 881.5143 880.0953 878.9272 878.1079 877.5122 876.9924 876.4448 875.8519 875.2284 874.5159 873.9335 873.4224 872.8527 872.223 871.4994 870.8456 870.2089 869.5305 868.9867 868.5175 868.1294 867.8245 867.6665 867.5634 867.5076 867.4893 867.5065 867.557 867.6344 867.7258 867.8142 868.0045 868.2319 868.4868 868.7546 869.0056 869.2001 869.3334 869.4728 869.6193 869.8135 870.1035 870.5431 871.1631 872.073 872.7811 873.394 873.8955 874.2327 874.5605 874.9539 875.4758 876.2343 876.9705 877.5173 877.7854 877.8226 877.7365 877.6512 877.6909 877.9668 878.583 879.6257 881.1373 882.8246 884.5538 886.2195 887.6986 888.8477 889.6689 890.191 890.3107 889.8406 888.79 887.272 885.4976 883.5895 881.6359 879.7732 878.2386 877.1257 876.4925 876.2246 876.0647 876.0044 875.9987 876.0157 876.0594 876.1711 876.3787 876.6687 876.9331 877.1302 877.4152 877.8818 878.5375 879.47 880.709 882.0788 883.1599 884.1461 884.5404 884.3861 883.9585 883.5662 -9999 -9999 -9999 -9999 -9999 -9999 -9999 -9999 -9999 -9999 -9999 -9999 -9999 -9999 -9999 -9999
-9999 -9999 -9999 -9999 -9999 -9999 -9999 -9999 -9999 -9999 -9999 -9999 -9999 -9999 -9999 -9999 -9999 -9999 -9999 -9999 -9999 -9999 -9999 -9999 -9999 -9999 -9999 -9999 -9999 -9999 -9999 -9999 -9999 -9999 -9999 887.4956 887.0974 886.1962 885.3758 885.3239 884.631 883.2125 881.6006 880.1434 878.9048 878.0287 877.3929 876.8702 876.2762 875.5929 874.9608 874.3969 873.8651 873.2527 872.5342 871.9076 871.3218 870.7605 870.105 869.4382 868.8636 868.3816 868.0221 867.8085 867.6687 867.5817 867.5225 867.4999 867.519 867.5795 867.6769 867.8069 867.932 868.1075 868.327 868.5787 868.8457 869.1019 869.3233 869.4213 869.5385 869.6952 869.9314 870.2966 870.8466 871.61 872.4346 873.1811 873.8104 874.1544 874.5148 874.9357 875.4727 876.2274 876.9635 877.4976 877.7576 877.7896 877.7137 877.6835 877.8599 878.3962 879.4589 881.2004 883.3371 885.5388 887.5692 889.3259 890.7188 891.6852 892.2375 892.4741 892.3933 891.9359 891.1133 889.8502 888.2283 886.276 884.075 881.7807 879.7019 878.1528 877.177 876.7708 876.4604 876.3564 876.3513 876.3704 876.3868 876.4538 876.6179 876.912 877.1288 877.3865 877.7759 878.3337 879.0424 880.0887 881.5199 883.3057 885.0092 886.3123 886.8292 886.6481 886.0831 -9999 -9999 -9999 -9999 -9999 -9999 -9999 -9999 -9999 -9999 -9999 -9999 -9999 -9999 -9999 -9999 -9999
-9999 -9999 -9999 -9999 -9999 -9999 -9999 -9999 -9999 -9999 -9999 -9999 -9999 -9999 -9999 -9999 -9999 -9999 -9999 -9999 -9999 -9999 -9999 -9999 -9999 -9999 -9999 -9999 -9999 -9999 -9999 -9999 -9999 -9999 -9999 -9999 886.889 885.9523 885.7928 886.2089 886.168 885.0764 883.4743 881.7266 880.1012 878.822 877.9553 877.3425 876.8062 876.1597 875.5002 874.9086 874.3329 873.7111 872.9559 872.2991 871.7283 871.2277 870.7056 870.0262 869.2881 868.6951 868.2716 867.9933 867.8098 867.6858 867.57 867.4979 867.4788 867.511 867.5873 867.6951 867.8103 867.9627 868.1553 868.3903 868.6644 868.9488 869.1942 869.3332 869.4642 869.6017 869.7913 870.0798 870.5215 871.1483 872.0753 872.8514 873.5101 873.9563 874.4277 874.9106 875.4744 876.2165 876.9445 877.424 877.658 877.6908 877.6542 877.7297 878.1152 878.9989 880.6396 882.959 885.6017 888.1677 890.3723 892.0507 893.1615 893.744 893.8619 893.6221 893.234 892.9262 892.3691 891.5299 890.308 888.6173 886.4387 883.9422 881.4504 879.4349 878.0959 877.3673 876.9873 876.9166 876.9492 876.9783 876.9295 876.9107 876.9696 877.2018 877.4844 877.8606 878.3911 879.0484 879.9666 881.3068 883.1927 885.4083 887.5204 889.0991 889.7407 889.543 888.8628 -9999 -9999 -9999 -9999 -9999 -9999 -9999 -9999 -9999 -9999 -9999 -9999 -9999 -9999 -9999 -9999 -9999
-9999 -9999 -9999 -9999 -9999 -9999 -9999 -9999 -9999 -9999 -9999 -9999 -9999 -9999 -9999 -9999 -9999 -9999 -9999 -9999 -9999 -9999 -9999 -9999 -9999 -9999 -9999 -9999 -9999 -9999 -9999 -9999 -9999 -9999 -9999 -9999 -9999 885.1399 885.8094 886.8384 887.3561 886.667 885.264 883.47 881.5627 879.9611 878.7624 877.9521 877.3495 876.7864 876.1372 875.4745 874.8054 874.0527 873.2843 872.5336 872.0097 871.5543 871.0974 870.5306 869.6511 869.0218 868.5552 868.2148 867.9698 867.8015 867.6177 867.4991 867.4426 867.4415 867.4877 867.5693 867.674 867.8097 867.9778 868.1917 868.4695 868.782 869.083 869.3224 869.4211 869.5353 869.6841 869.9137 870.2776 870.8359 871.6126 872.4797 873.2684 873.8861 874.3773 874.8827 875.4579 876.1412 876.8505 877.2644 877.4955 877.551 877.5739 877.7863 878.434 879.741 881.8206 884.5907 887.6313 890.4563 892.7036 894.1738 894.8797 895.0027 894.672 893.9869 893.2277 893.0696 892.7832 892.2852 891.5117 890.3223 888.4216 885.9145 883.2269 880.9673 879.2856 878.312 877.8797 877.8287 877.9227 877.9674 877.7583 877.6372 877.6825 877.9177 878.2931 878.8112 879.4987 880.3372 881.5573 883.3339 885.6058 888.1206 890.4841 892.1991 892.8912 892.6655 -9999 -9999 -9999 -9999 -9999 -9999 -9999 -9999 -9999 -9999 -9999 -9999 -9999 -9999 -9999 -9999 -9999 -9999
-9999 -9999 -9999 -9999 -9999 -9999 -9999 -9999 -9999 -9999 -9999 -9999 -9999 -9999 -9999 -9999 -9999 -9999 -9999 -9999 -9999 -9999 -9999 -9999 -9999 -9999 -9999 -9999 -9999 -9999 -9999 -9999 -9999 -9999 -9999 -9999 -9999 -9999 886.0845 887.2847 888.0135 887.856 886.8837 885.3192 883.3726 881.441 879.938 878.8209 878.0402 877.4068 876.8047 876.132 875.4111 874.6111 873.7649 872.9445 872.3141 871.8057 871.3627 870.8517 870.1563 869.4627 868.9219 868.4915 868.1344 867.8281 867.6489 867.5166 867.4306 867.3945 867.4064 867.4595 867.5457 867.6626 867.809 867.9924 868.2699 868.5941 868.9183 869.1857 869.3337 869.4717 869.5991 869.7792 870.0676 870.5259 871.1917 872.2095 873.0653 873.7821 874.2582 874.7806 875.3573 875.9083 876.5502 877.0025 877.3066 877.4052 877.4825 877.806 878.6501 880.3194 882.8101 885.9586 889.2831 892.226 894.3764 895.562 895.8324 895.5811 -9999 -9999 -9999 -9999 -9999 892.4124 891.9988 891.2897 889.8156 887.5199 884.8819 882.6469 880.8929 879.7659 879.3328 879.323 879.4354 879.333 879.0326 878.9062 879.0234 879.3513 879.8663 880.5902 881.4031 882.3973 883.9595 886.0498 888.5223 891.1425 893.5228 895.174 895.7964 -9999 -9999 -9999 -9999 -9999 -9999 -9999 -9999 -9999 -9999 -9999 -9999 -9999 -9999 -9999 -9999 -9999 -9999 -9999
-9999 -9999 -9999 -9999 -9999 -9999 -9999 -9999 -9999 -9999 -9999 -9999 -9999 -9999 -9999 -9999 -9999 -9999 -9999 -9999 -9999 -9999 -9999 -9999 -9999 -9999 -9999 -9999 -9999 -9999 -9999 -9999 -9999 -9999 -9999 -9999 -9999 -9999 -9999 888.0315 888.7749 888.9257 888.3983 887.2062 885.3724 883.2945 881.4862 880.1038 879.0226 878.1741 877.4718 876.8256 876.0945 875.2663 874.2928 873.3965 872.5952 872.0526 871.6266 871.2051 870.7145 870.0698 869.4058 868.8795 868.4426 868.0762 867.8113 867.6168 867.479 867.3961 867.3663 867.3855 867.4474 867.5453 867.6703 867.8218 868.0944 868.4093 868.744 869.062 869.3201 869.4358 869.5311 869.6711 869.9071 870.301 870.9305 871.8968 872.7462 873.4657 873.9969 874.5664 875.0943 875.592 876.3303 876.9307 877.2205 877.3116 877.4226 877.8389 878.86 880.8314 883.6027 886.964 890.393 893.2933 895.2396 -9999 -9999 -9999 -9999 -9999 -9999 -9999 -9999 -9999 891.8693 891.6131 890.4984 888.6569 886.3592 884.386 882.8874 881.966 881.6777 881.7329 881.8632 881.4918 881.1237 881.061 881.3436 881.8376 882.4852 883.272 884.1561 885.3058 887.0316 889.22 891.6613 894.1139 896.2117 897.5038 -9999 -9999 -9999 -9999 -9999 -9999 -9999 -9999 -9999 -9999 -9999 -9999 -9999 -9999 -9999 -9999 -9999 -9999 -9999 -9999
-9999 -9999 -9999 -9999 -9999 -9999 -9999 -9999 -9999 -9999 -9999 -9999 -9999 -9999 -9999 -9999 -9999 -9999 -9999 -9999 -9999 -9999 -9999 -9999 -9999 -9999 -9999 -9999 -9999 -9999 -9999 -9999 -9999 -9999 -9999 -9999 -9999 -9999 -9999 -9999 889.6129 889.9368 889.7788 889.0013 887.4467 885.3956 883.3201 881.7651 880.4697 879.2067 878.2631 877.5435 876.8382 876.0243 875.114 874.1238 873.2266 872.499 871.9786 871.5496 871.1212 870.6288 869.9465 869.3481 868.8553 868.4337 868.089 867.8119 867.6049 867.4626 867.3817 867.359 867.3914 867.4761 867.6119 867.8013 867.9797 868.2318 868.5393 868.8614 869.145 869.3278 869.4387 869.5719 869.7698 870.0873 870.5922 871.3185 872.3177 873.1641 873.8692 874.4329 874.9554 875.4999 876.2625 876.9186 877.1733 877.2515 877.3941 877.903 879.0972 881.3246 884.1282 887.5348 890.9335 893.6597 895.3326 -9999 -9999 -9999 -9999 -9999 -9999 -9999 -9999 -9999 891.0527 890.9948 890.5526 889.4248 887.892 886.3453 885.2754 884.6742 884.6098 884.6323 884.5432 884.1843 883.8723 883.9432 884.4214 885.0427 885.7553 886.5621 887.4524 888.6899 890.4065 892.4791 894.6461 896.6617 898.2006 -9999 -9999 -9999 -9999 -9999 -9999 -9999 -9999 -9999 -9999 -9999 -9999 -9999 -9999 -9999 -9999 -9999 -9999 -9999 -9999 -9999
-9999 -9999 -9999 -9999 -9999 -9999 -9999 -9999 -9999 -9999 -9999 -9999 -9999 -9999 -9999 -9999 -9999 -9999 -9999 -9999 -9999 -9999 -9999 -9999 -9999 -9999 -9999 -9999 -9999 -9999 -9999 -9999 -9999 -9999 -9999 -9999 -9999 -9999 -9999 -9999 -9999 891.0197 890.9507 890.5434 889.4375 887.6178 885.5074 883.7143 882.2415 880.5663 879.2411 878.3881 877.6238 876.8248 875.9392 875.0255 874.0634 873.2048 872.4866 871.9365 871.4436 870.9211 870.3718 869.8248 869.3219 868.8595 868.4504 868.0988 867.812 867.6005 867.4585 867.3822 867.3696 867.4179 867.5194 867.6604 867.8109 868.0258 868.3031 868.6165 868.9217 869.167 869.3346 869.4896 869.6632 869.9169 870.3253 870.957 871.9147 872.8112 873.664 874.2786 874.8691 875.4825 876.2285 876.8794 877.0966 877.1825 877.3589 877.929 879.2337 881.631 884.2982 887.6644 891.0043 893.6042 895.1173 895.6742 -9999 -9999 -9999 -9999 -9999 -9999 -9999 -9999 890.0276 890.0833 890.0274 889.7993 889.3555 888.7058 888.2416 888.0825 888.1578 888.1599 887.9669 887.6707 887.5076 887.6617 888.1046 888.6724 889.3004 890.0005 890.8707 892.0128 893.5298 895.29 897.0038 898.465 -9999 -9999 -9999 -9999 -9999 -9999 -9999 -9999 -9999 -9999 -9999 -9999 -9999 -9999 -9999 -9999 -9999 -9999 -9999 -9999 -9999 -9999
-9999 -9999 -9999 -9999 -9999 -9999 -9999 -9999 -9999 -9999 -9999 -9999 -9999 -9999 -9999 -9999 -9999 -9999 -9999 -9999 -9999 -9999 -9999 -9999 -9999 -9999 -9999 -9999 -9999 -9999 -9999 -9999 -9999 -9999 -9999 -9999 -9999 -9999 -9999 -9999 -9999 -9999 891.9008 891.8091 891.2379 889.8147 887.7592 885.5984 883.7363 881.9115 880.4487 879.4095 878.5281 877.6339 876.7158 875.8075 874.9644 874.0506 873.2064 872.4718 871.8727 871.333 870.8303 870.3156 869.8087 869.3239 868.8687 868.4561 868.0991 867.8113 867.6001 867.4589 867.3862 867.379 867.4279 867.517 867.6359 867.8107 868.0542 868.3533 868.6857 869.0198 869.3143 869.4434 869.5881 869.7864 870.092 870.5739 871.2719 872.2377 873.1655 873.9922 874.7467 875.4421 876.1103 876.678 876.9568 877.0972 877.2915 877.8355 879.0364 881.2067 883.8696 887.2993 890.6133 893.0842 894.3657 894.6057 -9999 -9999 -9999 -9999 -9999 -9999 -9999 -9999 -9999 889.7584 890.1357 890.494 890.9032 891.1127 891.2599 891.4953 891.7616 891.8315 891.6432 891.4181 891.3787 891.5787 891.9404 892.3209 892.7153 893.1583 893.7562 894.598 895.7634 897.0622 898.2569 -9999 -9999 -9999 -9999 -9999 -9999 -9999 -9999 -9999 -9999 -9999 -9999 -9999 -9999 -9999 -9999 -9999 -9999 -9999 -9999 -9999 -9999 -9999
-9999 -9999 -9999 -9999 -9999 -9999 -9999 -9999 -9999 -9999 -9999 -9999 -9999 -9999 -9999 -9999 -9999 -9999 -9999 -9999 -9999 -9999 -9999 -9999 -9999 -9999 -9999 -9999 -9999 -9999 -9999 -9999 -9999 -9999 -9999 -9999 -9999 -9999 -9999 -9999 -9999 -9999 892.6984 892.9105 892.9106 891.978 890.0817 887.7274 885.4512 883.3702 881.7891 880.6494 879.6735 878.5754 877.4521 876.5046 875.6968 874.9351 874.0461 873.2023 872.4511 871.8328 871.3079 870.8195 870.3104 869.8065 869.3232 868.8658 868.4501 868.0942 867.8101 867.5972 867.4532 867.3785 867.3654 867.4001 867.4775 867.6102 867.8099 868.0778 868.4105 868.7883 869.1288 869.3375 869.5166 869.6853 869.9154 870.2838 870.8531 871.6697 872.6588 873.7349 874.587 875.3311 875.9275 876.5237 876.9402 877.0743 877.2468 877.7363 878.8145 880.7748 883.3606 886.6662 889.8099 892.067 893.1309 893.1568 -9999 -9999 -9999 -9999 -9999 -9999 -9999 -9999 -9999 890.3099 891.1299 892.0319 892.9565 893.7095 894.3063 894.826 895.2515 895.3775 895.179 894.9415 894.9055 895.0374 895.1993 895.2271 895.2225 895.2668 895.4297 895.8527 896.6444 897.4023 -9999 -9999 -9999 -9999 -9999 -9999 -9999 -9999 -9999 -9999 -9999 -9999 -9999 -9999 -9999 -9999 -9999 -9999 -9999 -9999 -9999 -9999 -9999 -9999
-9999 -9999 -9999 -9999 -9999 -9999 -9999 -9999 -9999 -9999 -9999 -9999 -9999 -9999 -9999 -9999 -9999 -9999 -9999 -9999 -9999 -9999 -9999 -9999 -9999 -9999 -9999 -9999 -9999 -9999 -9999 -9999 -9999 -9999 -9999 -9999 -9999 -9999 -9999 -9999 -9999 -9999 -9999 894.2 894.6218 894.1226 892.4237 890.0291 887.4351 885.0635 883.364 882.1792 881.1726 879.8766 878.5538 877.3787 876.4601 875.6973 874.9521 874.0648 873.2034 872.4528 871.8525 871.3252 870.8231 870.3069 869.8003 869.3179 868.8585 868.4432 868.0939 867.8114 867.5883 867.4365 867.3528 867.3254 867.3516 867.4376 867.5896 867.8116 868.119 868.5359 868.9557 869.306 869.4713 869.604 869.7765 870.0526 870.4974 871.169 872.223 873.3757 874.2786 875.0229 875.6226 876.3383 876.8941 877.0476 877.2235 877.6802 878.6707 880.4557 882.9055 885.8569 888.6822 890.677 891.5579 891.5809 -9999 -9999 -9999 -9999 -9999 -9999 -9999 -9999 -9999 -9999 -9999 894.5628 895.6786 896.6356 897.4253 898.0746 898.5508 898.6386 898.2963 897.8632 897.6215 897.5342 897.4193 897.0015 896.4933 896.0784 895.9827 896.0103 896.4261 -9999 -9999 -9999 -9999 -9999 -9999 -9999 -9999 -9999 -9999 -9999 -9999 -9999 -9999 -9999 -9999 -9999 -9999 -9999 -9999 -9999 -9999 -9999 -9999 -9999
-9999 -9999 -9999 -9999 -9999 -9999 -9999 -9999 -9999 -9999 -9999 -9999 -9999 -9999 -9999 -9999 -9999 -9999 -9999 -9999 -9999 -9999 -9999 -9999 -9999 -9999 -9999 -9999 -9999 -9999 -9999 -9999 -9999 -9999 -9999 -9999 -9999 -9999 -9999 -9999 -9999 -9999 -9999 895.8313 896.4634 896.1975 894.668 892.3872 889.8474 887.4113 885.3787 884.042 882.868 881.5135 880.0626 878.6839 877.4994 876.5934 875.8384 875.0649 874.1027 873.2406 872.5302 871.9078 871.3553 870.8399 870.3121 869.8081 869.3336 868.8685 868.4667 868.1334 867.8209 867.5767 867.4091 867.3049 867.2704 867.3091 867.4208 867.6024 867.8541 868.277 868.7063 869.0768 869.3248 869.4869 869.6429 869.8757 870.2446 870.8273 871.6875 872.7556 873.8481 874.7228 875.4567 876.1428 876.6833 876.9559 877.1989 877.6439 878.5494 880.1302 882.3469 884.9478 887.4453 889.2536 890.1122 890.2748 890.0252 -9999 -9999 -9999 -9999 -9999 -9999 -9999 -9999 -9999 -9999 -9999 -9999 899.7061 900.4606 901.072 901.4797 901.4279 900.7866 899.9464 899.2618 898.8322 898.5613 897.8486 896.9535 896.1277 895.8585 895.8462 -9999 -9999 -9999 -9999 -9999 -9999 -9999 -9999 -9999 -9999 -9999 -9999 -9999 -9999 -9999 -9999 -9999 -9999 -9999 -9999 -9999 -9999 -9999 -9999 -9999 -9999
-9999 -9999 -9999 -9999 -9999 -9999 -9999 -9999 -9999 -9999 -9999 -9999 -9999 -9999 -9999 -9999 -9999 -9999 -9999 -9999 -9999 -9999 -9999 -9999 -9999 -9999 -9999 -9999 -9999 -9999 -9999 -9999 -9999 -9999 -9999 -9999 -9999 -9999 -9999 -9999 -9999 -9999 -9999 -9999 898.2547 898.041 896.6456 894.5692 892.2682 890.0203 888.0357 886.463 885.1183 883.677 882.0996 880.563 879.1078 877.8799 876.9569 876.1698 875.1489 874.1771 873.4262 872.6297 871.9822 871.447 870.8895 870.3717 869.9165 869.3936 868.9434 868.5979 868.2083 867.829 867.5507 867.3444 867.2373 867.2285 867.3146 867.4983 867.7838 868.0802 868.4367 868.7914 869.0881 869.3234 869.4966 869.7208 870.0281 870.4889 871.1761 872.2455 873.4106 874.3907 875.2603 875.9303 876.5286 876.9429 877.2043 877.6001 878.3926 879.7509 881.7643 884.0873 886.3841 888.2323 889.2353 889.6354 889.5649 -9999 -9999 -9999 -9999 -9999 -9999 -9999 -9999 -9999 -9999 -9999 -9999 -9999 -9999 -9999 -9999 -9999 -9999 -9999 -9999 -9999 -9999 -9999 -9999 -9999 -9999 -9999 -9999 -9999 -9999 -9999 -9999 -9999 -9999 -9999 -9999 -9999 -9999 -9999 -9999 -9999 -9999 -9999 -9999 -9999 -9999 -9999 -9999 -9999 -9999 -9999 -9999 -9999
-9999 -9999 -9999 -9999 -9999 -9999 -9999 -9999 -9999 -9999 -9999 -9999 -9999 -9999 -9999 -9999 -9999 -9999 -9999 -9999 -9999 -9999 -9999 -9999 -9999 -9999 -9999 -9999 -9999 -9999 -9999 -9999 -9999 -9999 -9999 -9999 -9999 -9999 -9999 -9999 -9999 -9999 -9999 -9999 -9999 899.4614 898.211 896.4198 894.4814 892.5941 890.8713 889.3557 887.9148 886.4171 884.7292 883.1074 881.438 879.8453 878.4546 877.3206 876.2164 875.2089 874.3273 873.5207 872.7351 872.1853 871.5739 871.0117 870.6259 870.0685 869.5242 869.1959 868.7216 868.2158 867.7756 867.4374 867.2473 867.1802 867.2195 867.3549 867.5695 867.8151 868.1281 868.4725 868.8062 869.1037 869.3438 869.5943 869.8629 870.2414 870.8253 871.6838 872.7584 873.8931 874.8546 875.6234 876.3791 876.9319 877.1934 877.5125 878.1613 879.3433 881.3263 883.5577 885.8097 887.9685 889.2186 889.6168 889.5192 -9999 -9999 -9999 -9999 -9999 -9999 -9999 -9999 -9999 -9999 -9999 -9999 -9999 -9999 -9999 -9999 -9999 -9999 -9999 -9999 -9999 -9999 -9999 -9999 -9999 -9999 -9999 -9999 -9999 -9999 -9999 -9999 -9999 -9999 -9999 -9999 -9999 -9999 -9999 -9999 -9999 -9999 -9999 -9999 -9999 -9999 -9999 -9999 -9999 -9999 -9999 -9999 -9999
-9999 -9999 -9999 -9999 -9999 -9999 -9999 -9999 -9999 -9999 -9999 -9999 -9999 -9999 -9999 -9999 -9999 -9999 -9999 -9999 -9999 -9999 -9999 -9999 -9999 -9999 -9999 -9999 -9999 -9999 -9999 -9999 -9999 -9999 -9999 -9999 -9999 -9999 -9999 -9999 -9999 -9999 -9999 -9999 -9999 -9999 899.4144 897.9704 896.4395 895.0236 893.7029 892.4258 891.0948 889.6558 888.0424 886.3315 884.4986 882.6462 880.7571 879.054 877.6386 876.4009 875.3508 874.4373 873.6505 872.9594 872.308 871.7166 871.2579 870.7787 870.2386 869.7845 869.2693 868.647 867.9898 867.5757 867.3135 867.1746 867.1448 867.2119 867.3554 867.5533 867.8153 868.1425 868.5083 868.8969 869.2865 869.5084 869.7218 870.0227 870.4818 871.1674 872.2351 873.4223 874.476 875.4288 876.2484 876.8773 877.133 877.4111 877.9805 879.1061 881.1118 883.3444 885.7787 888.2037 889.7098 890.0129 889.7432 -9999 -9999 -9999 -9999 -9999 -9999 -9999 -9999 -9999 -9999 -9999 -9999 -9999 -9999 -9999 -9999 -9999 -9999 -9999 -9999 -9999 -9999 -9999 -9999 -9999 -9999 -9999 -9999 -9999 -9999 -9999 -9999 -9999 -9999 -9999 -9999 -9999 -9999 -9999 -9999 -9999 -9999 -9999 -9999 -9999 -9999 -9999 -9999 -9999 -9999 -9999 -9999 -9999
-9999 -9999 -9999 -9999 -9999 -9999 -9999 -9999 -9999 -9999 -9999 -9999 -9999 -9999 -9999 -9999 -9999 -9999 -9999 -9999 -9999 -9999 -9999 -9999 -9999 -9999 -9999 -9999 -9999 -9999 -9999 -9999 -9999 -9999 -9999 -9999 -9999 -9999 -9999 -9999 -9999 -9999 -9999 -9999 -9999 -9999 -9999 899.2728 898.1771 897.2808 896.3792 895.3163 894.1033 892.7921 891.415 889.9194 888.1942 886.1489 883.8887 881.6283 879.6929 878.0317 876.6681 875.5372 874.5943 873.7946 873.0448 872.3943 871.8871 871.4548 870.9171 870.3845 869.8342 869.23 868.5425 867.9218 867.5035 867.2427 867.1171 867.102 867.176 867.3209 867.5341 867.8145 868.1638 868.5672 868.9889 869.3151 869.5469 869.8309 870.2264 870.8181 871.6776 872.777 873.9927 875.1259 875.972 876.6127 876.9727 877.2871 877.8084 878.8458 880.7172 883.0786 885.755 888.4524 890.228 890.5485 890.0262 -9999 -9999 -9999 -9999 -9999 -9999 -9999 -9999 -9999 -9999 -9999 -9999 -9999 -9999 -9999 -9999 -9999 -9999 -9999 -9999 -9999 -9999 -9999 -9999 -9999 -9999 -9999 -9999 -9999 -9999 -9999 -9999 -9999 -9999 -9999 -9999 -9999 -9999 -9999 -9999 -9999 -9999 -9999 -9999 -9999 -9999 -9999 -9999 -9999 -9999 -9999 -9999 -9999
-9999 -9999 -9999 -9999 -9999 -9999 -9999 -9999 -9999 -9999 -9999 -9999 -9999 -9999 -9999 -9999 -9999 -9999 -9999 -9999 -9999 -9999 -9999 -9999 -9999 -9999 -9999 -9999 -9999 -9999 -9999 -9999 -9999 -9999 -9999 -9999 -9999 -9999 -9999 -9999 -9999 -9999 -9999 -9999 -9999 -9999 -9999 -9999 899.629 899.2425 898.6654 897.6813 896.5176 895.3715 894.3417 893.2694 891.8582 889.8683 887.4445 884.863 882.5105 880.3508 878.5025 877.039 875.8043 874.7985 873.8978 873.1281 872.5413 872.1765 871.6211 870.9841 870.3785 869.7804 869.1735 868.4821 867.8126 867.3839 867.1428 867.0414 867.0458 867.1353 867.2982 867.5273 867.819 868.1946 868.6428 869.0426 869.3521 869.6606 870.0072 870.4795 871.164 872.241 873.4709 874.6124 875.5632 876.325 876.8695 877.1772 877.6404 878.5681 880.2543 882.6584 885.481 888.3383 890.3035 890.9619 890.3224 -9999 -9999 -9999 -9999 -9999 -9999 -9999 -9999 -9999 -9999 -9999 -9999 -9999 -9999 -9999 -9999 -9999 -9999 -9999 -9999 -9999 -9999 -9999 -9999 -9999 -9999 -9999 -9999 -9999 -9999 -9999 -9999 -9999 -9999 -9999 -9999 -9999 -9999 -9999 -9999 -9999 -9999 -9999 -9999 -9999 -9999 -9999 -9999 -9999 -9999 -9999 -9999 -9999
-9999 -9999 -9999 -9999 -9999 -9999 -9999 -9999 -9999 -9999 -9999 -9999 -9999 -9999 -9999 -9999 -9999 -9999 -9999 -9999 -9999 -9999 -9999 -9999 -9999 -9999 -9999 -9999 -9999 -9999 -9999 -9999 -9999 -9999 -9999 -9999 -9999 -9999 -9999 -9999 -9999 -9999 -9999 -9999 -9999 -9999 -9999 -9999 -9999 -9999 900.358 899.3752 898.1963 897.215 896.5757 895.9849 894.962 893.2051 890.8989 888.3282 885.7375 883.2496 880.9583 879.078 877.4702 876.1418 874.9758 873.9999 873.2847 872.7915 872.2657 871.5887 870.8287 870.1899 869.6199 868.998 868.121 867.5636 867.2136 867.0298 866.9703 867.0081 867.1271 867.3151 867.5638 867.8745 868.3499 868.827 869.2744 869.5451 869.8475 870.2402 870.8215 871.679 872.7923 874.0275 875.1365 875.9366 876.5388 876.9739 877.4354 878.2424 879.6917 882.0574 884.8793 887.777 890.0284 890.9984 890.8096 890.0266 -9999 -9999 -9999 -9999 -9999 -9999 -9999 -9999 -9999 -9999 -9999 -9999 -9999 -9999 -9999 -9999 -9999 -9999 -9999 -9999 -9999 -9999 -9999 -9999 -9999 -9999 -9999 -9999 -9999 -9999 -9999 -9999 -9999 -9999 -9999 -9999 -9999 -9999 -9999 -9999 -9999 -9999 -9999 -9999 -9999 -9999 -9999 -9999 -9999 -9999 -9999 -9999
-9999 -9999 -9999 -9999 -9999 -9999 -9999 -9999 -9999 -9999 -9999 -9999 -9999 -9999 -9999 -9999 -9999 -9999 -9999 -9999 -9999 -9999 -9999 -9999 -9999 -9999 -9999 -9999 -9999 -9999 -9999 -9999 -9999 -9999 -9999 -9999 -9999 -9999 -9999 -9999 -9999 -9999 -9999 -9999 -9999 -9999 -9999 -9999 -9999 -9999 -9999 -9999 899.3135 898.4353 898.0984 897.8773 897.165 895.6663 893.6291 891.3278 888.8872 886.3366 883.8239 881.5916 879.5681 877.8278 876.3087 875.0363 874.0479 873.3539 872.7271 872.0218 871.0317 870.3824 869.8719 869.316 868.5709 867.812 867.3281 867.0624 866.9467 866.939 867.0214 867.1854 867.4326 867.7721 868.1229 868.5525 869.0015 869.3573 869.6901 870.0278 870.4856 871.1642 872.2401 873.458 874.5494 875.4313 876.1484 876.7902 877.2429 877.9504 879.2296 881.4209 884.1159 886.7983 889.2802 890.706 890.9414 890.095 -9999 -9999 -9999 -9999 -9999 -9999 -9999 -9999 -9999 -9999 -9999 -9999 -9999 -9999 -9999 -9999 -9999 -9999 -9999 -9999 -9999 -9999 -9999 -9999 -9999 -9999 -9999 -9999 -9999 -9999 -9999 -9999 -9999 -9999 -9999 -9999 -9999 -9999 -9999 -9999 -9999 -9999 -9999 -9999 -9999 -9999 -9999 -9999 -9999 -9999 -9999 -9999
-9999 -9999 -9999 -9999 -9999 -9999 -9999 -9999 -9999 -9999 -9999 -9999 -9999 -9999 -9999 -9999 -9999 -9999 -9999 -9999 -9999 -9999 -9999 -9999 -9999 -9999 -9999 -9999 -9999 -9999 -9999 -9999 -9999 -9999 -9999 -9999 -9999 -9999 -9999 -9999 -9999 -9999 -9999 -9999 -9999 -9999 -9999 -9999 -9999 -9999 -9999 -9999 -9999 -9999 899.0483 898.8645 898.3352 897.0226 895.2974 893.423 891.4154 889.2224 886.7952 884.3143 881.9584 879.7851 877.8641 876.2142 874.8892 873.8811 873.0404 872.1576 871.0671 870.4293 869.9999 869.5649 868.9734 867.9957 867.4401 867.1243 866.9651 866.9167 866.9575 867.0801 867.275 867.5325 867.8208 868.2173 868.7098 869.2319 869.5534 869.8447 870.2301 870.8151 871.6713 872.7596 873.9174 874.869 875.642 876.3793 876.978 877.6741 878.8153 880.7012 883.045 885.4883 888.0926 889.9875 890.5979 889.884 889.4147 -9999 -9999 -9999 -9999 -9999 -9999 -9999 -9999 -9999 -9999 -9999 -9999 -9999 -9999 -9999 -9999 -9999 -9999 -9999 -9999 -9999 -9999 -9999 -9999 -9999 -9999 -9999 -9999 -9999 -9999 -9999 -9999 -9999 -9999 -9999 -9999 -9999 -9999 -9999 -9999 -9999 -9999 -9999 -9999 -9999 -9999 -9999 -9999 -9999 -9999 -9999
-9999 -9999 -9999 -9999 -9999 -9999 -9999 -9999 -9999 -9999 -9999 -9999 -9999 -9999 -9999 -9999 -9999 -9999 -9999 -9999 -9999 -9999 -9999 -9999 -9999 -9999 -9999 -9999 -9999 -9999 -9999 -9999 -9999 -9999 -9999 -9999 -9999 -9999 -9999 -9999 -9999 -9999 -9999 -9999 -9999 -9999 -9999 -9999 -9999 -9999 -9999 -9999 -9999 -9999 -9999 -9999 898.4751 897.2859 895.8893 894.458 892.9374 891.3894 889.3157 886.881 884.3644 881.9146 879.5559 877.4766 875.76 874.3914 873.3062 872.209 871.0511 870.4045 870.0195 869.6674 869.1407 868.1505 867.5829 867.2272 867.0253 866.9351 866.9299 866.9984 867.1306 867.3107 867.5328 867.8385 868.292 868.8386 869.2922 869.6149 869.9752 870.4615 871.1577 872.2229 873.3907 874.3751 875.2569 876.0243 876.7454 877.3922 878.4012 879.9782 881.9946 884.0553 886.5157 888.5898 889.4867 889.1225 888.7556 -9999 -9999 -9999 -9999 -9999 -9999 -9999 -9999 -9999 -9999 -9999 -9999 -9999 -9999 -9999 -9999 -9999 -9999 -9999 -9999 -9999 -9999 -9999 -9999 -9999 -9999 -9999 -9999 -9999 -9999 -9999 -9999 -9999 -9999 -9999 -9999 -9999 -9999 -9999 -9999 -9999 -9999 -9999 -9999 -9999 -9999 -9999 -9999 -9999 -9999 -9999
-9999 -9999 -9999 -9999 -9999 -9999 -9999 -9999 -9999 -9999 -9999 -9999 -9999 -9999 -9999 -9999 -9999 -9999 -9999 -9999 -9999 -9999 -9999 -9999 -9999 -9999 -9999 -9999 -9999 -9999 -9999 -9999 -9999 -9999 -9999 -9999 -9999 -9999 -9999 -9999 -9999 -9999 -9999 -9999 -9999 -9999 -9999 -9999 -9999 -9999 -9999 -9999 -9999 -9999 -9999 -9999 -9999 897.0283 895.8441 894.686 893.3898 892.619 891.0521 888.9282 886.5338 883.9637 881.2877 878.8004 876.7105 875.0364 873.6227 872.272 871.0369 870.3478 869.964 869.6656 869.2437 868.4183 867.7825 867.3641 867.1193 866.9886 866.9391 866.9553 867.0299 867.1525 867.3228 867.563 867.9026 868.4368 868.9488 869.3638 869.7534 870.1979 870.8137 871.6687 872.7272 873.796 874.7096 875.5453 876.287 876.9579 877.8572 879.2207 881.0807 882.7862 884.7636 886.7678 887.9942 888.0798 887.9688 888.4352 889.9244 -9999 -9999 -9999 -9999 -9999 -9999 -9999 -9999 -9999 -9999 -9999 -9999 -9999 -9999 -9999 -9999 -9999 -9999 -9999 -9999 -9999 -9999 -9999 -9999 -9999 -9999 -9999 -9999 -9999 -9999 -9999 -9999 -9999 -9999 -9999 -9999 -9999 -9999 -9999 -9999 -9999 -9999 -9999 -9999 -9999 -9999 -9999 -9999 -9999
-9999 -9999 -9999 -9999 -9999 -9999 -9999 -9999 -9999 -9999 -9999 -9999 -9999 -9999 -9999 -9999 -9999 -9999 -9999 -9999 -9999 -9999 -9999 -9999 -9999 -9999 -9999 -9999 -9999 -9999 -9999 -9999 -9999 -9999 -9999 -9999 -9999 -9999 -9999 -9999 -9999 -9999 -9999 -9999 -9999 -9999 -9999 -9999 -9999 -9999 -9999 -9999 -9999 -9999 -9999 -9999 -9999 -9999 -9999 894.4596 893.7735 893.0397 891.8384 890.1533 888.1202 885.6059 882.7641 879.8688 877.3801 875.414 873.78 872.2957 871.0165 870.274 869.8529 869.5552 869.215 868.4906 867.838 867.4651 867.2239 867.0692 866.9821 866.9541 866.9829 867.0668 867.2096 867.4353 867.7733 868.1677 868.6948 869.2373 869.588 869.9804 870.4979 871.2081 872.29 873.2953 874.1992 875.1501 875.8707 876.5142 877.2675 878.41 879.8405 881.3354 883.0216 884.8203 886.1579 886.7571 887.0269 887.7296 889.4268 891.9957 -9999 -9999 -9999 -9999 -9999 -9999 -9999 -9999 -9999 -9999 -9999 -9999 -9999 -9999 -9999 -9999 -9999 -9999 -9999 -9999 -9999 -9999 -9999 -9999 -9999 -9999 -9999 -9999 -9999 -9999 -9999 -9999 -9999 -9999 -9999 -9999 -9999 -9999 -9999 -9999 -9999 -9999 -9999 -9999 -9999 -9999 -9999 -9999
-9999 -9999 -9999 -9999 -9999 -9999 -9999 -9999 -9999 -9999 -9999 -9999 -9999 -9999 -9999 -9999 -9999 -9999 -9999 -9999 -9999 -9999 -9999 -9999 -9999 -9999 -9999 -9999 -9999 -9999 -9999 -9999 -9999 -9999 -9999 -9999 -9999 -9999 -9999 -9999 -9999 -9999 -9999 -9999 -9999 -9999 -9999 -9999 -9999 -9999 -9999 -9999 -9999 -9999 -9999 -9999 -9999 -9999 -9999 -9999 893.2443 892.6717 891.6726 890.2841 888.748 886.4491 883.5646 880.4402 877.7056 875.5672 873.8265 872.291 870.9932 870.2036 869.723 869.3568 869.002 868.4327 867.8671 867.5914 867.3549 867.173 867.0521 866.9871 866.9778 867.0281 867.1407 867.3215 867.5747 867.8771 868.3887 868.9314 869.3668 869.7939 870.2979 870.9951 872.0113 872.9149 873.8124 874.6799 875.4743 876.1445 876.8318 877.6533 878.6843 879.912 881.3312 882.881 884.2041 885.1986 886.0824 887.3391 889.2808 891.921 -9999 -9999 -9999 -9999 -9999 -9999 -9999 -9999 -9999 -9999 -9999 -9999 -9999 -9999 -9999 -9999 -9999 -9999 -9999 -9999 -9999 -9999 -9999 -9999 -9999 -9999 -9999 -9999 -9999 -9999 -9999 -9999 -9999 -9999 -9999 -9999 -9999 -9999 -9999 -9999 -9999 -9999 -9999 -9999 -9999 -9999 -9999 -9999
-9999 -9999 -9999 -9999 -9999 -9999 -9999 -9999 -9999 -9999 -9999 -9999 -9999 -9999 -9999 -9999 -9999 -9999 -9999 -9999 -9999 -9999 -9999 -9999 -9999 -9999 -9999 -9999 -9999 -9999 -9999 -9999 -9999 -9999 -9999 -9999 -9999 -9999 -9999 -9999 -9999 -9999 -9999 -9999 -9999 -9999 -9999 -9999 -9999 -9999 -9999 -9999 -9999 -9999 -9999 -9999 -9999 -9999 -9999 -9999 -9999 -9999 890.6611 889.6159 888.2955 886.2579 883.5023 880.4005 877.6907 875.5573 873.8129 872.2765 870.9781 870.1709 869.6769 869.3202 868.9265 868.4576 868.0338 867.788 867.5024 867.282 867.1315 867.0397 867.0013 867.0214 867.1046 867.2543 867.4763 867.7825 868.1537 868.6775 869.226 869.6235 870.0999 870.7718 871.5933 872.4788 873.3628 874.2097 875.1331 875.7797 876.3534 876.972 877.7323 878.6692 879.8175 881.0878 882.357 883.6884 885.205 887.0461 889.3461 892.0021 894.6919 -9999 -9999 -9999 -9999 -9999 -9999 -9999 -9999 -9999 -9999 -9999 -9999 -9999 -9999 -9999 -9999 -9999 -9999 -9999 -9999 -9999 -9999 -9999 -9999 -9999 -9999 -9999 -9999 -9999 -9999 -9999 -9999 -9999 -9999 -9999 -9999 -9999 -9999 -9999 -9999 -9999 -9999 -9999 -9999 -9999 -9999 -9999
-9999 -9999 -9999 -9999 -9999 -9999 -9999 -9999 -9999 -9999 -9999 -9999 -9999 -9999 -9999 -9999 -9999 -9999 -9999 -9999 -9999 -9999 -9999 -9999 -9999 -9999 -9999 -9999 -9999 -9999 -9999 -9999 -9999 -9999 -9999 -9999 -9999 -9999 -9999 -9999 -9999 -9999 -9999 -9999 -9999 -9999 -9999 -9999 -9999 -9999 -9999 -9999 -9999 -9999 -9999 -9999 -9999 -9999 -9999 -9999 -9999 -9999 889.2401 888.2484 887.0916 885.3229 882.7999 879.9565 877.4692 875.4661 873.7792 872.2625 870.9694 870.1592 869.6676 869.3189 868.913 868.4827 868.0978 867.8114 867.5637 867.3589 867.2035 867.0984 867.0408 867.0352 867.089 867.2041 867.3767 867.6024 867.8698 868.3483 868.8616 869.3122 869.7768 870.3967 871.1371 872.0908 872.9513 873.8145 874.6439 875.355 875.9017 876.4291 877.0054 877.7224 878.6055 879.6416 880.8415 882.442 884.4307 886.7718 889.3666 892.011 894.494 -9999 -9999 -9999 -9999 -9999 -9999 -9999 -9999 -9999 -9999 -9999 -9999 -9999 -9999 -9999 -9999 -9999 -9999 -9999 -9999 -9999 -9999 -9999 -9999 -9999 -9999 -9999 -9999 -9999 -9999 -9999 -9999 -9999 -9999 -9999 -9999 -9999 -9999 -9999 -9999 -9999 -9999 -9999 -9999 -9999 -9999 -9999
-9999 -9999 -9999 -9999 -9999 -9999 -9999 -9999 -9999 -9999 -9999 -9999 -9999 -9999 -9999 -9999 -9999 -9999 -9999 -9999 -9999 -9999 -9999 -9999 -9999 -9999 -9999 -9999 -9999 -9999 -9999 -9999 -9999 -9999 -9999 -9999 -9999 -9999 -9999 -9999 -9999 -9999 -9999 -9999 -9999 -9999 -9999 -9999 -9999 -9999 -9999 -9999 -9999 -9999 -9999 -9999 -9999 -9999 -9999 -9999 -9999 -9999 887.9771 886.8278 885.7248 884.222 881.9976 879.452 877.2197 875.3767 873.7606 872.2599 870.966 870.1554 869.6655 869.3192 868.9115 868.4943 868.1138 867.8102 867.6045 867.426 867.2738 867.1605 867.0895 867.0635 867.0906 867.1761 867.3184 867.5189 867.7879 868.0925 868.5173 868.9642 869.4263 870.0417 870.7689 871.5865 872.4554 873.3171 874.113 874.8843 875.5022 876.0399 876.5446 877.0955 877.7819 878.5809 879.6498 881.2 883.4187 886.1124 888.9922 891.7098 894.075 896.1894 -9999 -9999 -9999 -9999 -9999 -9999 -9999 -9999 -9999 -9999 -9999 -9999 -9999 -9999 -9999 -9999 -9999 -9999 -9999 -9999 -9999 -9999 -9999 -9999 -9999 -9999 -9999 -9999 -9999 -9999 -9999 -9999 -9999 -9999 -9999 -9999 -9999 -9999 -9999 -9999 -9999 -9999 -9999 -9999 -9999 -9999
-9999 -9999 -9999 -9999 -9999 -9999 -9999 -9999 -9999 -9999 -9999 -9999 -9999 -9999 -9999 -9999 -9999 -9999 -9999 -9999 -9999 -9999 -9999 -9999 -9999 -9999 -9999 -9999 -9999 -9999 -9999 -9999 -9999 -9999 -9999 -9999 -9999 -9999 -9999 -9999 -9999 -9999 -9999 -9999 -9999 -9999 -9999 -9999 -9999 -9999 -9999 -9999 -9999 -9999 -9999 -9999 -9999 -9999 -9999 -9999 -9999 -9999 887.2859 885.8621 884.7313 883.3442 881.34 879.0566 877.0479 875.3532 873.8058 872.3038 870.9888 870.171 869.6707 869.3179 868.9148 868.5099 868.1343 867.8215 867.6725 867.5076 867.3514 867.2264 867.1432 867.1017 867.1067 867.1642 867.2745 867.4312 867.6268 867.8439 868.2384 868.7119 869.2404 869.7275 870.3342 871.0447 871.9606 872.8384 873.7112 874.4965 875.2323 875.7671 876.2678 876.8165 877.2941 877.8569 878.6863 880.0526 882.1229 884.9472 888.0372 890.9395 893.3533 895.369 897.4003 -9999 -9999 -9999 -9999 -9999 -9999 -9999 -9999 -9999 -9999 -9999 -9999 -9999 -9999 -9999 -9999 -9999 -9999 -9999 -9999 -9999 -9999 -9999 -9999 -9999 -9999 -9999 -9999 -9999 -9999 -9999 -9999 -9999 -9999 -9999 -9999 -9999 -9999 -9999 -9999 -9999 -9999 -9999 -9999 -9999
