ncols         343
nrows         36
xllcorner     554050
yllcorner     5870250
cellsize      50
NODATA_value  -9999
-9999 -9999 -9999 -9999 -9999 -9999 -9999 -9999 -9999 -9999 -9999 -9999 -9999 -9999 -9999 -9999 -9999 -9999 -9999 -9999 -9999 -9999 -9999 -9999 -9999 -9999 -9999 -9999 -9999 -9999 -9999 -9999 -9999 -9999 -9999 -9999 -9999 -9999 -9999 -9999 -9999 -9999 -9999 -9999 -9999 -9999 -9999 -9999 -9999 -9999 -9999 -9999 -9999 -9999 -9999 -9999 -9999 -9999 -9999 -9999 -9999 -9999 -9999 -9999 -9999 -9999 -9999 -9999 -9999 -9999 -9999 -9999 -9999 -9999 -9999 -9999 -9999 -9999 -9999 -9999 -9999 -9999 -9999 -9999 -9999 -9999 -9999 -9999 -9999 -9999 -9999 -9999 -9999 -9999 -9999 858.9664 857.3962 855.6323 853.9374 852.3572 850.7092 848.9225 847.3867 846.2427 845.6251 845.2742 845.0582 844.8599 844.5667 844.1353 843.5609 843.049 842.6335 842.2927 842.0271 841.8392 841.7164 841.6047 841.4971 841.3105 841.1304 840.9659 840.8191 840.6907 840.5818 840.4924 840.4226 840.3715 840.3372 840.3173 840.3076 840.3043 840.3014 840.2976 840.2876 840.2731 840.2543 840.2297 840.2013 840.1713 840.14 840.1074 840.074 840.0409 840.009 839.98 839.9562 839.9438 839.9212 839.8925 839.8623 839.8326 839.7997 839.7631 839.7252 839.6838 839.6349 839.5831 839.5367 839.4923 839.437 839.3683 839.3027 839.2593 839.2339 839.1965 839.1155 838.9879 838.8513 838.7671 838.7913 838.9481 839.2193 839.548 839.8406 839.9827 840.0783 839.9795 839.7256 839.4125 839.0975 838.8185 838.6014 838.4606 838.4131 838.3853 838.3639 838.3431 838.3191 838.292 838.2623 838.2279 838.1914 838.1571 838.1249 838.0903 838.0526 838.0155 837.9824 837.9528 837.9215 837.8835 837.8375 837.7863 837.7317 837.6786 837.6315 837.5924 837.5593 837.5309 837.5078 837.4918 837.484 837.4839 837.4901 837.5007 837.513 837.5233 837.5276 837.524 837.5157 837.5093 837.5103 837.5222 837.5466 837.583 837.6288 837.6814 837.7394 837.804 837.8762 837.955 838.0381 838.1219 838.2037 838.2806 838.3506 838.4113 838.46 838.4812 838.5049 838.5244 838.5365 838.5397 838.5377 838.5375 838.5402 838.548 838.5691 838.6034 838.6426 838.682 838.7257 838.7751 838.8212 838.8516 838.8632 838.8679 838.8833 838.9162 838.9611 839.0139 839.0756 839.1536 839.2633 839.422 839.6448 839.9558 840.3428 840.9406 841.4893 841.8088 842.045 842.2391 842.4059 842.5526 842.6804 842.7907 842.8864 842.9675 843.0307 843.172 843.3486 843.5593 843.8193 844.1434 844.5486 845.0474 845.5765 846.0772 846.5175 846.846 847.0862 847.36 847.8152 848.7427 849.3937 849.5906 849.7509 850.3179 -9999 -9999 -9999 -9999 -9999 -9999 -9999 -9999 -9999 -9999 -9999 -9999 -9999 -9999 -9999 -9999 -9999 -9999 -9999 -9999 -9999 -9999 -9999 -9999 -9999 -9999 -9999 -9999 -9999 -9999 -9999 -9999 -9999 -9999 -9999 -9999 -9999 -9999 -9999 -9999 -9999 -9999 -9999
-9999 -9999 -9999 -9999 -9999 -9999 -9999 -9999 -9999 -9999 -9999 -9999 -9999 -9999 -9999 -9999 -9999 -9999 -9999 -9999 -9999 -9999 -9999 -9999 -9999 -9999 -9999 -9999 -9999 -9999 -9999 -9999 -9999 -9999 -9999 -9999 -9999 -9999 -9999 -9999 -9999 -9999 -9999 -9999 -9999 -9999 -9999 -9999 -9999 -9999 -9999 -9999 -9999 -9999 -9999 -9999 -9999 -9999 -9999 -9999 -9999 -9999 -9999 -9999 -9999 -9999 -9999 -9999 -9999 -9999 -9999 -9999 -9999 -9999 -9999 -9999 -9999 -9999 -9999 -9999 -9999 -9999 -9999 -9999 -9999 -9999 -9999 -9999 -9999 -9999 -9999 -9999 -9999 -9999 -9999 -9999 857.3264 855.7978 854.3369 853.1542 851.797 850.2897 848.3549 846.9314 846.0225 845.4919 845.1902 844.9855 844.7841 844.5234 844.0659 843.5487 843.0471 842.6282 842.2944 842.0475 841.8661 841.6917 841.5037 841.3606 841.2052 841.0494 840.9033 840.771 840.6548 840.5569 840.4788 840.4208 840.3817 840.3589 840.3486 840.3459 840.3464 840.344 840.3385 840.325 840.3056 840.2804 840.2498 840.2156 840.1807 840.1455 840.1102 840.0748 840.0398 840.0068 839.98 839.98 839.9561 839.9281 839.9001 839.8747 839.8464 839.813 839.7776 839.7396 839.6947 839.6448 839.599 839.5569 839.5052 839.4374 839.3676 839.3175 839.2891 839.2552 839.1808 839.0552 838.9081 838.7977 838.7816 838.8879 839.1031 839.3781 839.6436 839.8408 839.9747 839.8638 839.6389 839.3676 839.0942 838.8488 838.6526 838.5204 838.46 838.4219 838.394 838.3692 838.3424 838.3124 838.2809 838.2462 838.2078 838.1698 838.1354 838.1022 838.0663 838.028 837.9908 837.9573 837.9261 837.8936 837.8561 837.8125 837.7639 837.7122 837.6616 837.6163 837.5774 837.5445 837.517 837.4955 837.4813 837.4746 837.475 837.4817 837.4937 837.5094 837.5251 837.5377 837.5464 837.5537 837.5644 837.582 837.6084 837.645 837.6908 837.7434 837.8008 837.8633 837.9323 838.0073 838.0862 838.1654 838.2415 838.3115 838.3727 838.4229 838.46 838.4909 838.5198 838.5422 838.556 838.561 838.5581 838.554 838.5533 838.5568 838.5696 838.597 838.6334 838.6716 838.7125 838.759 838.8065 838.8438 838.8632 838.8697 838.8787 838.9025 838.9395 838.9854 839.0406 839.1091 839.201 839.3303 839.5062 839.7383 840.0514 840.7487 841.4312 841.72 841.9619 842.1699 842.3481 842.5032 842.6378 842.7525 842.8505 842.9386 843.0299 843.1595 843.3262 843.5344 843.7969 844.1318 844.5515 845.0585 845.5859 846.076 846.4668 846.7761 847.007 847.3142 847.885 849.0191 849.8452 850.0007 850.0863 -9999 -9999 -9999 -9999 -9999 -9999 -9999 -9999 -9999 -9999 -9999 -9999 -9999 -9999 -9999 -9999 -9999 -9999 -9999 -9999 -9999 -9999 -9999 -9999 -9999 -9999 -9999 -9999 -9999 -9999 -9999 -9999 -9999 -9999 -9999 -9999 -9999 -9999 -9999 -9999 -9999 -9999 -9999 -9999
-9999 -9999 -9999 -9999 -9999 -9999 -9999 -9999 -9999 -9999 -9999 -9999 -9999 -9999 -9999 -9999 -9999 -9999 -9999 -9999 -9999 -9999 -9999 -9999 -9999 -9999 -9999 -9999 -9999 -9999 -9999 -9999 -9999 -9999 -9999 -9999 -9999 -9999 -9999 -9999 -9999 -9999 -9999 -9999 -9999 -9999 -9999 -9999 -9999 -9999 -9999 -9999 -9999 -9999 -9999 -9999 -9999 -9999 -9999 -9999 -9999 -9999 -9999 -9999 -9999 -9999 -9999 -9999 -9999 -9999 -9999 -9999 -9999 -9999 -9999 -9999 -9999 -9999 -9999 -9999 -9999 -9999 -9999 -9999 -9999 -9999 -9999 -9999 -9999 -9999 -9999 -9999 -9999 -9999 -9999 -9999 -9999 855.4589 854.379 853.4811 852.2151 850.8909 849.0283 847.4513 846.2973 845.7141 845.3677 845.145 844.9829 844.809 844.5236 844.0726 843.5524 843.045 842.6324 842.3246 842.1091 841.895 841.6791 841.4996 841.3271 841.163 841.0107 840.8712 840.7444 840.634 840.5444 840.4775 840.4321 840.4053 840.3928 840.3901 840.3914 840.3925 840.3882 840.3788 840.3602 840.3342 840.3022 840.2659 840.2273 840.1887 840.1509 840.114 840.0779 840.0443 840.0176 840.0035 839.98 839.9554 839.9314 839.9125 839.8895 839.8602 839.8272 839.7928 839.7527 839.7056 839.6603 839.6201 839.5729 839.508 839.4346 839.3762 839.3423 839.3116 839.2478 839.1305 838.9783 838.8417 838.7772 838.8184 838.9604 839.1664 839.3838 839.5632 839.666 839.6086 839.4509 839.2468 839.0352 838.8408 838.6812 838.5678 838.502 838.46 838.4271 838.3979 838.3682 838.3354 838.3008 838.2651 838.2263 838.1854 838.1471 838.1124 838.0782 838.0419 838.0032 837.966 837.9315 837.8988 837.8653 837.8289 837.788 837.7429 837.6958 837.6505 837.609 837.5729 837.5425 837.5179 837.4999 837.4888 837.4844 837.4862 837.4944 837.5092 837.5289 837.5505 837.5718 837.5927 837.6144 837.6396 837.6703 837.7078 837.7529 837.8047 837.8615 837.9222 837.9882 838.0592 838.1339 838.2086 838.2792 838.3427 838.3961 838.4363 838.46 838.4985 838.5337 838.5607 838.577 838.5834 838.5809 838.5736 838.5685 838.5678 838.5739 838.5933 838.625 838.6613 838.6998 838.7432 838.79 838.8323 838.8599 838.8719 838.879 838.895 838.9241 838.9626 839.0107 839.0718 839.1533 839.2676 839.428 839.6522 839.9885 840.5787 841.1693 841.5195 841.8454 842.0906 842.2852 842.4495 842.5919 842.7142 842.821 842.9218 843.03 843.1613 843.3259 843.5314 843.7935 844.1295 844.5535 845.0732 845.6041 846.0743 846.3966 846.7041 847.0373 847.5532 848.4771 849.7031 850.4232 850.631 850.7321 -9999 -9999 -9999 -9999 -9999 -9999 -9999 -9999 -9999 -9999 -9999 -9999 -9999 -9999 -9999 -9999 -9999 -9999 -9999 -9999 -9999 -9999 -9999 -9999 -9999 -9999 -9999 -9999 -9999 -9999 -9999 -9999 -9999 -9999 -9999 -9999 -9999 -9999 -9999 -9999 -9999 -9999 -9999 -9999
-9999 -9999 -9999 -9999 -9999 -9999 -9999 -9999 -9999 -9999 -9999 -9999 -9999 -9999 -9999 -9999 -9999 -9999 -9999 -9999 -9999 -9999 -9999 -9999 -9999 -9999 -9999 -9999 -9999 -9999 -9999 -9999 -9999 -9999 -9999 -9999 -9999 -9999 -9999 -9999 -9999 -9999 -9999 -9999 -9999 -9999 -9999 -9999 -9999 -9999 -9999 -9999 -9999 -9999 -9999 -9999 -9999 -9999 -9999 -9999 -9999 -9999 -9999 -9999 -9999 -9999 -9999 -9999 -9999 -9999 -9999 -9999 -9999 -9999 -9999 -9999 -9999 -9999 -9999 -9999 -9999 -9999 -9999 -9999 -9999 -9999 -9999 -9999 -9999 -9999 -9999 -9999 -9999 -9999 -9999 -9999 -9999 -9999 853.95 852.834 851.6758 850.5433 849.1573 847.7754 846.7712 846.0986 845.6587 845.364 845.1733 845.0209 844.8235 844.5237 844.0665 843.5477 843.0662 842.6924 842.473 842.209 841.9415 841.707 841.4999 841.3141 841.1478 840.9965 840.8531 840.7248 840.6198 840.5415 840.4884 840.4565 840.441 840.4366 840.438 840.4399 840.439 840.4309 840.4157 840.3905 840.3577 840.3197 840.2792 840.2379 840.1974 840.1586 840.1215 840.0869 840.057 840.0326 840.006 839.98 839.9573 839.947 839.9282 839.9042 839.874 839.8432 839.8088 839.766 839.7216 839.6827 839.6403 839.58 839.5048 839.437 839.3939 839.364 839.3124 839.2103 839.0623 838.9075 838.798 838.7712 838.8337 838.9611 839.1133 839.2479 839.3254 839.3073 839.2152 839.0829 838.9388 838.8019 838.6846 838.5955 838.5356 838.4938 838.46 838.4279 838.3956 838.3608 838.323 838.2848 838.2458 838.2039 838.162 838.1235 838.0885 838.054 838.0173 837.9788 837.9413 837.9058 837.8715 837.8373 837.8018 837.7635 837.7225 837.6812 837.6422 837.6069 837.5763 837.5509 837.5316 837.519 837.5127 837.512 837.5168 837.5283 837.5468 837.5706 837.5978 837.6274 837.6589 837.6923 837.7282 837.7679 837.8127 837.8633 837.919 837.9785 838.042 838.1094 838.1797 838.2496 838.3153 838.3733 838.4215 838.46 838.4822 838.5159 838.551 838.58 838.5987 838.6063 838.6044 838.5955 838.5861 838.5807 838.5812 838.5924 838.6179 838.6517 838.6881 838.7281 838.7729 838.8176 838.8527 838.8726 838.8821 838.8937 838.9154 838.9471 838.9886 839.0446 839.1224 839.2351 839.4003 839.6399 839.9842 840.4667 841.0276 841.4968 841.7979 842.0283 842.2225 842.3926 842.5428 842.6752 842.7938 842.9082 843.03 843.1687 843.3356 843.5415 843.801 844.1323 844.5544 845.0844 845.6206 846.0724 846.344 846.6144 847.0358 847.7158 848.8149 850.3329 851.0784 851.258 851.2757 -9999 -9999 -9999 -9999 -9999 -9999 -9999 -9999 -9999 -9999 -9999 -9999 -9999 -9999 -9999 -9999 -9999 -9999 -9999 -9999 -9999 -9999 -9999 -9999 -9999 -9999 -9999 -9999 -9999 -9999 -9999 -9999 -9999 -9999 -9999 -9999 -9999 -9999 -9999 -9999 -9999 -9999 -9999 -9999
-9999 -9999 -9999 -9999 -9999 -9999 -9999 -9999 -9999 -9999 -9999 -9999 -9999 -9999 -9999 -9999 -9999 -9999 -9999 -9999 -9999 -9999 -9999 -9999 -9999 -9999 -9999 -9999 -9999 -9999 -9999 -9999 -9999 -9999 -9999 -9999 -9999 -9999 -9999 -9999 -9999 -9999 -9999 -9999 -9999 -9999 -9999 -9999 -9999 -9999 -9999 -9999 -9999 -9999 -9999 -9999 -9999 -9999 -9999 -9999 -9999 -9999 -9999 -9999 -9999 -9999 -9999 -9999 -9999 -9999 -9999 -9999 -9999 -9999 -9999 -9999 -9999 -9999 -9999 -9999 -9999 -9999 -9999 -9999 -9999 -9999 -9999 -9999 -9999 -9999 -9999 -9999 -9999 -9999 -9999 -9999 -9999 -9999 -9999 851.9863 850.7034 850.0549 849.2835 848.2689 847.4041 846.6511 846.0782 845.6669 845.3889 845.2025 845.0334 844.8175 844.52 844.0901 843.6798 843.1848 842.9766 842.6139 842.2659 841.9677 841.7155 841.5 841.3136 841.1478 840.9794 840.8265 840.7028 840.6117 840.5502 840.5128 840.4934 840.4863 840.4861 840.4879 840.4875 840.4825 840.4688 840.4464 840.4147 840.3763 840.3346 840.2919 840.2498 840.2089 840.1699 840.133 840.0989 840.0676 840.0361 840.0055 839.98 839.98 839.96 839.9443 839.9167 839.889 839.8615 839.8253 839.7828 839.7448 839.7067 839.6525 839.5781 839.5016 839.4458 839.4113 839.3699 839.2877 839.1549 838.9958 838.8547 838.7701 838.7574 838.8064 838.889 838.9727 839.0267 839.0294 838.9866 838.915 838.8317 838.7483 838.6724 838.6099 838.5626 838.5255 838.4929 838.46 838.4254 838.3888 838.3486 838.3069 838.2659 838.2242 838.1807 838.1384 838.0997 838.0645 838.0295 837.9929 837.9547 837.917 837.8805 837.845 837.8102 837.7752 837.7393 837.7025 837.6671 837.6349 837.6068 837.5834 837.5655 837.5536 837.5479 837.5475 837.552 837.5619 837.578 837.6006 837.629 837.6621 837.6995 837.7393 837.7802 837.8228 837.8683 837.918 837.9724 838.0309 838.0927 838.1571 838.2231 838.2882 838.3484 838.3995 838.4379 838.46 838.4937 838.531 838.5679 838.5986 838.6195 838.629 838.6281 838.6185 838.606 838.5962 838.5912 838.5952 838.613 838.6431 838.6779 838.715 838.7567 838.8011 838.8414 838.8698 838.8849 838.8958 838.9123 838.9377 838.9731 839.0244 839.0997 839.2119 839.3793 839.6237 839.9617 840.3143 840.8802 841.454 841.7172 841.9421 842.1455 842.3275 842.4893 842.6337 842.766 842.8948 843.03 843.1794 843.3514 843.5588 843.8157 844.1403 844.5543 845.0867 845.6268 846.0735 846.3054 846.5784 847.0808 848.0155 849.7062 851.2883 851.7627 851.7366 851.5934 -9999 -9999 -9999 -9999 -9999 -9999 -9999 -9999 -9999 -9999 -9999 -9999 -9999 -9999 -9999 -9999 -9999 -9999 -9999 -9999 -9999 -9999 -9999 -9999 -9999 -9999 -9999 -9999 -9999 -9999 -9999 -9999 -9999 -9999 -9999 -9999 -9999 -9999 -9999 -9999 -9999 -9999 -9999 -9999
-9999 -9999 -9999 -9999 -9999 -9999 -9999 -9999 -9999 -9999 -9999 -9999 -9999 -9999 -9999 -9999 -9999 -9999 -9999 -9999 -9999 -9999 -9999 -9999 -9999 -9999 -9999 -9999 -9999 -9999 -9999 -9999 -9999 -9999 -9999 -9999 -9999 -9999 -9999 -9999 -9999 -9999 -9999 -9999 -9999 -9999 -9999 -9999 -9999 -9999 -9999 -9999 -9999 -9999 -9999 -9999 -9999 -9999 -9999 -9999 -9999 -9999 -9999 -9999 -9999 -9999 -9999 -9999 -9999 -9999 -9999 -9999 -9999 -9999 -9999 -9999 -9999 -9999 -9999 -9999 -9999 -9999 -9999 -9999 -9999 -9999 -9999 -9999 -9999 -9999 -9999 -9999 -9999 -9999 -9999 -9999 -9999 -9999 -9999 851.5781 850.4183 849.9969 849.7606 849.2767 848.1799 847.2714 846.5879 846.0763 845.6758 845.4105 845.232 845.0421 844.8284 844.5755 844.4169 843.9436 843.5281 843.0524 842.6298 842.271 841.97 841.716 841.5009 841.3201 841.1136 840.9318 840.7898 840.687 840.6174 840.5743 840.5505 840.5397 840.5365 840.5364 840.5355 840.5309 840.5198 840.4995 840.4703 840.4337 840.3923 840.349 840.306 840.264 840.223 840.1833 840.1454 840.1096 840.0748 840.0424 840.0157 840.0007 839.98 839.98 839.9536 839.9276 839.908 839.8816 839.843 839.8058 839.7709 839.7238 839.6536 839.5712 839.5009 839.4547 839.417 839.3545 839.2454 839.0979 838.9446 838.8213 838.7496 838.7304 838.7491 838.7836 838.8119 838.8197 838.8061 838.7771 838.7401 838.6995 838.6586 838.6209 838.5883 838.559 838.5293 838.4967 838.46 838.421 838.3789 838.3339 838.2891 838.2458 838.2023 838.1579 838.1154 838.0765 838.0405 838.005 837.9685 837.9308 837.8927 837.8555 837.8195 837.7845 837.7502 837.7163 837.6834 837.6535 837.6278 837.6071 837.5917 837.5822 837.5786 837.5806 837.5874 837.5986 837.6148 837.6367 837.6647 837.6986 837.7378 837.7811 837.8259 837.8713 837.918 837.9676 838.0212 838.0789 838.1395 838.2017 838.264 838.324 838.3786 838.4245 838.46 838.479 838.5092 838.5458 838.5831 838.6156 838.6387 838.6505 838.651 838.6421 838.6271 838.6137 838.6042 838.6016 838.6116 838.6362 838.6689 838.7045 838.7429 838.7853 838.8275 838.8622 838.8845 838.8977 838.9114 838.9316 838.9614 839.007 839.0768 839.181 839.3303 839.5294 839.7675 840.0294 840.608 841.1721 841.5181 841.808 842.0472 842.2534 842.4325 842.5909 842.7373 842.881 843.03 843.1922 843.3716 843.5812 843.8356 844.1525 844.5543 845.0771 845.6221 846.0741 846.3153 846.5858 847.1509 848.279 850.3331 851.6873 851.9979 851.8372 851.6046 -9999 -9999 -9999 -9999 -9999 -9999 -9999 -9999 -9999 -9999 -9999 -9999 -9999 -9999 -9999 -9999 -9999 -9999 -9999 -9999 -9999 -9999 -9999 -9999 -9999 -9999 -9999 -9999 -9999 -9999 -9999 -9999 -9999 -9999 -9999 -9999 -9999 -9999 -9999 -9999 -9999 -9999 -9999 -9999
-9999 -9999 -9999 -9999 -9999 -9999 -9999 -9999 -9999 -9999 -9999 -9999 -9999 -9999 -9999 -9999 -9999 -9999 -9999 -9999 -9999 -9999 -9999 -9999 -9999 -9999 -9999 -9999 -9999 -9999 -9999 -9999 -9999 -9999 -9999 -9999 -9999 -9999 -9999 -9999 -9999 -9999 -9999 -9999 -9999 -9999 -9999 -9999 -9999 -9999 -9999 -9999 -9999 -9999 -9999 -9999 -9999 -9999 -9999 -9999 -9999 -9999 -9999 -9999 -9999 -9999 -9999 -9999 -9999 -9999 -9999 -9999 -9999 -9999 -9999 -9999 -9999 -9999 -9999 -9999 -9999 -9999 -9999 -9999 -9999 -9999 -9999 -9999 -9999 -9999 -9999 -9999 -9999 -9999 -9999 -9999 -9999 -9999 -9999 851.5981 850.3442 849.9659 849.9526 849.3574 848.3734 847.7762 847.1884 846.6696 846.1207 845.7283 845.5229 845.3112 845.134 844.9705 844.8301 844.5193 844.0747 843.5599 843.0515 842.6261 842.2673 841.9611 841.7007 841.4896 841.2325 841.0305 840.879 840.7687 840.6921 840.6426 840.6131 840.5973 840.5898 840.5861 840.5826 840.577 840.5665 840.5491 840.5227 840.489 840.4497 840.4076 840.3647 840.3221 840.2798 840.2382 840.1974 840.1583 840.1212 840.087 840.0577 840.0347 840.0139 840.0024 839.98 839.9564 839.947 839.9339 839.9003 839.866 839.8323 839.7913 839.7285 839.645 839.5619 839.4991 839.4551 839.405 839.3214 839.1975 839.0515 838.9126 838.8045 838.7367 838.7048 838.6966 838.6981 838.6995 838.6971 838.6916 838.6833 838.6716 838.6559 838.6379 838.619 838.5981 838.5725 838.541 838.5033 838.46 838.415 838.3674 838.3185 838.2711 838.2261 838.1815 838.1367 838.094 838.0541 838.0168 837.9804 837.9437 837.9063 837.8683 837.8312 837.7952 837.7607 837.7276 837.6958 837.6666 837.6417 837.6221 837.6085 837.6008 837.5992 837.6038 837.6137 837.6283 837.6473 837.671 837.7 837.7346 837.7746 837.8191 837.8662 837.9137 837.9616 838.0117 838.0651 838.1222 838.1819 838.2424 838.3013 838.3563 838.4041 838.4402 838.46 838.4875 838.5204 838.5576 838.5957 838.6299 838.6556 838.6701 838.673 838.6657 838.6501 838.6332 838.6204 838.6122 838.6144 838.632 838.6616 838.6957 838.7323 838.7718 838.8135 838.8516 838.8797 838.897 838.9098 838.9258 838.9503 838.9895 839.0526 839.1482 839.284 839.4649 839.6925 839.9843 840.4454 840.988 841.4663 841.7042 841.9502 842.1783 842.3761 842.549 842.709 842.8667 843.0301 843.2059 843.3933 843.6042 843.8571 844.1675 844.5552 845.0568 845.6019 846.0754 846.3362 846.6 847.1368 848.218 850.1646 851.5876 851.6123 851.5236 851.3428 -9999 -9999 -9999 -9999 -9999 -9999 -9999 -9999 -9999 -9999 -9999 -9999 -9999 -9999 -9999 -9999 -9999 -9999 -9999 -9999 -9999 -9999 -9999 -9999 -9999 -9999 -9999 -9999 -9999 -9999 -9999 -9999 -9999 -9999 -9999 -9999 -9999 -9999 -9999 -9999 -9999 -9999 -9999 -9999
-9999 -9999 -9999 -9999 -9999 -9999 -9999 -9999 -9999 -9999 -9999 -9999 -9999 -9999 -9999 -9999 -9999 -9999 -9999 -9999 -9999 -9999 -9999 -9999 -9999 -9999 -9999 -9999 -9999 -9999 -9999 -9999 -9999 -9999 -9999 -9999 -9999 -9999 -9999 -9999 -9999 -9999 -9999 -9999 -9999 -9999 -9999 -9999 -9999 -9999 -9999 -9999 -9999 -9999 -9999 -9999 -9999 -9999 -9999 -9999 -9999 -9999 -9999 -9999 -9999 -9999 -9999 -9999 -9999 -9999 -9999 -9999 -9999 -9999 -9999 -9999 -9999 -9999 -9999 -9999 -9999 -9999 -9999 -9999 -9999 -9999 -9999 -9999 -9999 -9999 -9999 -9999 -9999 -9999 -9999 -9999 -9999 -9999 -9999 -9999 850.465 849.9144 849.7941 849.4918 849.0132 848.6168 848.1092 847.6507 846.9237 846.2839 846.0268 845.7063 845.5005 845.3026 845.1312 844.8885 844.5374 844.0703 843.5532 843.0509 842.6199 842.2375 841.8737 841.5184 841.3043 841.126 840.9791 840.8641 840.7791 840.7203 840.6823 840.6592 840.6456 840.6369 840.6295 840.6211 840.6101 840.594 840.5709 840.5408 840.505 840.4655 840.4242 840.3822 840.3396 840.2968 840.2542 840.2129 840.1738 840.1373 840.1047 840.0762 840.0509 840.0295 840.0044 839.98 839.98 839.98 839.9493 839.9249 839.8903 839.8522 839.7985 839.7207 839.6304 839.5497 839.4901 839.4401 839.3749 839.2781 839.1531 839.0194 838.8984 838.8044 838.7402 838.7009 838.6786 838.6672 838.6635 838.6654 838.6699 838.6733 838.6725 838.6675 838.6592 838.6459 838.6249 838.5951 838.5571 838.5112 838.46 838.4084 838.3558 838.3035 838.2542 838.2083 838.1632 838.1179 838.074 838.0322 837.9929 837.9552 837.918 837.8806 837.8435 837.8071 837.772 837.7391 837.708 837.6791 837.6539 837.6341 837.6206 837.6134 837.6125 837.618 837.6299 837.6477 837.6704 837.6977 837.7296 837.7664 837.8079 837.8535 837.9017 837.9508 838.0001 838.0507 838.1042 838.161 838.2198 838.2787 838.3346 838.3851 838.4277 838.46 838.4753 838.499 838.5304 838.5671 838.6057 838.6415 838.6701 838.6881 838.6942 838.689 838.6744 838.6552 838.6384 838.6268 838.6221 838.6317 838.6563 838.6887 838.7241 838.7617 838.8015 838.8405 838.8721 838.8929 838.9059 838.9188 838.938 838.9708 839.0267 839.1147 839.2425 839.4191 839.6552 839.9639 840.2668 840.7469 841.2155 841.5161 841.8381 842.1039 842.3223 842.5096 842.6821 842.8531 843.0302 843.2208 843.4138 843.622 843.8691 844.1771 844.5555 845.0091 845.5598 846.0739 846.3735 846.6341 847.1141 848.0858 849.8435 850.9725 851.1861 851.1456 850.9869 -9999 -9999 -9999 -9999 -9999 -9999 -9999 -9999 -9999 -9999 -9999 -9999 -9999 -9999 -9999 -9999 -9999 -9999 -9999 -9999 -9999 -9999 -9999 -9999 -9999 -9999 -9999 -9999 -9999 -9999 -9999 -9999 -9999 -9999 -9999 -9999 -9999 -9999 -9999 -9999 -9999 -9999 -9999 -9999
-9999 -9999 -9999 -9999 -9999 -9999 -9999 -9999 -9999 -9999 -9999 -9999 -9999 -9999 -9999 -9999 -9999 -9999 -9999 -9999 -9999 -9999 -9999 -9999 -9999 -9999 -9999 -9999 -9999 -9999 -9999 -9999 -9999 -9999 -9999 -9999 -9999 -9999 -9999 -9999 -9999 -9999 -9999 -9999 -9999 -9999 -9999 -9999 -9999 -9999 -9999 -9999 -9999 -9999 -9999 -9999 -9999 -9999 -9999 -9999 -9999 -9999 -9999 -9999 -9999 -9999 -9999 -9999 -9999 -9999 -9999 -9999 -9999 -9999 -9999 -9999 -9999 -9999 -9999 -9999 -9999 -9999 -9999 -9999 -9999 -9999 -9999 -9999 -9999 -9999 -9999 -9999 -9999 -9999 -9999 -9999 -9999 -9999 -9999 -9999 851.3463 850.4792 850.2181 850.0932 849.9697 849.8432 849.5809 849.1017 848.1196 847.3101 846.8161 846.3007 846.0206 845.6685 845.4081 845.1766 844.8984 844.536 844.0725 843.5635 843.0509 842.6074 842.1925 841.7941 841.5013 841.2854 841.1173 840.9852 840.8843 840.8107 840.7596 840.7259 840.7039 840.6888 840.6761 840.6638 840.6508 840.635 840.6144 840.588 840.5565 840.5208 840.4822 840.4423 840.4008 840.358 840.3147 840.2722 840.2313 840.1927 840.1567 840.124 840.0939 840.0668 840.0413 840.0202 840.0117 840.0026 839.98 839.9799 839.9422 839.9036 839.859 839.7931 839.7047 839.6107 839.5304 839.4673 839.4069 839.3304 839.2303 839.1146 838.9995 838.8995 838.8215 838.7651 838.7266 838.7028 838.6917 838.6912 838.697 838.7043 838.7094 838.7113 838.71 838.7029 838.6867 838.6599 838.6225 838.5753 838.5197 838.46 838.4021 838.3451 838.2905 838.2404 838.1937 838.1476 838.1005 838.054 838.0096 837.968 837.9288 837.891 837.8541 837.818 837.783 837.75 837.7195 837.6915 837.6669 837.647 837.6331 837.6254 837.6244 837.6298 837.6421 837.661 837.686 837.7166 837.752 837.792 837.8359 837.8832 837.9329 837.9835 838.0343 838.0859 838.1396 838.1959 838.2538 838.3108 838.3634 838.4086 838.4423 838.46 838.4821 838.5077 838.5389 838.5753 838.6142 838.6514 838.683 838.7047 838.7145 838.7123 838.6997 838.6799 838.6597 838.6442 838.6353 838.6368 838.6544 838.6836 838.718 838.7545 838.7928 838.8308 838.864 838.8873 838.9008 838.9106 838.9247 838.9507 838.9985 839.0773 839.1937 839.3525 839.5526 839.7797 840.0135 840.5263 841.0598 841.4966 841.7941 842.0493 842.274 842.4725 842.6573 842.8408 843.0303 843.2329 843.4269 843.6229 843.8514 844.1458 844.5244 844.8855 845.474 846.0662 846.406 846.684 847.1381 848.0302 849.6637 850.4662 850.7147 850.7157 850.5891 -9999 -9999 -9999 -9999 -9999 -9999 -9999 -9999 -9999 -9999 -9999 -9999 -9999 -9999 -9999 -9999 -9999 -9999 -9999 -9999 -9999 -9999 -9999 -9999 -9999 -9999 -9999 -9999 -9999 -9999 -9999 -9999 -9999 -9999 -9999 -9999 -9999 -9999 -9999 -9999 -9999 -9999 -9999 -9999
-9999 -9999 -9999 -9999 -9999 -9999 -9999 -9999 -9999 -9999 -9999 -9999 -9999 -9999 -9999 -9999 -9999 -9999 -9999 -9999 -9999 -9999 -9999 -9999 -9999 -9999 -9999 -9999 -9999 -9999 -9999 -9999 -9999 -9999 -9999 -9999 -9999 -9999 -9999 -9999 -9999 -9999 -9999 -9999 -9999 -9999 -9999 -9999 -9999 -9999 -9999 -9999 -9999 -9999 -9999 -9999 -9999 -9999 -9999 -9999 -9999 -9999 -9999 -9999 -9999 -9999 -9999 -9999 -9999 -9999 -9999 -9999 -9999 -9999 -9999 -9999 -9999 -9999 -9999 -9999 -9999 -9999 -9999 -9999 -9999 -9999 -9999 -9999 -9999 -9999 -9999 -9999 -9999 -9999 -9999 -9999 -9999 -9999 -9999 -9999 -9999 852.1324 851.7133 851.3829 851.1366 850.9569 850.6559 850.2007 849.486 848.5849 848.0352 847.3635 846.71 846.1067 845.713 845.4446 845.1952 844.9015 844.5369 844.0786 843.5387 843.0368 842.5912 842.1381 841.7729 841.5001 841.2952 841.135 841.0101 840.9156 840.8464 840.7979 840.7646 840.7413 840.7226 840.7057 840.6897 840.6732 840.6542 840.6311 840.6038 840.5726 840.538 840.501 840.4619 840.4204 840.3776 840.3346 840.2926 840.2522 840.2134 840.177 840.1431 840.1124 840.0857 840.0644 840.0493 840.0356 840.0208 840.0112 839.98 839.944 839.9072 839.8563 839.7794 839.682 839.5834 839.4988 839.4276 839.3574 839.2753 839.1801 839.0805 838.9883 838.9111 838.8505 838.8052 838.7742 838.7563 838.7502 838.752 838.7572 838.7624 838.7667 838.7695 838.7675 838.7564 838.7341 838.6991 838.6519 838.5936 838.5277 838.46 838.3967 838.3369 838.2817 838.2308 838.1818 838.1322 838.0819 838.0325 837.9855 837.9417 837.9011 837.8629 837.8265 837.7917 837.759 837.729 837.7024 837.6793 837.6606 837.6471 837.6395 837.6382 837.6438 837.656 837.6749 837.7006 837.7325 837.7702 837.8127 837.8593 837.9088 837.9602 838.0127 838.0652 838.1183 838.1724 838.228 838.2845 838.3391 838.3884 838.4294 838.46 838.4739 838.4929 838.5176 838.548 838.5836 838.6224 838.661 838.6949 838.7206 838.7344 838.7357 838.7258 838.7069 838.684 838.6649 838.6521 838.6479 838.6575 838.6813 838.7134 838.7491 838.7864 838.8233 838.8569 838.8817 838.8958 838.9032 838.9118 838.9303 838.9687 839.0374 839.1429 839.2894 839.4777 839.7048 839.9834 840.4136 840.9467 841.4643 841.7148 841.9744 842.2167 842.4325 842.6321 842.829 843.0303 843.2414 843.4312 843.6028 843.7858 844.009 844.2865 844.623 845.3457 846.051 846.437 846.7418 847.1871 848.014 849.5394 849.9816 850.2125 850.2612 850.1769 -9999 -9999 -9999 -9999 -9999 -9999 -9999 -9999 -9999 -9999 -9999 -9999 -9999 -9999 -9999 -9999 -9999 -9999 -9999 -9999 -9999 -9999 -9999 -9999 -9999 -9999 -9999 -9999 -9999 -9999 -9999 -9999 -9999 -9999 -9999 -9999 -9999 -9999 -9999 -9999 -9999 -9999 -9999 -9999
-9999 -9999 -9999 -9999 -9999 -9999 -9999 -9999 -9999 -9999 -9999 -9999 -9999 -9999 -9999 -9999 -9999 -9999 -9999 -9999 -9999 -9999 -9999 -9999 -9999 -9999 -9999 -9999 -9999 -9999 -9999 -9999 -9999 -9999 -9999 -9999 -9999 -9999 -9999 -9999 -9999 -9999 -9999 -9999 -9999 -9999 -9999 -9999 -9999 -9999 -9999 -9999 -9999 -9999 -9999 -9999 -9999 -9999 -9999 -9999 -9999 -9999 -9999 -9999 -9999 -9999 -9999 -9999 -9999 -9999 -9999 -9999 -9999 -9999 -9999 -9999 -9999 -9999 -9999 -9999 -9999 -9999 -9999 -9999 -9999 -9999 -9999 -9999 -9999 -9999 -9999 -9999 -9999 -9999 -9999 -9999 -9999 -9999 -9999 -9999 -9999 -9999 853.5533 852.9254 852.423 852.1042 851.608 851.1468 850.7014 850.1808 849.5511 848.6041 847.528 846.6528 846.0825 845.738 845.4645 845.1826 844.8606 844.4868 843.9408 843.4225 842.9666 842.4556 842.0473 841.7366 841.4994 841.3082 841.1552 841.0352 840.9437 840.8763 840.8286 840.7953 840.7698 840.7479 840.7284 840.7103 840.6918 840.6713 840.6477 840.6209 840.5908 840.5577 840.5219 840.4829 840.4417 840.3993 840.3569 840.3152 840.2742 840.2345 840.1975 840.1639 840.1348 840.1113 840.0916 840.0737 840.0583 840.0435 840.0155 839.98 839.9459 839.9071 839.8472 839.7578 839.6503 839.5443 839.4519 839.3719 839.2943 839.2126 839.1287 839.0495 838.9808 838.9247 838.8808 838.8492 838.8293 838.8198 838.8176 838.8195 838.8232 838.8282 838.8336 838.8362 838.8312 838.8148 838.7849 838.7394 838.68 838.6101 838.5346 838.4601 838.3929 838.3329 838.2778 838.223 838.1682 838.1138 838.0599 838.0078 837.9587 837.9132 837.8718 837.8336 837.7985 837.7659 837.7363 837.7104 837.689 837.6721 837.6603 837.6538 837.6534 837.66 837.6732 837.6927 837.7186 837.7509 837.7891 837.8326 837.8807 837.9319 837.9852 838.0396 838.0941 838.1488 838.2035 838.2586 838.3129 838.3641 838.4089 838.4425 838.46 838.4814 838.5037 838.5289 838.5586 838.5933 838.6317 838.671 838.7073 838.736 838.7543 838.7594 838.7524 838.7355 838.7119 838.6888 838.6721 838.6633 838.666 838.6832 838.7115 838.7454 838.7813 838.8172 838.8507 838.8771 838.8922 838.8977 838.901 838.9114 838.9394 838.9963 839.0908 839.2288 839.4156 839.6583 839.9651 840.2603 840.7272 841.207 841.5201 841.8655 842.1498 842.3888 842.6057 842.8171 843.0304 843.2485 843.4332 843.5816 843.724 843.9025 844.1599 844.5679 845.3073 846.0505 846.481 846.8108 847.2338 847.9412 849.2344 849.437 849.7701 849.8418 849.7726 849.6909 -9999 -9999 -9999 -9999 -9999 -9999 -9999 -9999 -9999 -9999 -9999 -9999 -9999 -9999 -9999 -9999 -9999 -9999 -9999 -9999 -9999 -9999 -9999 -9999 -9999 -9999 -9999 -9999 -9999 -9999 -9999 -9999 -9999 -9999 -9999 -9999 -9999 -9999 -9999 -9999 -9999 -9999 -9999
-9999 -9999 -9999 -9999 -9999 -9999 -9999 -9999 -9999 -9999 -9999 -9999 -9999 -9999 -9999 -9999 -9999 -9999 -9999 -9999 -9999 -9999 -9999 -9999 -9999 -9999 -9999 -9999 -9999 -9999 -9999 -9999 -9999 -9999 -9999 -9999 -9999 -9999 -9999 -9999 -9999 -9999 -9999 -9999 -9999 -9999 -9999 -9999 -9999 -9999 -9999 -9999 -9999 -9999 -9999 -9999 -9999 -9999 -9999 -9999 -9999 -9999 -9999 -9999 -9999 -9999 -9999 -9999 -9999 -9999 -9999 -9999 -9999 -9999 -9999 -9999 -9999 -9999 -9999 -9999 -9999 -9999 -9999 -9999 -9999 -9999 -9999 -9999 -9999 -9999 -9999 -9999 -9999 -9999 -9999 -9999 -9999 -9999 -9999 -9999 -9999 -9999 -9999 -9999 853.8341 853.368 852.4945 851.9139 851.6582 851.5418 850.8348 849.725 848.2183 847.1335 846.4634 846.0675 845.7422 845.4144 845.0406 844.594 844.1745 843.6643 843.1006 842.6782 842.3021 841.9817 841.7175 841.4996 841.3174 841.1699 841.0529 840.9633 840.8982 840.853 840.8196 840.7924 840.7689 840.7485 840.7296 840.7104 840.6898 840.6669 840.641 840.6122 840.5802 840.5447 840.5059 840.4648 840.4227 840.3803 840.3378 840.2957 840.2561 840.2197 840.1873 840.1605 840.1371 840.1146 840.0948 840.0766 840.051 840.0166 839.98 839.9468 839.9029 839.828 839.7235 839.605 839.4907 839.3908 839.3033 839.223 839.1477 839.0793 839.0199 838.9709 838.9328 838.9058 838.8892 838.8811 838.8785 838.8793 838.8829 838.889 838.8973 838.9051 838.9073 838.8992 838.8762 838.8356 838.7767 838.7042 838.6234 838.5398 838.4601 838.3926 838.3346 838.2725 838.2096 838.1485 838.0896 838.0331 837.9794 837.929 837.8828 837.8414 837.8043 837.7713 837.742 837.7166 837.696 837.6807 837.6707 837.6664 837.668 837.6764 837.6917 837.7133 837.7406 837.7733 837.8116 837.8551 837.9035 837.9556 838.0101 838.066 838.1223 838.1785 838.2339 838.2881 838.3398 838.3875 838.4285 838.46 838.4753 838.4952 838.5179 838.5431 838.572 838.6055 838.6429 838.6824 838.7201 838.7518 838.7736 838.7834 838.7795 838.7646 838.7419 838.7164 838.6953 838.682 838.6791 838.6897 838.7131 838.7438 838.7775 838.8119 838.8448 838.8726 838.8898 838.8948 838.8935 838.8955 838.912 838.955 839.0348 839.1576 839.3262 839.538 839.7762 840.0132 840.491 841.0289 841.4963 841.8228 842.0994 842.347 842.5784 842.8046 843.0305 843.2582 843.4409 843.5739 843.6912 843.8488 844.1125 844.5637 845.3037 846.056 846.5352 846.901 847.2992 847.8441 848.5784 849.6066 849.6019 849.4888 849.3724 849.3199 849.3436 -9999 -9999 -9999 -9999 -9999 -9999 -9999 -9999 -9999 -9999 -9999 -9999 -9999 -9999 -9999 -9999 -9999 -9999 -9999 -9999 -9999 -9999 -9999 -9999 -9999 -9999 -9999 -9999 -9999 -9999 -9999 -9999 -9999 -9999 -9999 -9999 -9999 -9999 -9999 -9999 -9999 -9999
-9999 -9999 -9999 -9999 -9999 -9999 -9999 -9999 -9999 -9999 -9999 -9999 -9999 -9999 -9999 -9999 -9999 -9999 -9999 -9999 -9999 -9999 -9999 -9999 -9999 -9999 -9999 -9999 -9999 -9999 -9999 -9999 -9999 -9999 -9999 -9999 -9999 -9999 -9999 -9999 -9999 -9999 -9999 -9999 -9999 -9999 -9999 -9999 -9999 -9999 -9999 -9999 -9999 -9999 -9999 -9999 -9999 -9999 -9999 -9999 -9999 -9999 -9999 -9999 -9999 -9999 -9999 -9999 -9999 -9999 -9999 -9999 -9999 -9999 -9999 -9999 -9999 -9999 -9999 -9999 -9999 -9999 -9999 -9999 -9999 -9999 -9999 -9999 -9999 -9999 -9999 -9999 -9999 -9999 -9999 -9999 -9999 -9999 -9999 -9999 -9999 -9999 -9999 -9999 -9999 854.1158 853.407 852.4874 852.0724 851.9924 851.5676 850.5495 848.6244 847.5013 846.8256 846.4081 846.073 845.7061 845.321 844.9198 844.5358 844.0578 843.519 843.0404 842.6281 842.2715 841.9686 841.7135 841.4999 841.3224 841.177 841.062 840.9773 840.9193 840.8768 840.8425 840.814 840.7903 840.7699 840.751 840.7322 840.7123 840.6898 840.6649 840.6369 840.6052 840.5693 840.5302 840.4889 840.4465 840.4033 840.3599 840.318 840.2792 840.2434 840.212 840.1849 840.1582 840.1325 840.11 840.0854 840.0533 840.0161 839.98 839.9465 839.8845 839.7903 839.6714 839.5439 839.424 839.3188 839.2288 839.1521 839.0873 839.0332 838.9894 838.957 838.9366 838.9266 838.9239 838.9251 838.9287 838.935 838.9445 838.9571 838.9712 838.9823 838.9844 838.9705 838.9363 838.8804 838.8065 838.7219 838.6327 838.5435 838.4601 838.3982 838.3257 838.2546 838.1868 838.1217 838.0598 838.0013 837.9468 837.8964 837.851 837.811 837.7764 837.7467 837.7217 837.7018 837.6874 837.679 837.6768 837.6808 837.6917 837.7095 837.7338 837.7635 837.7979 837.8369 837.8807 837.929 837.9812 838.0366 838.0936 838.1512 838.2083 838.2639 838.3166 838.3652 838.4079 838.4414 838.46 838.4849 838.5096 838.5345 838.5604 838.5887 838.6207 838.6567 838.6956 838.734 838.7679 838.7932 838.8069 838.8071 838.7946 838.7732 838.7468 838.7219 838.7039 838.6956 838.7 838.7179 838.7452 838.7762 838.808 838.8392 838.8674 838.8871 838.8934 838.889 838.8832 838.8878 838.9152 838.9772 839.0811 839.23 839.4242 839.6635 839.9612 840.311 840.8623 841.4456 841.7388 842.0251 842.2939 842.5461 842.7903 843.0307 843.2703 843.4564 843.5817 843.6853 843.8318 844.0986 844.5652 845.3048 846.0611 846.5804 846.9838 847.389 847.9152 848.5829 848.8937 848.9514 848.9476 848.9262 848.93 849.0073 849.1896 849.4525 -9999 -9999 -9999 -9999 -9999 -9999 -9999 -9999 -9999 -9999 -9999 -9999 -9999 -9999 -9999 -9999 -9999 -9999 -9999 -9999 -9999 -9999 -9999 -9999 -9999 -9999 -9999 -9999 -9999 -9999 -9999 -9999 -9999 -9999 -9999 -9999 -9999 -9999 -9999 -9999
-9999 -9999 -9999 -9999 -9999 -9999 -9999 -9999 -9999 -9999 -9999 -9999 -9999 -9999 -9999 -9999 -9999 -9999 -9999 -9999 -9999 -9999 -9999 -9999 -9999 -9999 -9999 -9999 -9999 -9999 -9999 -9999 -9999 -9999 -9999 -9999 -9999 -9999 -9999 -9999 -9999 -9999 -9999 -9999 -9999 -9999 -9999 -9999 -9999 -9999 -9999 -9999 -9999 -9999 -9999 -9999 -9999 -9999 -9999 -9999 -9999 -9999 -9999 -9999 -9999 -9999 -9999 -9999 -9999 -9999 -9999 -9999 -9999 -9999 -9999 -9999 -9999 -9999 -9999 -9999 -9999 -9999 -9999 -9999 -9999 -9999 -9999 -9999 -9999 -9999 -9999 -9999 -9999 -9999 -9999 -9999 -9999 -9999 -9999 -9999 -9999 -9999 -9999 -9999 -9999 -9999 853.8876 853.3046 852.3373 852.0721 851.8691 850.8878 849.104 848.0079 847.3119 846.8694 846.5065 846.0867 845.6771 845.2956 844.9323 844.5261 844.0276 843.5204 843.0403 842.6238 842.2676 841.9653 841.7114 841.4998 841.3226 841.1777 841.0707 841.0017 840.9483 840.9037 840.8675 840.8389 840.8154 840.7955 840.7772 840.7591 840.7393 840.7173 840.6926 840.6644 840.6316 840.5945 840.5546 840.5129 840.4697 840.4259 840.3826 840.3416 840.3029 840.2666 840.2348 840.2047 840.1736 840.145 840.1182 840.0874 840.0505 840.0132 839.9799 839.9236 839.84 839.7293 839.6008 839.4696 839.3483 839.2438 839.1579 839.0892 839.0342 838.9912 838.9619 838.947 838.9442 838.9484 838.9558 838.9653 838.9777 838.9932 839.0121 839.0338 839.0551 839.0684 839.0654 839.0389 838.9868 838.9131 838.825 838.7302 838.633 838.5346 838.4596 838.3715 838.2971 838.2266 838.1569 838.0889 838.0247 837.9652 837.9108 837.8618 837.8188 837.7818 837.7509 837.726 837.7067 837.6935 837.6866 837.6862 837.6927 837.7062 837.7271 837.754 837.7861 837.8226 837.8632 837.9078 837.9567 838.0094 838.0654 838.1234 838.1818 838.2392 838.2941 838.3447 838.3895 838.4276 838.46 838.4773 838.5012 838.5275 838.554 838.5804 838.6081 838.6385 838.673 838.7106 838.7489 838.7843 838.8125 838.8301 838.8343 838.8252 838.8052 838.7786 838.7511 838.7288 838.7152 838.7133 838.7255 838.7489 838.7773 838.8063 838.8348 838.8619 838.8833 838.8918 838.886 838.8738 838.8672 838.879 838.9218 839.0045 839.1306 839.2999 839.5085 839.751 840.0262 840.564 841.1362 841.5266 841.9114 842.2286 842.5095 842.7747 843.0308 843.2834 843.4761 843.6005 843.6971 843.8362 844.0991 844.5665 845.3088 846.0642 846.5907 846.983 847.3259 847.6477 847.8979 847.8646 848.1185 848.3267 848.4476 848.5221 848.653 848.8998 849.244 849.5997 -9999 -9999 -9999 -9999 -9999 -9999 -9999 -9999 -9999 -9999 -9999 -9999 -9999 -9999 -9999 -9999 -9999 -9999 -9999 -9999 -9999 -9999 -9999 -9999 -9999 -9999 -9999 -9999 -9999 -9999 -9999 -9999 -9999 -9999 -9999 -9999 -9999 -9999 -9999
-9999 -9999 -9999 -9999 -9999 -9999 -9999 -9999 -9999 -9999 -9999 -9999 -9999 -9999 -9999 -9999 -9999 -9999 -9999 -9999 -9999 -9999 -9999 -9999 -9999 -9999 -9999 -9999 -9999 -9999 -9999 -9999 -9999 -9999 -9999 -9999 -9999 -9999 -9999 -9999 -9999 -9999 -9999 -9999 -9999 -9999 -9999 -9999 -9999 -9999 -9999 -9999 -9999 -9999 -9999 -9999 -9999 -9999 -9999 -9999 -9999 -9999 -9999 -9999 -9999 -9999 -9999 -9999 -9999 -9999 -9999 -9999 -9999 -9999 -9999 -9999 -9999 -9999 -9999 -9999 -9999 -9999 -9999 -9999 -9999 -9999 -9999 -9999 -9999 -9999 -9999 -9999 -9999 -9999 -9999 -9999 -9999 -9999 -9999 -9999 -9999 -9999 -9999 -9999 -9999 -9999 -9999 -9999 853.0024 852.2203 851.972 851.5396 850.2113 848.9174 848.0466 847.5183 847.1093 846.5732 846.083 845.6848 845.3229 844.9495 844.5286 844.0387 843.5297 843.0424 842.6232 842.265 841.9628 841.7106 841.4996 841.3184 841.1847 841.1117 841.0435 840.9818 840.9344 840.8982 840.8696 840.8468 840.8275 840.8101 840.7917 840.7716 840.7491 840.7233 840.6927 840.6577 840.6193 840.5787 840.5361 840.4927 840.4489 840.4059 840.365 840.3247 840.2872 840.2536 840.219 840.1839 840.1511 840.1176 840.0778 840.0308 839.98 839.9446 839.871 839.7695 839.6478 839.5164 839.387 839.2704 839.1735 839.0967 839.0363 838.99 838.9604 838.9485 838.9507 838.9608 838.9745 838.9916 839.0124 839.0365 839.0639 839.0948 839.1271 839.1525 839.1603 839.1421 839.0941 839.0203 838.9282 838.824 838.7072 838.5815 838.4608 838.3954 838.3358 838.2675 838.1943 838.121 838.0504 837.9849 837.9255 837.8727 837.8267 837.7875 837.7549 837.7292 837.7104 837.6985 837.6935 837.6953 837.7043 837.7208 837.7446 837.7745 837.8092 837.8477 837.8898 837.9357 837.9858 838.0396 838.0964 838.155 838.214 838.2712 838.3248 838.3726 838.4119 838.4398 838.46 838.488 838.5174 838.5468 838.5752 838.6024 838.6296 838.6587 838.6912 838.7271 838.7648 838.801 838.8316 838.8525 838.8605 838.8552 838.8373 838.811 838.7818 838.7558 838.7372 838.7292 838.7351 838.7542 838.78 838.8066 838.8323 838.8571 838.8785 838.8892 838.8838 838.8671 838.851 838.8484 838.8727 838.9344 839.0385 839.1864 839.3805 839.6282 839.9546 840.3407 840.9335 841.4901 841.8604 842.1769 842.4741 842.7593 843.0311 843.2946 843.494 843.6216 843.7169 843.8513 844.1076 844.5685 845.3149 846.067 846.5684 846.9213 847.1896 847.3859 847.478 847.4666 847.6158 847.8621 848.012 848.1281 848.2904 848.6 849.0406 849.4933 849.8375 -9999 -9999 -9999 -9999 -9999 -9999 -9999 -9999 -9999 -9999 -9999 -9999 -9999 -9999 -9999 -9999 -9999 -9999 -9999 -9999 -9999 -9999 -9999 -9999 -9999 -9999 -9999 -9999 -9999 -9999 -9999 -9999 -9999 -9999 -9999 -9999 -9999 -9999
-9999 -9999 -9999 -9999 -9999 -9999 -9999 -9999 -9999 -9999 -9999 -9999 -9999 -9999 -9999 -9999 -9999 -9999 -9999 -9999 -9999 -9999 -9999 -9999 -9999 -9999 -9999 -9999 -9999 -9999 -9999 -9999 -9999 -9999 -9999 -9999 -9999 -9999 -9999 -9999 -9999 -9999 -9999 -9999 -9999 -9999 -9999 -9999 -9999 -9999 -9999 -9999 -9999 -9999 -9999 -9999 -9999 -9999 -9999 -9999 -9999 -9999 -9999 -9999 -9999 -9999 -9999 -9999 -9999 -9999 -9999 -9999 -9999 -9999 -9999 -9999 -9999 -9999 -9999 -9999 -9999 -9999 -9999 -9999 -9999 -9999 -9999 -9999 -9999 -9999 -9999 -9999 -9999 -9999 -9999 -9999 -9999 -9999 -9999 -9999 -9999 -9999 -9999 -9999 -9999 -9999 -9999 -9999 853.9508 852.9794 852.336 852.1903 851.405 850.1874 849.023 848.324 847.8279 847.0836 846.4918 846.0672 845.6976 845.332 844.95 844.5305 844.0431 843.5317 843.042 842.6211 842.2644 841.9697 841.7239 841.4999 841.3266 841.2672 841.171 841.0809 841.0196 840.973 840.9359 840.9078 840.8857 840.8673 840.8492 840.8296 840.8079 840.7832 840.754 840.7203 840.6831 840.6436 840.6022 840.5596 840.5162 840.4723 840.4291 840.3865 840.3441 840.3058 840.269 840.2293 840.1893 840.1499 840.1077 840.061 840.016 839.9798 839.8959 839.7943 839.6785 839.5524 839.4236 839.302 839.1973 839.1124 839.0448 838.9935 838.9617 838.9507 838.9553 838.9684 838.9867 839.0109 839.0415 839.0768 839.1154 839.1572 839.2007 839.2382 839.2571 839.2469 839.2037 839.1304 839.035 838.924 838.7994 838.668 838.5454 838.4601 838.3942 838.3153 838.2338 838.1539 838.0776 838.0062 837.9412 837.8836 837.8341 837.7923 837.7582 837.7317 837.7129 837.702 837.6989 837.7034 837.7157 837.7355 837.7626 837.7957 837.8332 837.8738 837.9175 837.9646 838.0159 838.071 838.1289 838.1884 838.2476 838.3041 838.3557 838.4009 838.4373 838.46 838.4792 838.5057 838.5359 838.567 838.597 838.6251 838.6522 838.6801 838.7106 838.7448 838.7814 838.8179 838.8501 838.874 838.8858 838.884 838.869 838.8438 838.8132 838.7841 838.7611 838.7476 838.7468 838.7603 838.7834 838.8085 838.8319 838.8539 838.8738 838.8856 838.8817 838.8628 838.8395 838.825 838.8329 838.8755 838.9589 839.0857 839.2573 839.4727 839.7328 840.0511 840.7312 841.4206 841.7604 842.0961 842.4265 842.7408 843.0311 843.3012 843.5046 843.6376 843.7375 843.8719 844.1221 844.5718 845.3165 846.0633 846.5077 846.8215 847.0553 847.2075 847.276 847.3066 847.4196 847.5917 847.6165 847.7823 847.9353 848.2983 848.8658 849.4394 849.8416 850.037 -9999 -9999 -9999 -9999 -9999 -9999 -9999 -9999 -9999 -9999 -9999 -9999 -9999 -9999 -9999 -9999 -9999 -9999 -9999 -9999 -9999 -9999 -9999 -9999 -9999 -9999 -9999 -9999 -9999 -9999 -9999 -9999 -9999 -9999 -9999 -9999 -9999
-9999 -9999 -9999 -9999 -9999 -9999 -9999 -9999 -9999 -9999 -9999 -9999 -9999 -9999 -9999 -9999 -9999 -9999 -9999 -9999 -9999 -9999 -9999 -9999 -9999 -9999 -9999 -9999 -9999 -9999 -9999 -9999 -9999 -9999 -9999 -9999 -9999 -9999 -9999 -9999 -9999 -9999 -9999 -9999 -9999 -9999 -9999 -9999 -9999 -9999 -9999 -9999 -9999 -9999 -9999 -9999 -9999 -9999 -9999 -9999 -9999 -9999 -9999 -9999 -9999 -9999 -9999 -9999 -9999 -9999 -9999 -9999 -9999 -9999 -9999 -9999 -9999 -9999 -9999 -9999 -9999 -9999 -9999 -9999 -9999 -9999 -9999 -9999 -9999 -9999 -9999 -9999 -9999 -9999 -9999 -9999 -9999 -9999 -9999 -9999 -9999 -9999 -9999 -9999 -9999 -9999 -9999 -9999 -9999 853.9169 853.2659 852.9105 852.2992 851.4238 850.2826 849.2153 848.2994 847.5227 846.8835 846.4169 846.0637 845.6934 845.3214 844.9424 844.5294 844.0422 843.5283 843.0388 842.6235 842.2925 842.0334 841.7615 841.5176 841.4912 841.3314 841.1987 841.1292 841.0693 841.0181 840.9811 840.9542 840.933 840.9135 840.8928 840.8704 840.8455 840.8167 840.7836 840.7473 840.7087 840.6686 840.6271 840.5845 840.5404 840.4952 840.4513 840.4065 840.3633 840.3239 840.2822 840.2366 840.1892 840.1403 840.0883 840.0343 839.9799 839.9063 839.8103 839.6978 839.5753 839.45 839.329 839.2212 839.1312 839.0577 839.0021 838.9683 838.9573 838.9624 838.9756 838.9957 839.026 839.0673 839.1159 839.1683 839.2232 839.2789 839.3282 839.3582 839.3568 839.319 839.2481 839.1526 839.0402 838.9147 838.782 838.6536 838.5455 838.4594 838.3621 838.2719 838.186 838.1042 838.0277 837.9577 837.8951 837.8414 837.7964 837.7603 837.733 837.714 837.7039 837.7026 837.7098 837.7255 837.7491 837.7798 837.8164 837.8569 837.9003 837.9462 837.995 838.0475 838.1038 838.1627 838.2228 838.2816 838.3364 838.3848 838.4257 838.46 838.4781 838.4978 838.5237 838.5543 838.5867 838.6182 838.6475 838.6749 838.702 838.731 838.7632 838.7985 838.8347 838.8682 838.8945 838.91 838.9118 838.8998 838.8763 838.8452 838.8132 838.7863 838.7679 838.7609 838.7679 838.7871 838.8109 838.8333 838.8529 838.8705 838.8823 838.8801 838.8611 838.8335 838.8104 838.8051 838.8312 838.8972 839.0068 839.1633 839.3698 839.6344 839.9875 840.5294 841.1236 841.5342 841.9728 842.3649 842.7199 843.0312 843.2981 843.5002 843.6414 843.7534 843.8948 844.1407 844.571 845.282 846.0068 846.3655 846.6799 846.9313 847.0989 847.1872 847.2367 847.3083 847.3982 847.4522 847.588 847.6153 848.003 848.7423 849.4724 849.9106 850.0624 850.0683 -9999 -9999 -9999 -9999 -9999 -9999 -9999 -9999 -9999 -9999 -9999 -9999 -9999 -9999 -9999 -9999 -9999 -9999 -9999 -9999 -9999 -9999 -9999 -9999 -9999 -9999 -9999 -9999 -9999 -9999 -9999 -9999 -9999 -9999 -9999 -9999
-9999 -9999 -9999 -9999 -9999 -9999 -9999 -9999 -9999 -9999 -9999 -9999 -9999 -9999 -9999 -9999 -9999 -9999 -9999 -9999 -9999 -9999 -9999 -9999 -9999 -9999 -9999 -9999 -9999 -9999 -9999 -9999 -9999 -9999 -9999 -9999 -9999 -9999 -9999 -9999 -9999 -9999 -9999 -9999 -9999 -9999 -9999 -9999 -9999 -9999 -9999 -9999 -9999 -9999 -9999 -9999 -9999 -9999 -9999 -9999 -9999 -9999 -9999 -9999 -9999 -9999 -9999 -9999 -9999 -9999 -9999 -9999 -9999 -9999 -9999 -9999 -9999 -9999 -9999 -9999 -9999 -9999 -9999 -9999 -9999 -9999 -9999 -9999 -9999 -9999 -9999 -9999 -9999 -9999 -9999 -9999 -9999 -9999 -9999 -9999 -9999 -9999 -9999 -9999 -9999 -9999 -9999 -9999 -9999 -9999 853.9683 853.5275 852.9071 852.1907 851.4546 850.5736 849.6392 848.4341 847.5164 846.8832 846.4682 846.0868 845.6892 845.3145 844.9415 844.5293 844.0354 843.5165 843.0385 842.6771 842.4623 842.1719 841.8956 841.7244 841.5024 841.3305 841.2771 841.1937 841.118 841.0698 841.0356 841.0098 840.9866 840.9633 840.9384 840.9116 840.8821 840.849 840.8132 840.7755 840.7366 840.6963 840.6542 840.6106 840.5647 840.519 840.4743 840.429 840.3857 840.3429 840.2947 840.2405 840.1821 840.1197 840.0519 839.9802 839.9282 839.8367 839.7206 839.594 839.4675 839.3472 839.2389 839.1465 839.0698 839.0115 838.9768 838.966 838.9707 838.9821 839.002 839.0373 839.0896 839.1534 839.2223 839.2928 839.3625 839.4242 839.4658 839.4746 839.4448 839.3789 839.2864 839.1755 839.0507 838.9147 838.7709 838.6199 838.4617 838.3896 838.3051 838.2168 838.1305 838.0489 837.9739 837.9067 837.8488 837.8002 837.7614 837.7327 837.7136 837.7045 837.7051 837.715 837.7339 837.761 837.7955 837.8354 837.8794 837.9259 837.9746 838.0258 838.0801 838.1377 838.1974 838.2576 838.3154 838.3675 838.4102 838.4399 838.46 838.4852 838.5103 838.5385 838.5705 838.6044 838.6376 838.6685 838.6967 838.7236 838.7513 838.7819 838.8157 838.8514 838.8857 838.9144 838.9331 838.9386 838.9297 838.9081 838.8773 838.843 838.8121 838.7893 838.7769 838.7774 838.7915 838.8134 838.8356 838.854 838.8696 838.8807 838.8802 838.8627 838.8334 838.8051 838.7903 838.803 838.8541 838.9498 839.0953 839.2996 839.578 839.9523 840.3375 840.9276 841.4908 841.9111 842.3113 842.6969 843.0319 843.2742 843.4712 843.6277 843.7611 843.9174 844.1609 844.5577 845.1576 845.744 846.1107 846.5146 846.8265 847.0342 847.1501 847.2078 847.245 847.2718 847.2871 847.3322 847.3908 847.7394 848.6782 849.59 850.0214 850.0762 850.0006 -9999 -9999 -9999 -9999 -9999 -9999 -9999 -9999 -9999 -9999 -9999 -9999 -9999 -9999 -9999 -9999 -9999 -9999 -9999 -9999 -9999 -9999 -9999 -9999 -9999 -9999 -9999 -9999 -9999 -9999 -9999 -9999 -9999 -9999 -9999 -9999
-9999 -9999 -9999 -9999 -9999 -9999 -9999 -9999 -9999 -9999 -9999 -9999 -9999 -9999 -9999 -9999 -9999 -9999 -9999 -9999 -9999 -9999 -9999 -9999 -9999 -9999 -9999 -9999 -9999 -9999 -9999 -9999 -9999 -9999 -9999 -9999 -9999 -9999 -9999 -9999 -9999 -9999 -9999 -9999 -9999 -9999 -9999 -9999 -9999 -9999 -9999 -9999 -9999 -9999 -9999 -9999 -9999 -9999 -9999 -9999 -9999 -9999 -9999 -9999 -9999 -9999 -9999 -9999 -9999 -9999 -9999 -9999 -9999 -9999 -9999 -9999 -9999 -9999 -9999 -9999 -9999 -9999 -9999 -9999 -9999 -9999 -9999 -9999 -9999 -9999 -9999 -9999 -9999 -9999 -9999 -9999 -9999 -9999 -9999 -9999 -9999 -9999 -9999 -9999 -9999 -9999 -9999 -9999 -9999 -9999 -9999 853.9146 853.2203 852.5566 852.0782 851.8626 851.2974 849.9849 848.554 847.5961 847.0762 846.644 846.1279 845.698 845.3272 844.9552 844.5297 844.0221 843.5122 843.0949 842.9716 842.6355 842.3143 842.0679 841.7819 841.5198 841.4922 841.347 841.2322 841.1768 841.1333 841.1008 841.0709 841.0423 841.0131 840.9832 840.9517 840.9181 840.8826 840.8457 840.8076 840.7684 840.7272 840.6836 840.6382 840.5915 840.547 840.5034 840.4586 840.4136 840.3646 840.3071 840.2416 840.1707 840.0977 840.03 839.9796 839.88 839.7554 839.6194 839.4857 839.3615 839.251 839.1566 839.0777 839.0178 838.9828 838.9724 838.9761 838.985 839.0039 839.0437 839.1073 839.1874 839.2748 839.3637 839.4497 839.5255 839.5805 839.6024 839.5845 839.5264 839.4391 839.3315 839.2075 839.0688 838.9167 838.7513 838.5699 838.4589 838.3489 838.2504 838.1578 838.0705 837.9897 837.9176 837.8551 837.803 837.7615 837.7311 837.7118 837.7036 837.7063 837.7188 837.7407 837.7712 837.8091 837.8527 837.9002 837.9502 838.0021 838.0562 838.1127 838.1718 838.2322 838.2921 838.3484 838.3981 838.437 838.46 838.4764 838.4977 838.5224 838.5513 838.5842 838.6195 838.6544 838.6871 838.7168 838.7443 838.7715 838.8007 838.8333 838.8683 838.9033 838.9338 838.9556 838.9644 838.9587 838.9395 838.9093 838.8735 838.8391 838.8116 838.7943 838.7889 838.7972 838.8161 838.8379 838.8564 838.8708 838.8813 838.8827 838.8681 838.8396 838.8086 838.788 838.7905 838.8286 838.9099 839.0388 839.2202 839.4541 839.7329 840.0497 840.7296 841.4185 841.7927 842.21 842.6365 843.0164 843.2023 843.4081 843.5972 843.7635 843.9412 844.1843 844.5522 845.0779 845.624 846.0753 846.4631 846.7767 847.0024 847.1365 847.1976 847.212 847.1984 847.1767 847.1869 847.2931 847.6983 848.5943 849.6259 850.0233 850.0016 849.9382 850 -9999 -9999 -9999 -9999 -9999 -9999 -9999 -9999 -9999 -9999 -9999 -9999 -9999 -9999 -9999 -9999 -9999 -9999 -9999 -9999 -9999 -9999 -9999 -9999 -9999 -9999 -9999 -9999 -9999 -9999 -9999 -9999 -9999 -9999 -9999
-9999 -9999 -9999 -9999 -9999 -9999 -9999 -9999 -9999 -9999 -9999 -9999 -9999 -9999 -9999 -9999 -9999 -9999 -9999 -9999 -9999 -9999 -9999 -9999 -9999 -9999 -9999 -9999 -9999 -9999 -9999 -9999 -9999 -9999 -9999 -9999 -9999 -9999 -9999 -9999 -9999 -9999 -9999 -9999 -9999 -9999 -9999 -9999 -9999 -9999 -9999 -9999 -9999 -9999 -9999 -9999 -9999 -9999 -9999 -9999 -9999 -9999 -9999 -9999 -9999 -9999 -9999 -9999 -9999 -9999 -9999 -9999 -9999 -9999 -9999 -9999 -9999 -9999 -9999 -9999 -9999 -9999 -9999 -9999 -9999 -9999 -9999 -9999 -9999 -9999 -9999 -9999 -9999 -9999 -9999 -9999 -9999 -9999 -9999 -9999 -9999 -9999 -9999 -9999 -9999 -9999 -9999 -9999 -9999 -9999 -9999 -9999 853.3463 852.8617 852.8523 853.0217 852.8215 851.7236 850.0955 848.587 847.9073 847.3841 846.7212 846.1304 845.7172 845.3612 844.978 844.5336 844.0463 843.6274 843.3572 843.0264 842.7115 842.5073 842.2062 841.9054 841.7139 841.5015 841.3519 841.3108 841.25 841.2098 841.1682 841.132 841.096 841.0612 841.0267 840.9921 840.957 840.9211 840.8843 840.8459 840.8054 840.7616 840.7163 840.6707 840.6263 840.5856 840.5439 840.4985 840.4485 840.39 840.3206 840.2416 840.1562 840.0682 839.9804 839.9144 839.7951 839.6543 839.5127 839.3813 839.2651 839.1665 839.0842 839.0219 838.9855 838.9737 838.9753 838.9814 838.9995 839.0441 839.1189 839.2154 839.3221 839.4312 839.5363 839.6295 839.701 839.7398 839.7375 839.6919 839.6125 839.5082 839.3832 839.2383 839.0714 838.8721 838.6536 838.4625 838.3779 838.2827 838.1859 838.093 838.0063 837.9282 837.8606 837.8046 837.7603 837.7281 837.7086 837.7013 837.7059 837.7213 837.7463 837.7802 837.8213 837.8684 837.9196 837.9733 838.0287 838.0857 838.1447 838.2051 838.2659 838.3246 838.3785 838.4246 838.46 838.4768 838.4917 838.5106 838.5342 838.5629 838.5963 838.6324 838.6691 838.7037 838.7352 838.7637 838.7911 838.8197 838.8512 838.8856 838.9209 838.953 838.9772 838.9897 838.9872 838.9705 838.9415 838.9048 838.8672 838.8354 838.813 838.8024 838.8051 838.8198 838.8404 838.8594 838.874 838.8844 838.8878 838.8774 838.8518 838.8209 838.7968 838.792 838.8191 838.8872 839.001 839.1639 839.3765 839.6406 839.9863 840.552 841.134 841.5411 842.0393 842.4851 842.834 843.0396 843.3228 843.568 843.7738 843.9728 844.2124 844.5507 845.041 845.5834 846.0749 846.4509 846.7506 846.9785 847.1234 847.1893 847.1957 847.1639 847.1204 847.106 847.1722 847.413 847.8919 848.7736 849.5189 849.5892 849.6224 849.7653 -9999 -9999 -9999 -9999 -9999 -9999 -9999 -9999 -9999 -9999 -9999 -9999 -9999 -9999 -9999 -9999 -9999 -9999 -9999 -9999 -9999 -9999 -9999 -9999 -9999 -9999 -9999 -9999 -9999 -9999 -9999 -9999 -9999 -9999 -9999
-9999 -9999 -9999 -9999 -9999 -9999 -9999 -9999 -9999 -9999 -9999 -9999 -9999 -9999 -9999 -9999 -9999 -9999 -9999 -9999 -9999 -9999 -9999 -9999 -9999 -9999 -9999 -9999 -9999 -9999 -9999 -9999 -9999 -9999 -9999 -9999 -9999 -9999 -9999 -9999 -9999 -9999 -9999 -9999 -9999 -9999 -9999 -9999 -9999 -9999 -9999 -9999 -9999 -9999 -9999 -9999 -9999 -9999 -9999 -9999 -9999 -9999 -9999 -9999 -9999 -9999 -9999 -9999 -9999 -9999 -9999 -9999 -9999 -9999 -9999 -9999 -9999 -9999 -9999 -9999 -9999 -9999 -9999 -9999 -9999 -9999 -9999 -9999 -9999 -9999 -9999 -9999 -9999 -9999 -9999 -9999 -9999 -9999 -9999 -9999 -9999 -9999 -9999 -9999 -9999 -9999 -9999 -9999 -9999 -9999 -9999 -9999 -9999 853.3682 853.5237 853.8175 853.5002 853.2311 851.756 849.8768 848.7715 847.9565 847.2317 846.594 846.0975 845.7507 845.4009 844.9951 844.5451 844.1117 843.7458 843.3845 843.0674 842.985 842.662 842.3146 842.0128 841.7296 841.5104 841.4949 841.3821 841.3402 841.2779 841.2342 841.188 841.1475 841.1084 841.0726 841.0385 841.0035 840.9678 840.9307 840.8906 840.8469 840.8008 840.7568 840.7148 840.677 840.6411 840.5999 840.5504 840.4916 840.4209 840.337 840.2426 840.1437 840.051 839.9789 839.843 839.6976 839.5519 839.4141 839.2905 839.1848 839.0966 839.0289 838.9877 838.9711 838.9677 838.9702 838.9879 839.038 839.124 839.2358 839.3611 839.4904 839.6166 839.7319 839.8254 839.8866 839.9053 839.8767 839.8073 839.7058 839.5781 839.4254 839.2433 839.028 838.7949 838.5869 838.4583 838.3302 838.2193 838.1173 838.0232 837.9386 837.8654 837.8048 837.7574 837.7238 837.7042 837.6982 837.7048 837.7228 837.7509 837.7878 837.8323 837.8829 837.9379 837.9955 838.0548 838.1151 838.1762 838.2375 838.2976 838.354 838.4032 838.4404 838.46 838.4828 838.5021 838.5222 838.5455 838.574 838.6074 838.6442 838.6821 838.7188 838.7523 838.7824 838.8104 838.8387 838.8694 838.9033 838.9388 838.9722 838.9989 839.0144 839.0156 839.0013 838.9738 838.9369 838.8969 838.8607 838.8334 838.8176 838.8152 838.8256 838.8439 838.863 838.8785 838.8898 838.8954 838.8898 838.869 838.84 838.8148 838.8052 838.8235 838.8806 838.9829 839.136 839.3461 839.6223 839.982 840.4408 840.9889 841.4979 841.9659 842.3868 842.7433 843.0289 843.3179 843.5808 843.8114 844.0273 844.2571 844.5504 845.0293 845.5746 846.0753 846.4376 846.7191 846.9415 847.0935 847.1687 847.181 847.1521 847.1095 847.091 847.136 847.2814 847.5341 847.8544 848.3744 848.7656 849.0265 849.3101 849.6436 -9999 -9999 -9999 -9999 -9999 -9999 -9999 -9999 -9999 -9999 -9999 -9999 -9999 -9999 -9999 -9999 -9999 -9999 -9999 -9999 -9999 -9999 -9999 -9999 -9999 -9999 -9999 -9999 -9999 -9999 -9999 -9999 -9999 -9999
-9999 -9999 -9999 -9999 -9999 -9999 -9999 -9999 -9999 -9999 -9999 -9999 -9999 -9999 -9999 -9999 -9999 -9999 -9999 -9999 -9999 -9999 -9999 -9999 -9999 -9999 -9999 -9999 -9999 -9999 -9999 -9999 -9999 -9999 -9999 -9999 -9999 -9999 -9999 -9999 -9999 -9999 -9999 -9999 -9999 -9999 -9999 -9999 -9999 -9999 -9999 -9999 -9999 -9999 -9999 -9999 -9999 -9999 -9999 -9999 -9999 -9999 -9999 -9999 -9999 -9999 -9999 -9999 -9999 -9999 -9999 -9999 -9999 -9999 -9999 -9999 -9999 -9999 -9999 -9999 -9999 -9999 -9999 -9999 -9999 -9999 -9999 -9999 -9999 -9999 -9999 -9999 -9999 -9999 -9999 -9999 -9999 -9999 -9999 -9999 -9999 -9999 -9999 -9999 -9999 -9999 -9999 -9999 -9999 -9999 -9999 -9999 -9999 -9999 854.0149 854.4615 854.6531 854.7205 853.3022 850.9904 848.9677 848.1688 847.4761 846.8655 846.3836 846.0759 845.7822 845.4174 844.9922 844.5531 844.1521 843.7878 843.4911 843.3078 843.0262 842.6902 842.3598 842.0582 841.8222 841.6768 841.5074 841.4966 841.3931 841.3524 841.2894 841.2443 841.1981 841.161 841.129 841.0943 841.0593 841.0239 840.985 840.9403 840.8936 840.8497 840.8127 840.7799 840.75 840.7167 840.6726 840.6155 840.5444 840.4581 840.3562 840.2407 840.1146 839.9814 839.876 839.7474 839.6053 839.4633 839.3328 839.2188 839.1217 839.0448 838.9944 838.9683 838.9556 838.9521 838.9694 839.0253 839.1223 839.2476 839.3887 839.5367 839.6851 839.8268 839.9497 840.0418 840.0894 840.0814 840.0228 839.9245 839.7946 839.637 839.4463 839.2201 838.9645 838.7059 838.4651 838.3619 838.2529 838.1437 838.0409 837.9485 837.869 837.8038 837.7533 837.7183 837.6989 837.6942 837.7031 837.7238 837.7548 837.7949 837.8427 837.8969 837.9558 838.0175 838.0807 838.1443 838.2074 838.2689 838.3274 838.3807 838.426 838.46 838.4752 838.494 838.5134 838.534 838.5575 838.5856 838.6187 838.6556 838.6946 838.733 838.7687 838.8005 838.8296 838.8582 838.8885 838.9218 838.9573 838.9917 839.0205 839.0391 839.0436 839.0323 839.0065 838.9697 838.928 838.8882 838.856 838.8351 838.8279 838.8341 838.8497 838.8682 838.8846 838.8973 838.9054 838.9043 838.8892 838.8636 838.8387 838.8262 838.8379 838.8854 838.9767 839.1188 839.3215 839.598 839.958 840.3046 840.8812 841.4886 841.9173 842.3177 842.6949 843.0303 843.3384 843.6173 843.8732 844.1171 844.3514 844.5746 845.059 845.5935 846.0756 846.4146 846.6721 846.8825 847.0394 847.1281 847.1555 847.1443 847.1215 847.1232 847.1903 847.3561 847.6469 847.9967 847.7033 848.1382 848.4355 848.7782 849.1709 -9999 -9999 -9999 -9999 -9999 -9999 -9999 -9999 -9999 -9999 -9999 -9999 -9999 -9999 -9999 -9999 -9999 -9999 -9999 -9999 -9999 -9999 -9999 -9999 -9999 -9999 -9999 -9999 -9999 -9999 -9999 -9999 -9999 -9999
-9999 -9999 -9999 -9999 -9999 -9999 -9999 -9999 -9999 -9999 -9999 -9999 -9999 -9999 -9999 -9999 -9999 -9999 -9999 -9999 -9999 -9999 -9999 -9999 -9999 -9999 -9999 -9999 -9999 -9999 -9999 -9999 -9999 -9999 -9999 -9999 -9999 -9999 -9999 -9999 -9999 -9999 -9999 -9999 -9999 -9999 -9999 -9999 -9999 -9999 -9999 -9999 -9999 -9999 -9999 -9999 -9999 -9999 -9999 -9999 -9999 -9999 -9999 -9999 -9999 -9999 -9999 -9999 -9999 -9999 -9999 -9999 -9999 -9999 -9999 -9999 -9999 -9999 -9999 -9999 -9999 -9999 -9999 -9999 -9999 -9999 -9999 -9999 -9999 -9999 -9999 -9999 -9999 -9999 -9999 -9999 -9999 -9999 -9999 -9999 -9999 -9999 -9999 -9999 -9999 -9999 -9999 -9999 -9999 -9999 -9999 -9999 -9999 -9999 -9999 855.1017 855.6945 855.3709 854.3713 851.9305 849.3901 848.0442 847.2617 846.7531 846.4193 846.2314 846.0723 845.783 845.3966 844.9689 844.5525 844.1796 843.8661 843.6101 843.3296 843.0257 842.7095 842.4205 842.1974 841.9928 841.7913 841.6593 841.5058 841.4971 841.397 841.357 841.2958 841.259 841.2321 841.194 841.1586 841.1266 841.0903 841.0433 840.9949 840.952 840.9193 840.895 840.873 840.8483 840.814 840.7629 840.6934 840.6068 840.5029 840.3818 840.2461 840.1054 839.9798 839.8395 839.6875 839.5354 839.3955 839.2726 839.1643 839.0739 839.0096 838.9697 838.9438 838.9307 838.9452 839.006 839.1127 839.2491 839.4022 839.566 839.7363 839.9079 840.0682 840.2022 840.2886 840.3048 840.2566 840.1615 840.0345 839.8724 839.6775 839.446 839.1722 838.8968 838.6197 838.4572 838.307 838.1774 838.061 837.9586 837.8718 837.8016 837.7484 837.7123 837.6931 837.6902 837.7015 837.7251 837.7592 837.8023 837.8534 837.9113 837.974 838.0399 838.1071 838.1738 838.2384 838.2993 838.3548 838.4032 838.4406 838.46 838.4829 838.5046 838.5255 838.5469 838.5706 838.5981 838.6307 838.6678 838.7075 838.7474 838.785 838.8188 838.8492 838.8783 838.9086 838.9415 838.9769 839.0121 839.0427 839.064 839.0718 839.0637 839.04 839.004 838.9611 838.9183 838.882 838.8558 838.8436 838.8457 838.8588 838.8763 838.8933 838.9072 838.9175 838.9203 838.9106 838.8892 838.8656 838.8516 838.8582 838.8966 838.9749 839.0981 839.2709 839.4921 839.7511 840.0441 840.7158 841.4175 841.7979 842.2205 842.6478 843.0313 843.3552 843.6469 843.9316 844.2261 844.5375 844.7764 845.1805 845.6503 846.0786 846.3799 846.6089 846.8032 846.9622 847.0659 847.1133 847.1243 847.1268 847.1503 847.2282 847.3803 847.587 847.7513 847.6547 847.9733 848.0252 848.3199 848.7216 849.2303 -9999 -9999 -9999 -9999 -9999 -9999 -9999 -9999 -9999 -9999 -9999 -9999 -9999 -9999 -9999 -9999 -9999 -9999 -9999 -9999 -9999 -9999 -9999 -9999 -9999 -9999 -9999 -9999 -9999 -9999 -9999 -9999 -9999
-9999 -9999 -9999 -9999 -9999 -9999 -9999 -9999 -9999 -9999 -9999 -9999 -9999 -9999 -9999 -9999 -9999 -9999 -9999 -9999 -9999 -9999 -9999 -9999 -9999 -9999 -9999 -9999 -9999 -9999 -9999 -9999 -9999 -9999 -9999 -9999 -9999 -9999 -9999 -9999 -9999 -9999 -9999 -9999 -9999 -9999 -9999 -9999 -9999 -9999 -9999 -9999 -9999 -9999 -9999 -9999 -9999 -9999 -9999 -9999 -9999 -9999 -9999 -9999 -9999 -9999 -9999 -9999 -9999 -9999 -9999 -9999 -9999 -9999 -9999 -9999 -9999 -9999 -9999 -9999 -9999 -9999 -9999 -9999 -9999 -9999 -9999 -9999 -9999 -9999 -9999 -9999 -9999 -9999 -9999 -9999 -9999 -9999 -9999 -9999 -9999 -9999 -9999 -9999 -9999 -9999 -9999 -9999 -9999 -9999 -9999 -9999 -9999 -9999 -9999 -9999 855.9755 855.9575 855.1011 852.7935 850.1586 848.2147 847.1998 846.6644 846.3992 846.298 846.2306 846.0717 845.7517 845.3513 844.9366 844.5505 844.2094 843.9037 843.6035 843.3069 843.0244 842.7637 842.6038 842.3761 842.1409 841.9489 841.7712 841.6529 841.5056 841.4973 841.3987 841.3688 841.3535 841.3011 841.2644 841.2394 841.209 841.1565 841.1041 841.0643 841.0369 841.0215 841.0104 840.9962 840.9727 840.9313 840.8656 840.7814 840.6811 840.563 840.4268 840.2817 840.1368 839.9798 839.809 839.6378 839.484 839.3536 839.23 839.1198 839.0367 838.9801 838.9376 838.9105 838.9183 838.9803 839.0934 839.2378 839.3991 839.5746 839.7652 839.9681 840.1718 840.3596 840.5 840.5439 840.5026 840.4053 840.2778 840.1194 839.9214 839.684 839.3739 839.056 838.735 838.4665 838.345 838.2115 838.0826 837.9691 837.8744 837.7993 837.7435 837.7065 837.6881 837.6871 837.7013 837.7278 837.7649 837.811 837.8655 837.9269 837.9938 838.0639 838.1351 838.2047 838.2701 838.3293 838.3807 838.4243 838.46 838.476 838.496 838.5177 838.5394 838.5615 838.5853 838.6125 838.6445 838.6813 838.7215 838.7626 838.8019 838.8376 838.8699 838.8998 838.9303 838.9629 838.998 839.0336 839.0657 839.0895 839.1005 839.0957 839.0746 839.0399 838.9969 838.952 838.9119 838.8812 838.8636 838.8612 838.8715 838.8882 838.9055 838.9206 838.9326 838.9385 838.933 838.9152 838.8932 838.8787 838.8818 838.9125 838.9788 839.085 839.2338 839.4259 839.6648 839.9868 840.5461 841.1321 841.5485 842.0797 842.5892 843.0308 843.342 843.6349 843.9346 844.2419 844.5528 844.8744 845.2686 845.6982 846.081 846.3323 846.5331 846.7125 846.871 846.9878 847.0547 847.0865 847.1091 847.1478 847.2242 847.3468 847.491 847.5902 847.6 847.7354 847.7888 847.9928 848.3603 849.0112 -9999 -9999 -9999 -9999 -9999 -9999 -9999 -9999 -9999 -9999 -9999 -9999 -9999 -9999 -9999 -9999 -9999 -9999 -9999 -9999 -9999 -9999 -9999 -9999 -9999 -9999 -9999 -9999 -9999 -9999 -9999 -9999 -9999
-9999 -9999 -9999 -9999 -9999 -9999 -9999 -9999 -9999 -9999 -9999 -9999 -9999 -9999 -9999 -9999 -9999 -9999 -9999 -9999 -9999 -9999 -9999 -9999 -9999 -9999 -9999 -9999 -9999 -9999 -9999 -9999 -9999 -9999 -9999 -9999 -9999 -9999 -9999 -9999 -9999 -9999 -9999 -9999 -9999 -9999 -9999 -9999 -9999 -9999 -9999 -9999 -9999 -9999 -9999 -9999 -9999 -9999 -9999 -9999 -9999 -9999 -9999 -9999 -9999 -9999 -9999 -9999 -9999 -9999 -9999 -9999 -9999 -9999 -9999 -9999 -9999 -9999 -9999 -9999 -9999 -9999 -9999 -9999 -9999 -9999 -9999 -9999 -9999 -9999 -9999 -9999 -9999 -9999 -9999 -9999 -9999 -9999 -9999 -9999 -9999 -9999 -9999 -9999 -9999 -9999 -9999 -9999 -9999 -9999 -9999 -9999 -9999 -9999 -9999 -9999 856.1766 856.4855 855.5852 853.4918 851.0148 848.8898 847.6065 846.9006 846.5642 846.4613 846.4162 846.3048 846.071 845.7081 845.302 844.9102 844.5513 844.2071 843.8757 843.5628 843.2792 843.0466 843.0045 842.7528 842.4971 842.2999 842.1094 841.9413 841.7697 841.6492 841.5048 841.4998 841.4983 841.4077 841.3748 841.363 841.3451 841.2771 841.2219 841.1868 841.1689 841.1614 841.1602 841.1581 841.1467 841.116 841.0522 840.9735 840.8833 840.7747 840.6411 840.4943 840.3402 840.1705 839.9799 839.781 839.6069 839.4763 839.3304 839.19 839.0824 839.007 838.9454 838.9001 838.8952 838.9514 839.0647 839.2115 839.3766 839.5596 839.7668 839.9995 840.2477 840.4969 840.7109 840.7927 840.7594 840.6559 840.5325 840.3812 840.1641 839.8965 839.5817 839.2518 838.9219 838.635 838.4548 838.2679 838.1115 837.9821 837.8783 837.7982 837.7399 837.7024 837.6851 837.686 837.7031 837.7328 837.7729 837.8222 837.8801 837.9452 838.016 838.0903 838.1652 838.2374 838.3035 838.3599 838.4044 838.4376 838.46 838.4851 838.5089 838.5323 838.5551 838.5779 838.6021 838.6292 838.6607 838.6972 838.7374 838.7792 838.8201 838.8577 838.8917 838.923 838.9539 838.9862 839.0209 839.0568 839.09 839.116 839.1299 839.1284 839.1107 839.0781 839.0356 838.9893 838.9462 838.9114 838.8892 838.882 838.8887 838.9041 838.9219 838.9382 838.9518 838.9598 838.9573 838.9421 838.9214 838.9064 838.9073 838.9325 838.9895 839.0837 839.2198 839.4054 839.6517 839.983 840.4335 840.9786 841.5005 841.9963 842.5148 843.0008 843.2572 843.5653 843.8945 844.2238 844.5519 844.9102 845.3021 845.7075 846.0699 846.2482 846.4412 846.6215 846.7797 846.9051 846.9862 847.0328 847.0673 847.1141 847.1874 847.2906 847.4064 847.4985 847.5476 847.6002 847.6105 847.7036 848.0106 848.7577 -9999 -9999 -9999 -9999 -9999 -9999 -9999 -9999 -9999 -9999 -9999 -9999 -9999 -9999 -9999 -9999 -9999 -9999 -9999 -9999 -9999 -9999 -9999 -9999 -9999 -9999 -9999 -9999 -9999 -9999 -9999 -9999 -9999
-9999 -9999 -9999 -9999 -9999 -9999 -9999 -9999 -9999 -9999 -9999 -9999 -9999 -9999 -9999 -9999 -9999 -9999 -9999 -9999 -9999 -9999 -9999 -9999 -9999 -9999 -9999 -9999 -9999 -9999 -9999 -9999 -9999 -9999 -9999 -9999 -9999 -9999 -9999 -9999 -9999 -9999 -9999 -9999 -9999 -9999 -9999 -9999 -9999 -9999 -9999 -9999 -9999 -9999 -9999 -9999 -9999 -9999 -9999 -9999 -9999 -9999 -9999 -9999 -9999 -9999 -9999 -9999 -9999 -9999 -9999 -9999 -9999 -9999 -9999 -9999 -9999 -9999 -9999 -9999 -9999 -9999 -9999 -9999 -9999 -9999 -9999 -9999 -9999 -9999 -9999 -9999 -9999 -9999 -9999 -9999 -9999 -9999 -9999 -9999 -9999 -9999 -9999 -9999 -9999 -9999 -9999 -9999 -9999 -9999 -9999 -9999 -9999 -9999 -9999 -9999 -9999 857.0699 855.9306 854.0277 851.9457 850.0339 848.5372 847.5988 847.0814 846.8981 846.7916 846.6395 846.4031 846.0717 845.6709 845.2839 844.9359 844.5565 844.1843 843.8476 843.569 843.3668 843.2448 843.0283 842.7966 842.6611 842.4759 842.3022 842.1094 841.9307 841.7726 841.6921 841.6169 841.5031 841.4997 841.5003 841.4982 841.3962 841.3481 841.3271 841.3188 841.3197 841.3224 841.3279 841.3282 841.3106 841.2378 841.1672 841.0973 841.0081 840.8775 840.7344 840.5863 840.4191 840.2153 839.9802 839.7747 839.6674 839.4833 839.2969 839.1611 839.0677 838.9838 838.9142 838.8873 838.9277 839.0314 839.1724 839.3348 839.521 839.7403 839.9978 840.2844 840.586 840.8651 841.0364 841.0286 840.9198 840.8146 840.6874 840.4352 840.1335 839.8157 839.491 839.1534 838.8083 838.4778 838.3092 838.1415 837.9982 837.8854 837.8003 837.7396 837.7019 837.6858 837.689 837.7088 837.7415 837.7849 837.8373 837.8982 837.9668 838.0414 838.1194 838.1978 838.2726 838.3394 838.3934 838.4319 838.46 838.48 838.5024 838.5259 838.5497 838.5732 838.5967 838.6212 838.6483 838.6796 838.7156 838.7557 838.7981 838.8402 838.8795 838.9153 838.9479 838.9794 839.0116 839.0459 839.0817 839.1158 839.1437 839.1605 839.1625 839.148 839.1185 839.0774 839.0306 838.9853 838.9473 838.921 838.9093 838.912 838.9252 838.9429 838.9606 838.9758 838.9856 838.985 838.9717 838.9515 838.936 838.9348 838.9554 839.0048 839.0887 839.2139 839.3918 839.6375 839.9634 840.2884 840.8287 841.4327 841.8369 842.3165 842.7592 843.0529 843.4554 843.8412 844.2033 844.5508 844.9115 845.2795 845.6339 845.9224 846.0878 846.3367 846.5417 846.7014 846.8283 846.9174 846.9708 847.0089 847.0565 847.1285 847.2261 847.3389 847.4478 847.5372 847.6 847.5438 847.5366 847.749 848.4367 850.0294 -9999 -9999 -9999 -9999 -9999 -9999 -9999 -9999 -9999 -9999 -9999 -9999 -9999 -9999 -9999 -9999 -9999 -9999 -9999 -9999 -9999 -9999 -9999 -9999 -9999 -9999 -9999 -9999 -9999 -9999 -9999 -9999
-9999 -9999 -9999 -9999 -9999 -9999 -9999 -9999 -9999 -9999 -9999 -9999 -9999 -9999 -9999 -9999 -9999 -9999 -9999 -9999 -9999 -9999 -9999 -9999 -9999 -9999 -9999 -9999 -9999 -9999 -9999 -9999 -9999 -9999 -9999 -9999 -9999 -9999 -9999 -9999 -9999 -9999 -9999 -9999 -9999 -9999 -9999 -9999 -9999 -9999 -9999 -9999 -9999 -9999 -9999 -9999 -9999 -9999 -9999 -9999 -9999 -9999 -9999 -9999 -9999 -9999 -9999 -9999 -9999 -9999 -9999 -9999 -9999 -9999 -9999 -9999 -9999 -9999 -9999 -9999 -9999 -9999 -9999 -9999 -9999 -9999 -9999 -9999 -9999 -9999 -9999 -9999 -9999 -9999 -9999 -9999 -9999 -9999 -9999 -9999 -9999 -9999 -9999 -9999 -9999 -9999 -9999 -9999 -9999 -9999 -9999 -9999 -9999 -9999 -9999 -9999 -9999 -9999 856.3088 854.6058 852.9857 851.4374 849.975 848.7773 848.0426 847.7379 847.473 847.1838 846.8677 846.4943 846.0803 845.6973 845.4094 845.0032 844.5594 844.1752 843.881 843.6863 843.5066 843.2813 843.0484 843.0118 842.8145 842.6785 842.4741 842.2646 842.0894 841.9584 841.8447 841.738 841.6938 841.6611 841.6091 841.5035 841.4997 841.5001 841.5001 841.5001 841.5001 841.5001 841.5004 841.4979 841.3973 841.3445 841.3079 841.2537 841.1199 840.9901 840.8701 840.7334 840.54 840.2661 840.0057 839.9583 839.7029 839.4575 839.3007 839.1984 839.0835 838.979 838.917 838.9271 839.007 839.1302 839.2816 839.4656 839.6951 839.9738 840.2954 840.6489 841.0093 841.2964 841.3274 841.2234 841.1588 841.0742 840.7474 840.4009 840.0835 839.7814 839.4612 839.114 838.7544 838.4518 838.199 838.0239 837.8993 837.809 837.7459 837.7076 837.6921 837.6971 837.7196 837.7555 837.8019 837.8572 837.9211 837.9927 838.0703 838.1514 838.2322 838.3088 838.3763 838.4288 838.46 838.4835 838.5029 838.5237 838.5463 838.5701 838.5942 838.6183 838.6432 838.6704 838.7014 838.7371 838.777 838.8197 838.8627 838.9036 838.941 838.9751 839.0073 839.0393 839.0731 839.1086 839.1433 839.1727 839.1923 839.1977 839.1871 839.1609 839.1222 839.0761 839.0296 838.989 838.9595 838.944 838.943 838.9531 838.9698 838.9884 839.0052 839.0168 839.0179 839.006 838.9861 838.9695 838.9658 838.9815 839.0225 839.0939 839.2014 839.3521 839.5475 839.7756 840.0193 840.5598 841.1218 841.5535 842.1066 842.6121 843.0284 843.4284 843.819 844.1959 844.5511 844.8942 845.2368 845.5679 845.8553 846.0798 846.3055 846.4951 846.6436 846.7615 846.8519 846.9076 846.9431 846.9858 847.0549 847.1537 847.2729 847.3998 847.5171 847.5999 847.573 847.561 847.7664 848.4807 850.0689 -9999 -9999 -9999 -9999 -9999 -9999 -9999 -9999 -9999 -9999 -9999 -9999 -9999 -9999 -9999 -9999 -9999 -9999 -9999 -9999 -9999 -9999 -9999 -9999 -9999 -9999 -9999 -9999 -9999 -9999 -9999 -9999
-9999 -9999 -9999 -9999 -9999 -9999 -9999 -9999 -9999 -9999 -9999 -9999 -9999 -9999 -9999 -9999 -9999 -9999 -9999 -9999 -9999 -9999 -9999 -9999 -9999 -9999 -9999 -9999 -9999 -9999 -9999 -9999 -9999 -9999 -9999 -9999 -9999 -9999 -9999 -9999 -9999 -9999 -9999 -9999 -9999 -9999 -9999 -9999 -9999 -9999 -9999 -9999 -9999 -9999 -9999 -9999 -9999 -9999 -9999 -9999 -9999 -9999 -9999 -9999 -9999 -9999 -9999 -9999 -9999 -9999 -9999 -9999 -9999 -9999 -9999 -9999 -9999 -9999 -9999 -9999 -9999 -9999 -9999 -9999 -9999 -9999 -9999 -9999 -9999 -9999 -9999 -9999 -9999 -9999 -9999 -9999 -9999 -9999 -9999 -9999 -9999 -9999 -9999 -9999 -9999 -9999 -9999 -9999 -9999 -9999 -9999 -9999 -9999 -9999 -9999 -9999 -9999 -9999 856.9041 855.4443 854.111 852.8213 851.6153 850.5089 849.64 849.0672 848.4884 847.9628 847.524 847.0587 846.5898 846.173 845.9896 845.5347 845.0209 844.5565 844.2239 844.0576 843.8454 843.626 843.3945 843.2369 843.0419 843.0151 842.8028 842.5825 842.4136 842.2635 842.1337 842.0206 841.946 841.8887 841.8269 841.7569 841.7382 841.7321 841.7249 841.713 841.697 841.677 841.6489 841.5998 841.5021 841.4997 841.5006 841.4944 841.3395 841.2449 841.1802 841.1095 840.9755 840.6934 840.4388 840.2751 839.993 839.7089 839.5533 839.4601 839.2914 839.1371 839.0199 838.9797 839.015 839.1046 839.234 839.4109 839.6514 839.9548 840.3116 840.712 841.1519 841.5841 841.6584 841.6861 841.6708 841.5048 841.0938 840.6993 840.3829 840.1063 839.7938 839.4254 838.9936 838.4749 838.2179 838.0483 837.922 837.8279 837.7618 837.722 837.7064 837.7128 837.7374 837.7761 837.8254 837.8837 837.95 838.0236 838.1029 838.1853 838.2668 838.3431 838.4092 838.46 838.4847 838.5057 838.5256 838.5465 838.5692 838.5934 838.6182 838.6431 838.6685 838.6959 838.7267 838.7617 838.8013 838.8441 838.8878 838.9302 838.9694 839.0049 839.0377 839.0698 839.1031 839.1379 839.1726 839.2031 839.2252 839.2343 839.2277 839.2054 839.1699 839.1257 839.0793 839.037 839.0048 838.9863 838.9822 838.9895 839.0044 839.0228 839.0407 839.054 839.057 839.047 839.0275 839.0094 839.0024 839.0122 839.0435 839.1009 839.1895 839.3162 839.4861 839.7024 839.9822 840.4172 840.9587 841.4971 842.0087 842.5387 843.0292 843.4064 843.7908 844.1845 844.5521 844.8555 845.1763 845.5088 845.8204 846.0809 846.2795 846.4471 846.5864 846.6989 846.787 846.8445 846.8757 846.9106 846.975 847.0742 847.1993 847.338 847.4764 847.6 847.688 847.7634 848.0789 848.9818 850.3276 851.641 -9999 -9999 -9999 -9999 -9999 -9999 -9999 -9999 -9999 -9999 -9999 -9999 -9999 -9999 -9999 -9999 -9999 -9999 -9999 -9999 -9999 -9999 -9999 -9999 -9999 -9999 -9999 -9999 -9999 -9999 -9999
-9999 -9999 -9999 -9999 -9999 -9999 -9999 -9999 -9999 -9999 -9999 -9999 -9999 -9999 -9999 -9999 -9999 -9999 -9999 -9999 -9999 -9999 -9999 -9999 -9999 -9999 -9999 -9999 -9999 -9999 -9999 -9999 -9999 -9999 -9999 -9999 -9999 -9999 -9999 -9999 -9999 -9999 -9999 -9999 -9999 -9999 -9999 -9999 -9999 -9999 -9999 -9999 -9999 -9999 -9999 -9999 -9999 -9999 -9999 -9999 -9999 -9999 -9999 -9999 -9999 -9999 -9999 -9999 -9999 -9999 -9999 -9999 -9999 -9999 -9999 -9999 -9999 -9999 -9999 -9999 -9999 -9999 -9999 -9999 -9999 -9999 -9999 -9999 -9999 -9999 -9999 -9999 -9999 -9999 -9999 -9999 -9999 -9999 -9999 -9999 -9999 -9999 -9999 -9999 -9999 -9999 -9999 -9999 -9999 -9999 -9999 -9999 -9999 -9999 -9999 -9999 -9999 -9999 -9999 856.2451 855.1315 853.9633 852.8928 851.9306 851.3533 850.7473 849.7207 848.8988 848.3616 847.7714 847.2573 846.8485 846.5316 846.074 845.5282 845.0063 844.6053 844.5056 844.2368 844.0371 843.769 843.5223 843.3136 843.2024 843.0283 842.8351 842.7226 842.5709 842.4421 842.3193 842.23 842.1669 842.1127 842.0615 842.0275 842.0034 841.9789 841.9471 841.9098 841.8682 841.8199 841.7603 841.6945 841.6804 841.6727 841.6333 841.5085 841.5001 841.5016 841.5018 841.4592 841.1549 840.9485 840.8 840.5574 840.1949 840.0182 839.9303 839.6587 839.4523 839.2493 839.1321 839.0916 839.1223 839.2159 839.3822 839.6393 839.9865 840.3948 840.8426 841.3363 841.9023 842.6329 842.8912 842.8671 842.3322 841.621 841.0876 840.7299 840.4544 840.0912 839.6096 839.0596 838.4955 838.28 838.1061 837.9666 837.8625 837.7905 837.7476 837.7308 837.7377 837.7638 837.8047 837.8567 837.9172 837.9854 838.0601 838.1395 838.2209 838.3004 838.3727 838.4301 838.4601 838.4954 838.5237 838.548 838.571 838.595 838.62 838.6456 838.6714 838.6975 838.7251 838.7556 838.7902 838.8291 838.8719 838.9161 838.9595 839.0002 839.0372 839.0709 839.103 839.1359 839.1699 839.2042 839.2355 839.2596 839.2721 839.2698 839.2521 839.2207 839.1792 839.1342 839.0917 839.0577 839.0366 839.03 839.0352 839.0482 839.0655 839.0835 839.0977 839.103 839.0958 839.0776 839.0582 839.0472 839.0498 839.0698 839.1119 839.1814 839.2872 839.4418 839.6609 839.9634 840.2758 840.8124 841.4279 841.8663 842.4211 842.9825 843.3055 843.7017 844.1288 844.5315 844.7623 845.0779 845.4316 845.7765 846.0738 846.2166 846.3702 846.5098 846.6287 846.7195 846.7779 846.8079 846.8361 846.8953 846.9941 847.1197 847.2588 847.4056 847.5724 847.7889 847.9755 848.5322 849.6013 850.8359 851.512 -9999 -9999 -9999 -9999 -9999 -9999 -9999 -9999 -9999 -9999 -9999 -9999 -9999 -9999 -9999 -9999 -9999 -9999 -9999 -9999 -9999 -9999 -9999 -9999 -9999 -9999 -9999 -9999 -9999 -9999 -9999
-9999 -9999 -9999 -9999 -9999 -9999 -9999 -9999 -9999 -9999 -9999 -9999 -9999 -9999 -9999 -9999 -9999 -9999 -9999 -9999 -9999 -9999 -9999 -9999 -9999 -9999 -9999 -9999 -9999 -9999 -9999 -9999 -9999 -9999 -9999 -9999 -9999 -9999 -9999 -9999 -9999 -9999 -9999 -9999 -9999 -9999 -9999 -9999 -9999 -9999 -9999 -9999 -9999 -9999 -9999 -9999 -9999 -9999 -9999 -9999 -9999 -9999 -9999 -9999 -9999 -9999 -9999 -9999 -9999 -9999 -9999 -9999 -9999 -9999 -9999 -9999 -9999 -9999 -9999 -9999 -9999 -9999 -9999 -9999 -9999 -9999 -9999 -9999 -9999 -9999 -9999 -9999 -9999 -9999 -9999 -9999 -9999 -9999 -9999 -9999 -9999 -9999 -9999 -9999 -9999 -9999 -9999 -9999 -9999 -9999 -9999 -9999 -9999 -9999 -9999 -9999 -9999 -9999 -9999 -9999 855.733 854.5188 853.4754 852.4473 851.9783 851.5954 851.0248 849.9226 849.327 848.5313 847.9598 847.5474 847.146 846.665 846.0973 845.554 845.1461 844.9241 844.6205 844.5043 844.165 843.8318 843.5701 843.3954 843.2205 843.0405 843.0178 842.8461 842.7432 842.6069 842.5164 842.4648 842.428 842.3879 842.3333 842.2866 842.2425 842.188 842.1302 842.0737 842.0175 841.9617 841.9146 841.8981 841.8945 841.88 841.8409 841.845 841.8525 841.8379 841.7554 841.5394 841.5073 841.5181 841.4544 841.2255 840.8317 840.5752 840.2333 840.0311 839.6792 839.4541 839.2867 839.2153 839.2527 839.402 839.6882 840.1129 840.6331 841.2066 841.8797 842.8171 843.589 843.9585 844.0675 843.3176 842.4181 841.6285 841.1445 840.8273 840.3486 839.7911 839.2114 838.7072 838.4493 838.2026 838.03 837.9117 837.8325 837.7855 837.7668 837.7729 837.7999 837.8426 837.8966 837.959 838.0281 838.1028 838.1807 838.2589 838.3337 838.402 838.46 838.4861 838.5169 838.5467 838.5737 838.599 838.6243 838.6503 838.6768 838.7034 838.7302 838.7581 838.7885 838.8226 838.861 838.9034 838.9478 838.992 839.0342 839.0724 839.1071 839.1394 839.1716 839.2047 839.2384 839.2701 839.2959 839.3115 839.3134 839.3005 839.2737 839.2361 839.1934 839.1526 839.1182 839.0952 839.0864 839.0903 839.1021 839.1179 839.1348 839.1492 839.1564 839.1523 839.1369 839.1168 839.1014 839.0961 839.1035 839.1285 839.1769 839.257 839.3794 839.5511 839.7675 840.0157 840.5552 841.1154 841.5613 842.166 842.7015 843.0638 843.5378 843.9781 844.3339 844.5668 844.9436 845.3261 845.6735 845.9425 846.0836 846.2659 846.4173 846.5446 846.6461 846.7078 846.7371 846.7637 846.8216 846.9204 847.0427 847.1649 847.2766 847.3818 847.5098 847.7338 848.6747 850.031 851.4615 852.0089 852.4485 -9999 -9999 -9999 -9999 -9999 -9999 -9999 -9999 -9999 -9999 -9999 -9999 -9999 -9999 -9999 -9999 -9999 -9999 -9999 -9999 -9999 -9999 -9999 -9999 -9999 -9999 -9999 -9999 -9999 -9999
-9999 -9999 -9999 -9999 -9999 -9999 -9999 -9999 -9999 -9999 -9999 -9999 -9999 -9999 -9999 -9999 -9999 -9999 -9999 -9999 -9999 -9999 -9999 -9999 -9999 -9999 -9999 -9999 -9999 -9999 -9999 -9999 -9999 -9999 -9999 -9999 -9999 -9999 -9999 -9999 -9999 -9999 -9999 -9999 -9999 -9999 -9999 -9999 -9999 -9999 -9999 -9999 -9999 -9999 -9999 -9999 -9999 -9999 -9999 -9999 -9999 -9999 -9999 -9999 -9999 -9999 -9999 -9999 -9999 -9999 -9999 -9999 -9999 -9999 -9999 -9999 -9999 -9999 -9999 -9999 -9999 -9999 -9999 -9999 -9999 -9999 -9999 -9999 -9999 -9999 -9999 -9999 -9999 -9999 -9999 -9999 -9999 -9999 -9999 -9999 -9999 -9999 -9999 -9999 -9999 -9999 -9999 -9999 -9999 -9999 -9999 -9999 -9999 -9999 -9999 -9999 -9999 -9999 -9999 -9999 -9999 854.2737 852.9847 852.1054 851.9963 851.9686 851.9551 851.3259 850.0974 849.2017 848.624 848.1815 847.795 847.3009 846.7096 846.104 845.6925 845.4979 845.226 844.9819 844.5708 844.1675 843.8549 843.6647 843.5121 843.3407 843.2186 843.0406 843.0189 842.8535 842.7814 842.7562 842.7437 842.7168 842.6254 842.5572 842.5006 842.4221 842.3481 842.2863 842.2333 842.1877 842.1553 842.1477 842.1635 842.1938 842.2244 842.2385 842.2368 842.2141 842.1593 842.0928 842.1627 842.2979 842.2645 841.9835 841.6151 841.4822 841.3427 841.0739 840.3943 840.0482 839.6622 839.4205 839.3662 839.478 839.7953 840.3318 841.0432 841.847 842.8248 843.7593 844.4423 844.6595 844.7629 844.2873 843.3329 842.4101 841.6415 841.1328 840.5966 839.9884 839.3688 838.8293 838.4608 838.2402 838.0839 837.9686 837.887 837.8365 837.8149 837.8196 837.8464 837.8899 837.9452 838.0088 838.0781 838.1517 838.2269 838.3 838.3666 838.4213 838.4601 838.5031 838.5414 838.5748 838.6042 838.6315 838.6581 838.6849 838.7122 838.7395 838.767 838.7953 838.8256 838.8591 838.8969 838.9387 838.983 839.0278 839.0709 839.1105 839.1462 839.1788 839.2104 839.2426 839.2755 839.3073 839.3342 839.3525 839.3584 839.3502 839.329 839.296 839.2567 839.2185 839.1859 839.1622 839.1517 839.1545 839.166 839.1808 839.1962 839.2097 839.2179 839.2169 839.2048 839.1852 839.1655 839.1516 839.1464 839.1539 839.181 839.2363 839.3313 839.4769 839.6837 839.9784 840.4483 840.9785 841.4954 842.0546 842.578 843.0258 843.4761 843.8953 844.2505 844.5485 844.8922 845.2529 845.5948 845.8805 846.0797 846.2153 846.3376 846.4561 846.562 846.6324 846.6647 846.6938 846.7578 846.8637 846.9874 847.0945 847.171 847.2289 847.3372 847.6548 848.5933 849.9584 851.4149 852.2096 852.8019 -9999 -9999 -9999 -9999 -9999 -9999 -9999 -9999 -9999 -9999 -9999 -9999 -9999 -9999 -9999 -9999 -9999 -9999 -9999 -9999 -9999 -9999 -9999 -9999 -9999 -9999 -9999 -9999 -9999 -9999
-9999 -9999 -9999 -9999 -9999 -9999 -9999 -9999 -9999 -9999 -9999 -9999 -9999 -9999 -9999 -9999 -9999 -9999 -9999 -9999 -9999 -9999 -9999 -9999 -9999 -9999 -9999 -9999 -9999 -9999 -9999 -9999 -9999 -9999 -9999 -9999 -9999 -9999 -9999 -9999 -9999 -9999 -9999 -9999 -9999 -9999 -9999 -9999 -9999 -9999 -9999 -9999 -9999 -9999 -9999 -9999 -9999 -9999 -9999 -9999 -9999 -9999 -9999 -9999 -9999 -9999 -9999 -9999 -9999 -9999 -9999 -9999 -9999 -9999 -9999 -9999 -9999 -9999 -9999 -9999 -9999 -9999 -9999 -9999 -9999 -9999 -9999 -9999 -9999 -9999 -9999 -9999 -9999 -9999 -9999 -9999 -9999 -9999 -9999 -9999 -9999 -9999 -9999 -9999 -9999 -9999 -9999 -9999 -9999 -9999 -9999 -9999 -9999 -9999 -9999 -9999 -9999 -9999 -9999 -9999 -9999 -9999 -9999 851.84 851.9802 852.3135 852.9172 852.8626 851.6497 850.2335 849.4465 848.88 848.5004 847.9122 847.2401 846.5545 846.1068 846.0379 845.7864 845.5396 845.0968 844.6025 844.2219 844.0477 843.9286 843.7213 843.5353 843.3378 843.2102 843.0413 843.0281 843.0288 843.0299 843.0211 842.8695 842.8 842.7528 842.6418 842.5582 842.5039 842.4645 842.4338 842.4154 842.4182 842.4525 842.5264 842.6275 842.6476 842.6391 842.6201 842.5974 842.6029 842.7236 842.9791 842.9707 842.6536 842.4167 842.3341 842.2335 841.9407 841.4709 841.0555 840.2773 839.7777 839.5853 839.603 839.9083 840.5542 841.5007 842.6382 843.5551 844.4442 845.0006 845.2426 845.2893 844.9683 844.2944 843.3296 842.4077 841.6271 840.958 840.2428 839.5468 838.9377 838.478 838.302 838.1592 838.0431 837.9568 837.9012 837.8758 837.8778 837.9033 837.9467 838.0024 838.0662 838.1353 838.2074 838.2796 838.3484 838.4098 838.46 838.4979 838.5381 838.576 838.6104 838.6411 838.6694 838.6969 838.7244 838.7521 838.78 838.8081 838.8367 838.8668 838.8999 838.9367 838.9777 839.0216 839.0667 839.1107 839.1514 839.188 839.2211 839.2523 839.2836 839.3156 839.3469 839.3748 839.3951 839.4048 839.4013 839.3854 839.3583 839.3235 839.2888 839.2592 839.2368 839.2257 839.2278 839.2394 839.2542 839.2681 839.2804 839.2887 839.2898 839.281 839.2623 839.2391 839.2169 839.1995 839.1912 839.1989 839.2329 839.3082 839.4429 839.6577 839.9789 840.424 840.9463 841.4929 842.0277 842.5457 843.0265 843.4666 843.8727 844.2324 844.5499 844.8619 845.1917 845.5256 845.8333 846.0769 846.1666 846.2593 846.3665 846.472 846.5485 846.5889 846.6276 846.7061 846.8302 846.9673 847.0718 847.1257 847.1521 847.2424 847.5638 848.2417 849.3712 850.6816 851.9753 852.9302 853.644 -9999 -9999 -9999 -9999 -9999 -9999 -9999 -9999 -9999 -9999 -9999 -9999 -9999 -9999 -9999 -9999 -9999 -9999 -9999 -9999 -9999 -9999 -9999 -9999 -9999 -9999 -9999 -9999 -9999
-9999 -9999 -9999 -9999 -9999 -9999 -9999 -9999 -9999 -9999 -9999 -9999 -9999 -9999 -9999 -9999 -9999 -9999 -9999 -9999 -9999 -9999 -9999 -9999 -9999 -9999 -9999 -9999 -9999 -9999 -9999 -9999 -9999 -9999 -9999 -9999 -9999 -9999 -9999 -9999 -9999 -9999 -9999 -9999 -9999 -9999 -9999 -9999 -9999 -9999 -9999 -9999 -9999 -9999 -9999 -9999 -9999 -9999 -9999 -9999 -9999 -9999 -9999 -9999 -9999 -9999 -9999 -9999 -9999 -9999 -9999 -9999 -9999 -9999 -9999 -9999 -9999 -9999 -9999 -9999 -9999 -9999 -9999 -9999 -9999 -9999 -9999 -9999 -9999 -9999 -9999 -9999 -9999 -9999 -9999 -9999 -9999 -9999 -9999 -9999 -9999 -9999 -9999 -9999 -9999 -9999 -9999 -9999 -9999 -9999 -9999 -9999 -9999 -9999 -9999 -9999 -9999 -9999 -9999 -9999 -9999 -9999 -9999 -9999 851.7243 852.3027 853.5767 853.8361 853.166 851.7656 850.3582 849.5919 849.1677 848.3065 847.4064 846.7007 846.3142 846.1624 846.0811 846.042 845.6735 845.2524 844.7404 844.588 844.4875 844.1794 843.9612 843.7152 843.5433 843.4041 843.3293 843.2841 843.2479 843.1843 843.0407 843.0314 843.0198 842.847 842.7706 842.7399 842.7217 842.7081 842.7007 842.706 842.7376 842.8259 843.0129 843.0305 843.03 843.0304 843.0305 843.0291 843.0621 843.2657 843.2706 843.0666 843.0235 843.0239 842.9659 842.6436 842.3136 841.8571 841.172 840.3448 839.9728 839.772 839.9573 840.5983 841.6083 842.8012 843.6913 844.5778 845.1797 845.4818 845.542 845.3289 844.8724 844.2217 843.202 842.3123 841.4117 840.5272 839.7507 839.1143 838.6635 838.4533 838.2695 838.1361 838.0403 837.9781 837.9478 837.9464 837.9697 838.0118 838.067 838.1304 838.1984 838.2684 838.3378 838.4028 838.46 838.5067 838.5455 838.5834 838.6196 838.6532 838.684 838.7126 838.7404 838.7682 838.7964 838.825 838.8535 838.8823 838.9124 838.9447 838.9806 839.0205 839.0638 839.1089 839.1534 839.1951 839.2325 839.2661 839.2972 839.3278 839.3588 839.3895 839.4175 839.4395 839.4523 839.4535 839.4427 839.4219 839.393 839.3629 839.3373 839.3179 839.3076 839.3095 839.3215 839.3369 839.3507 839.3621 839.3702 839.3727 839.3658 839.348 839.3217 839.2924 839.2645 839.2423 839.233 839.2487 839.3067 839.431 839.6486 839.9801 840.4252 840.9465 841.4955 842.0236 842.54 843.0289 843.4696 843.8726 844.2353 844.5511 844.8156 845.1105 845.4294 845.7334 845.9695 846.0811 846.181 846.2842 846.3882 846.4656 846.5106 846.5616 846.6635 846.8185 846.9831 847.0992 847.135 847.1132 847.1105 847.2589 847.7035 848.7023 850.1158 851.6207 852.7908 853.7834 854.2179 -9999 -9999 -9999 -9999 -9999 -9999 -9999 -9999 -9999 -9999 -9999 -9999 -9999 -9999 -9999 -9999 -9999 -9999 -9999 -9999 -9999 -9999 -9999 -9999 -9999 -9999 -9999 -9999
-9999 -9999 -9999 -9999 -9999 -9999 -9999 -9999 -9999 -9999 -9999 -9999 -9999 -9999 -9999 -9999 -9999 -9999 -9999 -9999 -9999 -9999 -9999 -9999 -9999 -9999 -9999 -9999 -9999 -9999 -9999 -9999 -9999 -9999 -9999 -9999 -9999 -9999 -9999 -9999 -9999 -9999 -9999 -9999 -9999 -9999 -9999 -9999 -9999 -9999 -9999 -9999 -9999 -9999 -9999 -9999 -9999 -9999 -9999 -9999 -9999 -9999 -9999 -9999 -9999 -9999 -9999 -9999 -9999 -9999 -9999 -9999 -9999 -9999 -9999 -9999 -9999 -9999 -9999 -9999 -9999 -9999 -9999 -9999 -9999 -9999 -9999 -9999 -9999 -9999 -9999 -9999 -9999 -9999 -9999 -9999 -9999 -9999 -9999 -9999 -9999 -9999 -9999 -9999 -9999 -9999 -9999 -9999 -9999 -9999 -9999 -9999 -9999 -9999 -9999 -9999 -9999 -9999 -9999 -9999 -9999 -9999 -9999 -9999 -9999 852.3841 853.7779 854.5095 854.4446 853.5287 852.0258 850.5242 849.2939 848.2429 847.4686 846.8252 846.4172 846.2026 846.1738 846.2146 846.0831 845.9777 845.587 845.3561 845.0505 844.6595 844.4929 844.1692 843.995 843.8765 843.7184 843.6061 843.5425 843.4852 843.4075 843.3685 843.2744 843.0543 843.0276 843.0283 843.0294 843.0298 843.0298 843.0291 843.0281 843.0466 843.2324 843.3309 843.3903 843.446 843.4991 843.515 843.5375 843.6235 843.6251 843.5443 843.5315 843.5226 843.4128 843.1087 842.9608 842.5289 841.9408 841.2742 840.6111 840.0341 839.9513 840.4755 841.4648 842.48 843.3515 844.3887 845.0354 845.3969 845.4754 845.3127 844.9521 844.5025 843.703 842.8156 841.6445 840.6943 839.8989 839.2545 838.7751 838.467 838.3406 838.2242 838.1281 838.0617 838.0273 838.0229 838.0438 838.0839 838.1373 838.1991 838.2653 838.333 838.3989 838.46 838.5128 838.5579 838.5971 838.6339 838.6687 838.7014 838.7319 838.7607 838.7886 838.8164 838.8448 838.8738 838.9028 838.9319 838.9618 838.9937 839.0285 839.0671 839.1095 839.1543 839.1989 839.241 839.2793 839.3135 839.3447 839.3748 839.4048 839.4348 839.4626 839.4856 839.501 839.5062 839.5009 839.4862 839.4639 839.4395 839.4188 839.4039 839.3962 839.3987 839.411 839.4274 839.4423 839.4541 839.4628 839.4663 839.4604 839.4427 839.4139 839.3788 839.3427 839.3096 839.2861 839.2845 839.3235 839.4318 839.6426 839.9799 840.4359 840.959 841.4951 842.0203 842.5387 843.0292 843.4667 843.8633 844.224 844.5413 844.7254 844.9965 845.3123 845.625 845.8916 846.0782 846.1433 846.2268 846.322 846.3967 846.4402 846.4976 846.6233 846.8182 847.0243 847.1686 847.1988 847.1313 847.0359 847.0289 847.2932 848.0443 849.4907 850.9286 852.1351 853.1747 853.9167 -9999 -9999 -9999 -9999 -9999 -9999 -9999 -9999 -9999 -9999 -9999 -9999 -9999 -9999 -9999 -9999 -9999 -9999 -9999 -9999 -9999 -9999 -9999 -9999 -9999 -9999 -9999 -9999
-9999 -9999 -9999 -9999 -9999 -9999 -9999 -9999 -9999 -9999 -9999 -9999 -9999 -9999 -9999 -9999 -9999 -9999 -9999 -9999 -9999 -9999 -9999 -9999 -9999 -9999 -9999 -9999 -9999 -9999 -9999 -9999 -9999 -9999 -9999 -9999 -9999 -9999 -9999 -9999 -9999 -9999 -9999 -9999 -9999 -9999 -9999 -9999 -9999 -9999 -9999 -9999 -9999 -9999 -9999 -9999 -9999 -9999 -9999 -9999 -9999 -9999 -9999 -9999 -9999 -9999 -9999 -9999 -9999 -9999 -9999 -9999 -9999 -9999 -9999 -9999 -9999 -9999 -9999 -9999 -9999 -9999 -9999 -9999 -9999 -9999 -9999 -9999 -9999 -9999 -9999 -9999 -9999 -9999 -9999 -9999 -9999 -9999 -9999 -9999 -9999 -9999 -9999 -9999 -9999 -9999 -9999 -9999 -9999 -9999 -9999 -9999 -9999 -9999 -9999 -9999 -9999 -9999 -9999 -9999 -9999 -9999 -9999 -9999 -9999 -9999 854.1096 855.1853 855.7708 855.4828 854.3002 852.7615 851.2075 849.7239 848.443 847.4703 846.8063 846.4485 846.3005 846.3314 846.2209 846.1479 846.0735 846.0189 845.6814 845.3767 845.1235 844.6938 844.5704 844.4886 844.2122 844.0379 843.9714 843.9433 843.9169 843.8848 843.7771 843.5433 843.4366 843.4076 843.412 843.4238 843.4303 843.4294 843.4283 843.4547 843.5675 843.666 843.7544 843.8657 844.0006 844.0338 844.0394 844.0602 844.0544 844.0269 844.0281 844.0219 843.9254 843.6538 843.4069 843.0301 842.5437 841.9779 841.347 840.5798 840.0146 840.2353 841.14 842.0288 842.9387 843.8533 844.5661 845.0281 845.1323 844.9846 844.6105 844.2857 843.7178 842.9028 841.6874 840.746 839.9766 839.3579 838.8934 838.5927 838.4575 838.321 838.2173 838.1471 838.1102 838.104 838.1229 838.1605 838.2108 838.2697 838.3334 838.3979 838.46 838.5164 838.5668 838.6112 838.6508 838.6873 838.7216 838.7538 838.7841 838.8129 838.8406 838.8685 838.8971 838.9263 838.9557 838.985 839.0147 839.0459 839.0798 839.1173 839.1586 839.2026 839.2469 839.2893 839.3281 839.3628 839.3942 839.424 839.4534 839.4824 839.5097 839.5331 839.5505 839.5594 839.5591 839.5505 839.5355 839.5176 839.5026 839.4928 839.4893 839.4936 839.5062 839.5233 839.5399 839.5539 839.5648 839.5699 839.5649 839.5472 839.5173 839.4787 839.4365 839.396 839.3625 839.3458 839.3628 839.4464 839.6395 839.9786 840.4651 840.9998 841.4962 842.0214 842.5419 843.028 843.4489 843.8217 844.1443 844.3971 844.559 844.8626 845.1886 845.5063 845.7838 845.984 846.0807 846.1786 846.2716 846.3448 846.3856 846.4417 846.5822 846.8153 847.0728 847.2604 847.3082 847.2128 847.0526 846.9386 847.0521 847.6271 848.7748 850.2004 851.3768 852.3005 853.1533 -9999 -9999 -9999 -9999 -9999 -9999 -9999 -9999 -9999 -9999 -9999 -9999 -9999 -9999 -9999 -9999 -9999 -9999 -9999 -9999 -9999 -9999 -9999 -9999 -9999 -9999 -9999 -9999
-9999 -9999 -9999 -9999 -9999 -9999 -9999 -9999 -9999 -9999 -9999 -9999 -9999 -9999 -9999 -9999 -9999 -9999 -9999 -9999 -9999 -9999 -9999 -9999 -9999 -9999 -9999 -9999 -9999 -9999 -9999 -9999 -9999 -9999 -9999 -9999 -9999 -9999 -9999 -9999 -9999 -9999 -9999 -9999 -9999 -9999 -9999 -9999 -9999 -9999 -9999 -9999 -9999 -9999 -9999 -9999 -9999 -9999 -9999 -9999 -9999 -9999 -9999 -9999 -9999 -9999 -9999 -9999 -9999 -9999 -9999 -9999 -9999 -9999 -9999 -9999 -9999 -9999 -9999 -9999 -9999 -9999 -9999 -9999 -9999 -9999 -9999 -9999 -9999 -9999 -9999 -9999 -9999 -9999 -9999 -9999 -9999 -9999 -9999 -9999 -9999 -9999 -9999 -9999 -9999 -9999 -9999 -9999 -9999 -9999 -9999 -9999 -9999 -9999 -9999 -9999 -9999 -9999 -9999 -9999 -9999 -9999 -9999 -9999 -9999 -9999 -9999 855.8453 856.8917 857.3285 856.7299 855.3878 853.9163 852.2692 850.5481 848.9244 847.7845 847.1387 846.7791 846.6287 846.3594 846.135 846.116 846.1959 846.1134 846.0739 845.9376 845.5175 845.3427 845.188 844.8289 844.6307 844.5778 844.5707 844.5707 844.5599 844.4676 844.1495 843.9818 843.9164 843.9121 843.9252 843.9336 843.9344 843.9352 843.9537 844.0079 844.0653 844.1335 844.2648 844.511 844.5508 844.5512 844.5531 844.5564 844.5654 844.59 844.592 844.5035 844.1517 843.8024 843.4337 843.0274 842.5441 841.976 841.2916 840.4753 839.9802 840.4512 841.3069 842.205 843.0861 843.874 844.4589 844.5875 844.5286 844.2236 843.8536 843.3817 842.6497 841.5565 840.6824 839.9766 839.408 838.9693 838.6582 838.462 838.3767 838.2914 838.2262 838.1913 838.1858 838.2041 838.2389 838.2844 838.3394 838.3994 838.46 838.5176 838.5713 838.6205 838.6649 838.7051 838.7421 838.7767 838.8091 838.8395 838.8684 838.8963 838.9242 838.9526 838.9819 839.0115 839.0411 839.0709 839.1017 839.1346 839.171 839.2112 839.254 839.2975 839.3397 839.3788 839.4138 839.4454 839.475 839.5038 839.532 839.5585 839.582 839.6008 839.6128 839.6172 839.6146 839.6065 839.5959 839.587 839.5825 839.5836 839.5913 839.605 839.6221 839.6401 839.6568 839.6713 839.6802 839.6771 839.6608 839.6323 839.5934 839.5477 839.504 839.4674 839.4419 839.4373 839.4897 839.6538 839.9817 840.5446 841.1281 841.5399 842.0617 842.5657 843.0273 843.4233 843.7759 844.083 844.3371 844.5493 844.8054 845.0961 845.3988 845.6819 845.9137 846.0787 846.1553 846.2301 846.3036 846.3474 846.3973 846.5388 846.798 847.1051 847.3486 847.4368 847.3389 847.1382 846.9529 846.9304 847.2845 848.1443 849.6719 850.7929 851.6232 852.2531 852.8052 -9999 -9999 -9999 -9999 -9999 -9999 -9999 -9999 -9999 -9999 -9999 -9999 -9999 -9999 -9999 -9999 -9999 -9999 -9999 -9999 -9999 -9999 -9999 -9999 -9999 -9999 -9999
