ncols         363
nrows         32
xllcorner     558600
yllcorner     6126000
cellsize      50
NODATA_value  -9999
-9999 -9999 -9999 -9999 -9999 -9999 -9999 -9999 -9999 -9999 -9999 -9999 -9999 -9999 -9999 633.9785 631.3044 627.7519 623.4978 618.9272 614.7264 611.9278 610.1663 609.0797 608.4039 607.9304 607.5455 607.2233 606.9438 606.694 606.4409 606.1649 605.826 605.3864 604.697 604.0281 603.5131 603.1185 602.8204 602.6025 602.4482 602.4204 602.3526 602.1428 601.8316 601.6683 601.4453 600.9694 600.5171 600.1049 599.7067 599.3288 598.9063 598.6519 598.5781 598.6054 598.7878 599.2108 599.3423 599.373 599.5075 599.9014 600.0817 600.1105 600.1404 600.302 600.6469 600.8184 601.0255 601.5541 602.0849 602.3457 602.6576 603.2483 603.7274 603.9052 603.9875 604.2219 604.7294 605.1013 605.3938 605.6722 605.8854 606.0708 606.2188 606.2742 606.393 606.7712 607.3657 608.1854 609.1425 609.9491 610.4399 610.5514 610.4293 610.3157 610.2557 610.1014 609.7642 609.2574 608.6641 608.1835 607.9636 608.0349 608.3247 608.7664 609.3148 609.8491 610.1326 610.7491 611.9269 613.6993 615.9693 618.5833 621.4132 624.1169 626.2136 627.3725 627.4716 627.0811 626.0042 624.2368 621.9172 619.3669 616.9187 614.832 613.0295 611.4493 610.109 609.0287 608.175 607.4316 606.8127 606.3448 605.9669 605.6155 605.6023 605.9427 606.6964 607.8313 608.9006 609.7292 610.064 610.0739 609.9955 610.0338 610.1792 610.3443 610.5243 610.862 611.1205 611.4011 611.7386 612.0792 612.2175 612.1319 611.9291 611.7905 611.8326 612.0132 612.2354 612.5901 613.0183 613.3442 613.5956 613.9615 614.4348 614.8303 615.0419 615.0591 615.1255 615.4412 616.2787 617.8148 619.8502 622.3341 625.1891 627.956 630.2444 631.8498 632.7418 633.0646 633.0516 632.9078 632.5594 631.7981 630.981 629.9124 628.2933 626.1418 623.7023 621.1877 618.8029 616.575 614.8381 613.5739 612.5047 611.8029 611.7499 612.6514 614.3059 616.4695 618.9792 621.7739 624.7135 627.4442 629.62 630.9174 631.2761 631.1995 631.335 -9999 -9999 -9999 -9999 -9999 -9999 -9999 -9999 -9999 -9999 -9999 -9999 -9999 -9999 -9999 -9999 -9999 -9999 -9999 -9999 -9999 -9999 -9999 -9999 -9999 637.2743 634.0334 629.8844 624.8898 619.4564 614.2726 610.136 607.652 606.7513 606.421 606.4225 606.6111 606.7621 606.8511 606.9217 607.0002 607.1691 607.0283 606.7872 606.1787 605.4983 605.0734 604.8351 604.739 604.7535 604.8412 605.0098 605.4186 606.2722 607.7948 608.9382 608.0435 607.4257 606.8022 606.178 605.5267 605.3274 605.836 607.6682 609.984 612.7004 615.4661 618.1055 620.5441 -9999 -9999 -9999 -9999 -9999 627.0193 627.4498 627.2156 626.3915 625.1509 623.8985 623.0515 622.7706 622.8547 622.455 621.0697 618.5203 615.0867 611.4945 608.2864 605.9907 604.6623 604.1145 604.174 604.6312 605.2002 605.4777 605.3958 605.2835 605.2312 605.2158 605.2289 605.344 605.6699 606.2717 607.1668 608.2778 609.461 610.2933 611.2353 613.0292 616.0394 -9999 -9999 -9999 -9999 -9999 -9999 -9999 -9999 -9999 -9999 -9999 -9999 -9999 -9999 -9999 -9999 -9999 -9999 -9999 -9999 -9999 -9999 -9999 -9999 -9999 -9999 -9999 -9999 -9999 -9999 -9999 -9999 -9999 -9999 -9999 -9999 -9999 -9999 -9999 -9999 -9999
-9999 -9999 -9999 -9999 -9999 -9999 -9999 -9999 -9999 -9999 -9999 -9999 -9999 -9999 -9999 633.7606 631.1062 627.5154 623.2079 618.6409 614.5233 611.92 610.3049 609.2819 608.6078 608.1284 607.7334 607.3706 607.0294 606.704 606.3793 606.0048 605.5096 604.8911 604.1116 603.5968 603.2164 602.928 602.6879 602.4306 602.0933 601.7856 601.4838 601.1172 600.9449 600.9133 600.8547 600.5505 600.2112 599.8485 599.4097 598.8741 598.3365 597.9406 597.8499 597.8593 597.9934 598.3938 598.5718 598.6786 598.9329 599.2805 599.3704 599.3682 599.3676 599.3999 599.4771 599.5533 599.7934 600.4193 600.7253 600.851 601.1171 601.7321 602.1908 602.3334 602.3734 602.5049 602.8077 603.0131 603.1925 603.4247 603.5527 603.6075 603.6534 603.7379 603.9736 604.4134 604.9894 605.6788 606.5631 607.3601 607.9155 608.2299 608.3348 608.3369 608.3059 608.1967 607.9532 607.5895 607.1892 606.8914 606.7447 606.7515 606.8695 607.052 607.2465 607.3688 607.1564 607.366 608.1497 609.5613 611.4575 613.8497 616.7378 620.0862 623.1144 625.222 626.0577 625.8881 624.6248 622.3936 619.5909 616.84 614.6805 612.9064 611.41 610.1305 609.0341 608.1069 607.3176 606.6055 605.97 605.4467 604.9029 604.1684 603.8877 604.0123 604.5751 605.5251 606.4439 607.2707 607.433 607.3293 607.1541 607.0581 607.0619 607.1224 607.2638 607.7021 607.8782 608.098 608.3539 608.5939 608.7294 608.7289 608.6689 608.5313 608.5085 608.5685 608.6506 608.7864 608.9524 609.0918 609.2216 609.4272 609.7004 609.9459 610.1238 610.27 610.5031 610.9566 611.814 613.1466 614.9246 617.205 620.2358 623.4914 626.444 628.8115 630.4114 631.2487 631.5686 631.467 630.7717 629.6346 628.3336 626.7321 624.6299 622.1008 619.411 616.7585 614.5352 612.8116 611.4231 610.3781 609.559 609.0631 609.0377 609.618 610.7294 612.2716 614.2266 616.621 619.6443 622.7518 625.502 627.4785 628.5276 629.0344 629.6734 -9999 -9999 -9999 -9999 -9999 -9999 -9999 -9999 -9999 -9999 -9999 -9999 -9999 -9999 -9999 -9999 -9999 -9999 -9999 -9999 -9999 -9999 -9999 -9999 -9999 -9999 633.7079 630.1661 625.947 621.0588 615.9201 611.3655 608.1974 606.6269 606.4844 606.5069 606.7589 606.8671 606.9272 606.9998 607.0002 607.0962 607.0513 606.9584 606.2927 605.5236 605.0491 604.7627 604.6187 604.5974 604.6484 604.7437 605.0258 605.7046 606.9932 608.1525 608.5027 607.6887 607.0555 606.5449 605.8516 605.4761 605.619 606.9703 608.9623 611.2921 613.6879 615.998 618.3538 620.757 -9999 -9999 -9999 -9999 -9999 -9999 629.1406 628.2122 626.8196 625.4519 624.7427 624.7835 625.2472 625.0149 623.7426 621.2368 617.7001 613.7739 610.1972 607.5222 605.7629 604.8572 604.667 604.9696 605.4437 605.4078 605.2383 605.1888 605.2632 605.348 605.3939 605.5288 605.9421 606.7394 607.896 609.2129 610.0923 610.7836 611.3257 612.4919 614.8801 -9999 -9999 -9999 -9999 -9999 -9999 -9999 -9999 -9999 -9999 -9999 -9999 -9999 -9999 -9999 -9999 -9999 -9999 -9999 -9999 -9999 -9999 -9999 -9999 -9999 -9999 -9999 -9999 -9999 -9999 -9999 -9999 -9999 -9999 -9999 -9999 -9999 -9999 -9999 -9999 -9999
-9999 -9999 -9999 -9999 -9999 -9999 -9999 -9999 -9999 -9999 -9999 -9999 -9999 -9999 -9999 632.9979 630.29 626.6517 622.3294 617.8177 613.8516 611.5681 610.187 609.3129 608.709 608.255 607.8755 607.5197 607.1608 606.7936 606.4113 605.9808 605.4453 604.7144 603.9609 603.4531 603.1189 602.8903 602.687 602.4075 601.8621 601.3051 600.8952 600.5671 600.4155 600.3877 600.3558 600.1922 599.9563 599.6534 599.2283 598.478 597.8694 597.4647 597.2935 597.2756 597.4244 597.7352 597.8391 597.9485 598.2982 598.5538 598.6284 598.6515 598.7208 598.7617 598.7908 598.8597 599.0483 599.365 599.4789 599.5424 599.804 600.4512 600.7612 600.8293 600.8235 600.8525 600.9455 601.0239 601.1321 601.3214 601.4078 601.4278 601.4609 601.6082 601.9634 602.3784 602.8574 603.454 604.3327 605.1231 605.6993 606.123 606.3625 606.4554 606.4609 606.3888 606.2077 605.923 605.6161 605.4417 605.3745 605.3621 605.3601 605.3307 605.2441 605.1254 604.9309 605.0582 605.5103 606.3477 607.6817 609.6292 612.3915 615.8282 619.572 622.5897 624.2495 624.3826 622.9696 620.3264 617.227 614.7318 612.8585 611.3607 610.1042 609.0195 608.0566 607.1923 606.4169 605.7123 605.0956 604.3671 603.5728 602.7023 602.3665 602.4904 603.0676 603.7864 604.4323 605.0127 605.0076 604.797 604.5371 604.3949 604.3793 604.4461 604.5507 604.8389 605.0493 605.2945 605.483 605.6134 605.6877 605.7123 605.7029 605.6627 605.6552 605.6642 605.6473 605.6067 605.5453 605.5361 605.5691 605.6614 605.815 606.0074 606.2372 606.5732 606.9815 607.4766 608.2018 609.1632 610.4602 612.2985 614.8787 618.123 621.3809 624.1955 626.3531 627.7555 628.4556 628.4948 627.8647 626.7629 625.3224 623.4677 621.1436 618.5267 616.0578 613.7355 611.7748 610.2263 608.9921 608.0463 607.353 606.9839 606.936 607.2094 607.7937 608.7105 610.0827 612.0556 614.743 617.8461 620.9941 623.6944 625.6672 627.058 628.4259 630.033 -9999 -9999 -9999 -9999 -9999 -9999 -9999 -9999 -9999 -9999 -9999 -9999 -9999 -9999 -9999 -9999 -9999 -9999 -9999 -9999 -9999 -9999 -9999 -9999 -9999 632.5356 629.6022 626.3316 622.3203 617.539 612.8627 609.3176 607.3742 606.8489 606.7883 606.9966 606.92 606.8719 606.9172 606.9987 607.071 607.0014 606.9628 606.3231 605.5402 604.9966 604.6217 604.3903 604.3154 604.329 604.3837 604.536 604.9276 605.7074 606.503 607.0471 607.1285 606.9044 606.6703 605.9425 605.48 605.5244 606.5175 608.087 610.1495 612.2615 614.2248 616.399 619.0947 -9999 -9999 -9999 -9999 -9999 -9999 -9999 -9999 -9999 -9999 625.2939 625.7705 626.5203 626.3765 625.5864 623.5295 620.3362 616.5364 612.8377 609.8019 607.6201 606.1985 605.5599 605.4513 605.5115 605.3613 605.2062 605.2869 605.5546 605.7962 605.8651 605.983 606.4397 607.3679 608.7018 609.8643 610.5352 611.0368 611.5345 612.2344 -9999 -9999 -9999 -9999 -9999 -9999 -9999 -9999 -9999 -9999 -9999 -9999 -9999 -9999 -9999 -9999 -9999 -9999 -9999 -9999 -9999 -9999 -9999 -9999 -9999 -9999 -9999 -9999 -9999 -9999 -9999 -9999 -9999 -9999 -9999 -9999 -9999 -9999 -9999 -9999 -9999 -9999
-9999 -9999 -9999 -9999 -9999 -9999 -9999 -9999 -9999 -9999 -9999 -9999 -9999 -9999 -9999 631.6387 628.9423 625.3306 621.1008 616.8326 613.3778 611.2123 609.9545 609.2113 608.7185 608.3235 607.9719 607.633 607.2808 606.9028 606.4922 606.0221 605.4501 604.6871 603.9529 603.4426 603.1224 602.918 602.7205 602.3954 601.705 600.9716 600.5376 600.2367 600.0764 600.0269 599.9938 599.8784 599.6766 599.3575 598.7969 598.0186 597.4896 597.0973 596.8635 596.766 596.83 596.9708 597.0605 597.243 597.6736 597.8315 597.8659 597.9296 598.1477 598.2606 598.331 598.427 598.5474 598.676 598.7332 598.7975 599.007 599.3604 599.4951 599.5078 599.4882 599.4786 599.488 599.4962 599.527 599.5913 599.6198 599.6215 599.6561 599.8268 600.2331 600.6384 600.9552 601.4335 602.2755 603.0081 603.5987 604.0562 604.3536 604.4879 604.5157 604.467 604.3223 604.0654 603.7945 603.674 603.6428 603.6309 603.5782 603.4331 603.1822 603.0515 603.0922 603.4259 603.7554 604.2551 605.1545 606.527 608.7614 612.0968 616.0455 619.7609 622.1489 622.6321 621.1388 618.228 615.0628 612.9993 611.4435 610.2035 609.1247 608.1282 607.1758 606.251 605.3636 604.5082 603.718 602.7956 601.9521 601.1281 600.8606 601.0958 601.8195 602.3572 602.7888 603.0956 602.8702 602.5012 602.0625 601.8582 601.8743 602.0332 602.1606 602.3199 602.4783 602.6859 602.8093 602.8525 602.8694 602.8879 602.9147 602.9548 603.0092 603.0127 602.9424 602.8278 602.6764 602.5931 602.5792 602.6438 602.7962 603.03 603.3546 603.8683 604.363 604.8453 605.4426 606.0273 606.7682 607.9921 609.9726 612.6836 615.7018 618.5294 620.9557 622.732 623.8089 624.2126 623.9722 623.2333 621.9971 620.2019 617.9635 615.5718 613.4681 611.5271 609.8499 608.4724 607.3411 606.4467 605.7816 605.5127 605.457 605.5087 605.6821 606.0886 606.9152 608.3757 610.6142 613.4932 616.7294 620.0378 623.0493 625.5972 627.8885 630.1064 -9999 -9999 -9999 -9999 -9999 -9999 -9999 -9999 -9999 -9999 -9999 -9999 -9999 -9999 -9999 -9999 -9999 -9999 -9999 -9999 -9999 -9999 -9999 -9999 -9999 -9999 628.8205 626.0765 623.0128 618.7493 614.2278 610.595 608.4067 607.4636 607.0167 606.8909 606.708 606.5844 606.616 606.7677 606.9816 606.9847 606.7465 606.2078 605.5128 604.8668 604.3325 603.9412 603.7721 603.739 603.768 603.8824 604.076 604.5706 605.095 605.5284 605.7415 605.7453 605.6911 605.4784 605.314 605.4968 606.3041 607.6205 609.16 611.0507 612.7917 614.8008 617.637 -9999 -9999 -9999 -9999 -9999 -9999 -9999 -9999 -9999 -9999 -9999 -9999 -9999 627.598 627.1342 625.7147 623.2248 619.9372 616.4058 613.161 610.4982 608.5333 607.2416 606.5146 606.0929 605.7545 605.5773 605.7662 606.2485 606.7139 606.7814 606.8635 607.3842 608.4867 609.8112 610.8071 611.2599 611.6612 612.1671 -9999 -9999 -9999 -9999 -9999 -9999 -9999 -9999 -9999 -9999 -9999 -9999 -9999 -9999 -9999 -9999 -9999 -9999 -9999 -9999 -9999 -9999 -9999 -9999 -9999 -9999 -9999 -9999 -9999 -9999 -9999 -9999 -9999 -9999 -9999 -9999 -9999 -9999 -9999 -9999 -9999 -9999 -9999
-9999 -9999 -9999 -9999 -9999 -9999 -9999 -9999 -9999 -9999 -9999 -9999 -9999 -9999 -9999 630.003 627.3239 623.7273 619.6064 615.6207 612.6338 610.7316 609.6431 609.0443 608.6696 608.3656 608.0559 607.7285 607.3774 606.9929 606.5645 606.066 605.4594 604.6898 603.9622 603.4646 603.1523 602.9498 602.7452 602.3939 601.679 600.9166 600.4469 600.0978 599.8744 599.7758 599.7271 599.6061 599.3823 599.0372 598.5076 597.8705 597.2979 596.8494 596.5441 596.3419 596.3246 596.3354 596.3486 596.4551 596.843 597.0156 597.0889 597.2269 597.5408 597.6833 597.8531 598.093 598.1929 598.2356 598.2999 598.3565 598.5017 598.6823 598.7566 598.7607 598.7443 598.7269 598.7121 598.6926 598.6805 598.6823 598.675 598.6639 598.6887 598.8223 599.08 599.3334 599.5059 599.8542 600.5535 601.051 601.4833 601.8416 602.1841 602.35 602.3933 602.3469 602.185 601.8785 601.6642 601.5825 601.571 601.5674 601.5163 601.3721 601.1395 601.1093 601.3998 602.0161 602.4716 602.9464 603.5034 604.301 605.9736 608.8765 612.7824 616.8362 619.7893 620.6639 619.2733 616.3765 613.8018 611.9646 610.5422 609.415 608.4197 607.4254 606.384 605.2759 604.1404 602.9921 602.1135 601.1102 600.2285 599.5181 599.3388 599.6483 600.4471 600.999 601.4645 601.5942 601.1407 600.6038 599.9533 599.6617 599.6525 599.8174 599.9233 599.9922 600.0539 600.161 600.192 600.1373 600.1071 600.1274 600.1791 600.2766 600.4095 600.4376 600.3523 600.2511 600.1472 600.0858 600.0914 600.2113 600.4826 600.8406 601.213 601.7713 602.2582 602.7798 603.4185 603.8033 604.1506 604.8295 606.1626 608.121 610.3536 612.7453 615.0855 617.0135 618.373 619.1682 619.3943 619.1454 618.3539 616.9053 615.0115 613.0233 611.3857 609.8453 608.4348 607.2228 606.2126 605.4102 604.8088 604.5563 604.49 604.4685 604.4847 604.648 605.1803 606.2537 608.0945 610.6404 613.3839 616.9023 620.8232 624.6058 628.002 630.8813 633.1102 -9999 -9999 -9999 -9999 -9999 -9999 -9999 -9999 -9999 -9999 -9999 -9999 -9999 -9999 -9999 -9999 -9999 -9999 -9999 -9999 634.6777 634.0786 632.525 630.6791 629.0451 627.7116 625.8914 623.1151 619.188 614.9388 611.4901 609.2876 608.0719 607.2692 606.7533 606.3591 606.105 606.0894 606.2296 606.4709 606.5099 606.2773 605.9055 605.3305 604.5448 603.8326 603.1708 602.7034 602.5989 602.6823 603.0013 603.2479 603.598 603.828 604.173 604.5808 604.7889 604.9404 604.9941 605.076 605.4266 606.1047 607.3097 608.3253 610.0402 611.7008 613.6373 616.5089 620.3975 -9999 -9999 -9999 -9999 -9999 -9999 -9999 -9999 -9999 -9999 -9999 -9999 -9999 628.8068 628.0037 626.3174 623.7596 620.6845 617.4912 614.4873 611.9196 609.9357 608.5531 607.5782 606.9342 606.6297 606.8118 607.4363 608.19 608.2566 608.3749 609.0886 610.3038 611.6268 612.5244 612.7777 612.7698 612.9254 -9999 -9999 -9999 -9999 -9999 -9999 -9999 -9999 -9999 -9999 -9999 -9999 -9999 -9999 -9999 -9999 -9999 -9999 -9999 -9999 -9999 -9999 -9999 -9999 -9999 -9999 -9999 -9999 -9999 -9999 -9999 -9999 -9999 -9999 -9999 -9999 -9999 -9999 -9999 -9999 -9999 -9999 -9999
-9999 -9999 -9999 -9999 -9999 -9999 -9999 -9999 -9999 -9999 -9999 -9999 -9999 -9999 630.168 628.4003 625.6754 622.0305 617.9548 614.2148 611.658 610.1243 609.2969 608.8749 608.6311 608.4154 608.1594 607.8429 607.4761 607.0698 606.6183 606.0938 605.4618 604.6885 603.966 603.4858 603.1804 602.9719 602.7554 602.4028 601.7623 601.0106 600.5415 600.0879 599.7478 599.5873 599.5355 599.381 599.1263 598.7596 598.271 597.7581 597.1212 596.6365 596.3195 596.077 595.9814 595.9645 595.9902 596.095 596.3098 596.3467 596.3451 596.3683 596.4703 596.639 597.1245 597.6768 597.8397 597.8792 598.0311 598.0945 598.2102 598.3135 598.3589 598.3685 598.3682 598.3645 598.3566 598.3401 598.3167 598.2938 598.2697 598.2487 598.2456 598.2989 598.4161 598.5352 598.668 598.9135 599.2986 599.5149 599.7017 599.9312 600.2496 600.4113 600.4602 600.4206 600.2591 599.9443 599.7587 599.6874 599.6793 599.688 599.6706 599.6094 599.5438 599.6561 600.1447 600.7913 601.4442 601.9749 602.2652 602.7198 603.9718 606.2879 609.7476 613.7971 617.1138 618.3405 617.2902 614.629 612.7752 611.2919 610.0336 608.9032 607.8849 606.8289 605.6339 604.2569 602.7646 601.5062 600.5907 599.5913 598.7422 598.0967 597.9581 598.2576 599.011 599.5858 600.1633 600.2365 599.632 599.0391 598.3337 597.9811 597.8466 597.8597 597.8928 597.9024 597.8856 597.9404 597.8817 597.6938 597.6208 597.6611 597.7161 597.8172 597.9378 597.9884 597.9855 597.9526 597.9197 597.9213 597.9892 598.2222 598.7098 599.1324 599.4514 599.9142 600.4173 601.0431 601.7587 602.1239 602.2974 602.6699 603.5435 604.7076 606.14 607.9147 609.7746 611.6324 613.1438 614.1592 614.6598 614.7673 614.4461 613.4946 612.1678 610.8596 609.6473 608.4436 607.2749 606.2087 605.2957 604.5659 603.9916 603.7536 603.7062 603.6899 603.6786 603.761 604.1675 604.9073 606.378 608.7637 611.0843 614.4752 619.0423 623.8551 628.2841 631.9529 634.7493 -9999 -9999 -9999 -9999 -9999 -9999 -9999 -9999 -9999 -9999 -9999 -9999 -9999 -9999 -9999 -9999 -9999 -9999 -9999 630.1482 631.0353 630.83 629.6718 628.1976 626.9462 626.0178 624.6534 622.1526 618.5541 614.6741 611.4932 609.476 608.3482 607.2841 606.5032 605.9268 605.5325 605.4755 605.5705 605.8748 605.9095 605.6157 605.3502 604.7227 603.9322 603.1375 602.4846 602.0979 601.9993 602.1136 602.3699 602.4486 602.5353 602.6921 603.1642 603.7308 604.0139 604.3363 604.5566 604.747 605.097 605.6984 606.8575 608.0057 609.4332 611.128 613.0911 615.9827 619.8895 -9999 -9999 -9999 -9999 -9999 -9999 -9999 -9999 -9999 -9999 -9999 -9999 -9999 -9999 630.3362 629.28 627.5162 625.158 622.3539 619.3498 616.4639 613.9434 611.8873 610.312 609.2615 608.7357 608.7299 609.1974 609.8787 610.3558 610.8813 611.7616 613.056 614.4522 615.3561 615.4765 615.1391 -9999 -9999 -9999 -9999 -9999 -9999 -9999 -9999 -9999 -9999 -9999 -9999 -9999 -9999 -9999 -9999 -9999 -9999 -9999 -9999 -9999 -9999 -9999 -9999 -9999 -9999 -9999 -9999 -9999 -9999 -9999 -9999 -9999 -9999 -9999 -9999 -9999 -9999 -9999 -9999 -9999 -9999 -9999 -9999
-9999 -9999 -9999 -9999 -9999 -9999 -9999 -9999 -9999 -9999 -9999 -9999 -9999 -9999 628.8488 627.0246 624.1929 620.449 616.3645 612.7985 610.62 609.4743 608.9635 608.7578 608.6492 608.516 608.2982 607.9869 607.5962 607.1528 606.6665 606.1135 605.4615 604.683 603.9665 603.5042 603.2108 603.0033 602.7878 602.4548 602.02 601.3802 600.8094 600.1321 599.6117 599.3852 599.3663 599.1685 598.8762 598.4725 597.9327 597.3643 596.7709 596.3325 596.0431 595.8434 595.7582 595.7674 595.8193 595.893 595.9685 595.9464 595.8917 595.8531 595.8806 596.0405 596.4125 596.9353 597.2854 597.5455 597.8281 597.8704 598.025 598.0956 598.1219 598.1345 598.1442 598.15 598.1523 598.1478 598.1353 598.1169 598.0961 598.0769 598.0608 598.0582 598.0773 598.113 598.2076 598.3546 598.5289 598.6255 598.7119 598.8525 599.0445 599.1693 599.2198 599.1975 599.0754 598.8674 598.7111 598.6157 598.5976 598.6314 598.6585 598.682 598.7392 598.9187 599.3184 599.752 600.4509 600.8246 601.1118 601.5259 602.413 604.2137 607.0297 610.6762 614.1198 615.8735 615.2981 613.5867 612.0916 610.8369 609.6834 608.5585 607.427 606.2296 604.8533 603.1686 601.5294 600.3 599.3276 598.3965 597.6076 597.0923 596.9866 597.1814 597.6275 598.0122 598.4654 598.6102 598.1071 597.6722 597.1849 596.8116 596.46 596.2761 596.2344 596.2449 596.2764 596.2094 596.0659 595.8018 595.7186 595.8105 595.8393 595.9 595.8846 595.9163 595.9802 595.9953 596.0238 596.1189 596.2706 596.6091 597.2792 597.6515 597.8972 598.2926 598.8831 599.4897 600.1675 600.6031 600.7728 601.0742 601.7806 602.3993 603.1615 604.2956 605.6865 607.2924 608.8297 610.1244 610.4994 610.6116 610.5107 610.0627 609.5388 608.8678 608.0729 607.1544 606.1797 605.1981 604.303 603.754 603.14 602.6829 602.5582 602.5353 602.5637 602.7484 603.3475 603.7182 604.6089 606.4059 608.8256 612.4206 617.5359 623.1742 628.5093 633.0324 636.577 -9999 -9999 -9999 -9999 -9999 -9999 -9999 -9999 -9999 -9999 -9999 -9999 -9999 -9999 -9999 -9999 -9999 -9999 625.3145 626.6323 627.4977 627.4724 626.619 625.4832 624.5503 623.8159 622.5648 620.1777 616.849 613.4482 610.6331 608.8066 607.7018 606.7946 606.0509 605.4724 605.0876 604.9796 605.1038 605.3922 605.3959 605.0629 604.6351 603.9978 603.2775 602.5641 602.086 601.7905 601.6963 601.7677 601.8998 601.9374 601.9697 602.1077 602.4703 602.9848 603.4318 603.8982 604.2153 604.4908 604.9141 605.6196 606.8403 608.1422 609.5805 611.3674 613.379 616.2047 619.9585 -9999 -9999 -9999 -9999 -9999 -9999 -9999 -9999 -9999 -9999 -9999 -9999 -9999 -9999 -9999 631.6645 630.6817 629.2589 627.2008 624.6 621.7709 619.051 616.6289 614.6199 613.1706 612.3462 612.0636 612.2764 612.8581 613.5308 614.2598 615.2504 616.629 618.108 619.0704 619.1574 -9999 -9999 -9999 -9999 -9999 -9999 -9999 -9999 -9999 -9999 -9999 -9999 -9999 -9999 -9999 -9999 -9999 -9999 -9999 -9999 -9999 -9999 -9999 -9999 -9999 -9999 -9999 -9999 -9999 -9999 -9999 -9999 -9999 -9999 -9999 -9999 -9999 -9999 -9999 -9999 -9999 -9999 -9999 -9999 -9999
-9999 -9999 -9999 -9999 -9999 -9999 -9999 -9999 -9999 -9999 -9999 -9999 -9999 -9999 628.0343 626.0876 623.0899 619.1993 615.0624 611.6082 609.7678 608.9617 608.7247 608.7274 608.7559 608.6923 608.49 608.1576 607.7281 607.24 606.7137 606.1315 605.4615 604.6776 603.9662 603.5211 603.2502 603.0688 602.9043 602.6806 602.3507 601.6495 600.8932 600.0931 599.427 599.1635 599.0538 598.8723 598.5988 598.2109 597.7017 596.9595 596.3653 596.0084 595.7819 595.6432 595.6083 595.6662 595.7531 595.814 595.8214 595.7633 595.6853 595.617 595.6044 595.7188 595.9949 596.3605 596.7434 597.0957 597.4202 597.6266 597.8409 597.8608 597.8574 597.8511 597.839 597.8207 597.8156 597.8155 597.8164 597.8174 597.8222 597.8381 597.8467 597.8519 597.8552 597.8651 597.9861 598.057 598.118 598.15 598.1808 598.2457 598.335 598.3996 598.429 598.4281 598.3748 598.2723 598.1633 598.0463 598.0265 598.1218 598.205 598.2896 598.4003 598.5715 598.8295 599.1154 599.4407 599.6781 600.0795 600.4973 601.0375 602.3504 604.4849 607.3838 610.5312 612.6545 613.1182 612.1485 611.1279 610.2168 609.2408 608.155 606.9371 605.5515 603.9113 602.0853 600.4985 599.2867 598.3021 597.433 596.6323 596.339 596.2967 596.3221 596.4169 596.5597 596.8018 596.9671 596.6644 596.4397 596.2332 595.9516 595.4707 595.0453 594.9042 594.8642 594.8242 594.7007 594.5364 594.2343 594.1218 594.1394 594.1432 594.1667 594.1971 594.2755 594.3483 594.3339 594.3719 594.5735 594.819 595.1996 595.8967 596.2557 596.5737 597.1027 597.7065 598.1935 598.8025 599.188 599.363 599.7128 600.3773 600.7675 601.1825 601.8774 602.9263 604.2755 605.5912 606.4937 606.8066 606.9376 607.0641 607.2194 607.2366 607.031 606.5649 605.8594 605.0386 604.0713 603.3929 602.9406 602.4043 601.9847 601.8112 601.777 601.8626 602.0812 602.4318 602.6526 603.3209 604.5952 606.9894 610.8359 616.3183 622.4622 628.4367 633.6824 637.9116 -9999 -9999 -9999 -9999 -9999 -9999 -9999 -9999 -9999 -9999 -9999 -9999 -9999 -9999 -9999 -9999 622.6221 622.5724 623.0604 623.8983 624.3033 623.9999 623.1252 622.1656 621.4842 620.8776 619.6984 617.4479 614.4207 611.7239 609.4307 607.8205 606.7845 606.0826 605.4716 604.96 604.6224 604.4598 604.5151 604.6582 604.6531 604.4318 603.9838 603.4215 602.8326 602.3838 601.9722 601.7159 601.6169 601.6367 601.6949 601.7086 601.7119 601.8027 602.0566 602.4448 602.9028 603.4087 603.8968 604.3201 604.9207 605.8168 607.176 608.5096 610.2328 612.0734 614.1884 616.9464 620.4441 -9999 -9999 -9999 -9999 -9999 -9999 -9999 -9999 -9999 -9999 -9999 -9999 -9999 -9999 -9999 -9999 632.9735 632.5953 631.5204 629.6428 627.2222 624.6559 622.1967 620.0014 618.2562 617.0913 616.4728 616.3521 616.697 617.3408 618.1368 619.1891 620.6017 622.1262 623.1474 -9999 -9999 -9999 -9999 -9999 -9999 -9999 -9999 -9999 -9999 -9999 -9999 -9999 -9999 -9999 -9999 -9999 -9999 -9999 -9999 -9999 -9999 -9999 -9999 -9999 -9999 -9999 -9999 -9999 -9999 -9999 -9999 -9999 -9999 -9999 -9999 -9999 -9999 -9999 -9999 -9999 -9999 -9999 -9999 -9999 -9999
-9999 -9999 -9999 -9999 -9999 -9999 -9999 -9999 -9999 -9999 -9999 -9999 -9999 -9999 627.9931 625.7963 622.5885 618.577 614.4329 611.084 609.4624 608.8424 608.7419 608.8612 608.9899 608.9708 608.7469 608.3555 607.8579 607.3138 606.7489 606.1439 605.4622 604.6747 603.9657 603.5325 603.2813 603.1261 602.9888 602.7863 602.4208 601.729 600.9093 600.0847 599.3913 599.0031 598.7634 598.5388 598.2469 597.8199 597.2089 596.4799 596.0278 595.7367 595.5616 595.4786 595.4983 595.6042 595.7194 595.7875 595.7847 595.725 595.6468 595.576 595.5577 595.6322 595.8138 596.0616 596.3392 596.6639 596.9844 597.24 597.4303 597.4716 597.4324 597.3431 597.2166 597.0824 597.0403 597.0335 597.0391 597.053 597.0961 597.2185 597.3196 597.4197 597.5255 597.6567 597.8452 597.8592 597.8592 597.8582 597.8558 597.8511 597.8434 597.8253 597.8044 597.8013 597.8054 597.7999 597.7664 597.6362 597.6475 597.8717 598.0344 598.1617 598.286 598.4246 598.5532 598.7009 598.7936 598.9274 599.1749 599.3928 599.7324 600.6622 602.0853 604.1669 606.646 608.7137 609.7787 609.8745 609.6139 609.215 608.5221 607.5279 606.2861 604.8054 602.9656 601.0671 599.5101 598.3489 597.4464 596.683 596.2668 596.0126 595.8837 595.8044 595.7656 595.7859 595.8826 595.926 595.7563 595.5721 595.3466 594.9972 594.7238 594.3447 594.1165 593.9712 593.786 593.4951 593.3242 593.1168 593.0052 592.9725 592.9579 593.0273 593.2048 593.4553 593.6245 593.5001 593.4135 593.4582 593.7799 594.1401 594.6839 595.0329 595.5387 596.14 596.7544 597.2359 597.7316 597.9717 598.1566 598.6201 599.1564 599.5156 599.9143 600.3974 601.1995 602.3244 603.4176 603.9925 604.1609 604.2496 604.476 604.9283 605.2206 605.3044 605.0349 604.4391 603.7097 602.8693 602.4572 602.2129 601.7162 601.4067 601.2892 601.2865 601.4269 601.694 602.0865 602.5927 603.3712 603.6731 605.717 609.6165 615.1678 621.4185 627.6241 633.2402 637.831 640.8677 641.361 639.3833 -9999 -9999 -9999 -9999 -9999 -9999 -9999 -9999 -9999 -9999 -9999 -9999 623.3774 622.223 622.0408 622.04 622.0486 621.5389 620.4467 619.1259 618.0873 617.5309 617.1024 616.211 614.41 612.104 609.9319 608.062 606.6703 605.7674 605.323 604.8516 604.4414 604.1951 603.9734 603.954 603.9793 603.9854 603.9024 603.513 603.0078 602.4773 602.1802 601.9186 601.7429 601.6655 601.662 601.6819 601.6768 601.6584 601.6815 601.8157 602.0756 602.4382 602.9032 603.4437 604.0566 604.9602 606.1465 607.4918 608.907 610.8252 612.9349 615.2507 617.9277 621.0909 624.6552 -9999 -9999 -9999 -9999 -9999 -9999 -9999 -9999 -9999 -9999 -9999 -9999 -9999 -9999 -9999 -9999 -9999 634.8905 633.8853 632.1483 630.0574 627.8448 625.6848 623.7658 622.2528 621.2396 620.7235 620.7664 621.3107 622.1725 623.2727 624.6403 626.1064 -9999 -9999 -9999 -9999 -9999 -9999 -9999 -9999 -9999 -9999 -9999 -9999 -9999 -9999 -9999 -9999 -9999 -9999 -9999 -9999 -9999 -9999 -9999 -9999 -9999 -9999 -9999 -9999 -9999 -9999 -9999 -9999 -9999 -9999 -9999 -9999 -9999 -9999 -9999 -9999 -9999 -9999 -9999 -9999 -9999 -9999 -9999
-9999 -9999 -9999 -9999 -9999 -9999 -9999 -9999 -9999 -9999 -9999 -9999 -9999 -9999 628.5757 626.1387 622.8273 618.8549 614.8305 611.5874 609.9836 609.3 609.129 609.2423 609.4071 609.3818 609.073 608.5691 607.9699 607.3557 606.7565 606.1425 605.4625 604.6759 603.9656 603.5364 603.2953 603.1546 603.0264 602.8181 602.4236 601.736 600.9092 600.0928 599.3826 598.8722 598.4861 598.1837 597.8239 597.3257 596.7848 596.2705 595.8193 595.535 595.3821 595.3368 595.4011 595.5404 595.6705 595.7498 595.7686 595.7437 595.692 595.6375 595.635 595.7069 595.8243 595.9618 596.1235 596.3351 596.6008 596.843 597.009 597.0497 596.9843 596.8305 596.6149 596.3821 596.3538 596.3518 596.3546 596.3497 596.3865 596.6044 596.7495 596.9296 597.1189 597.3093 597.4905 597.5578 597.5758 597.5621 597.5143 597.4242 597.2943 597.1404 597.0126 596.9829 596.993 597.0088 597.0212 597.0718 597.1568 597.5703 597.8453 598.0605 598.1704 598.2778 598.2769 598.2219 598.2271 598.2605 598.3512 598.5051 598.7667 599.3287 600.1815 601.6107 603.3415 605.0759 606.4152 607.2885 607.7541 607.8751 607.5001 606.6086 605.3242 603.7244 601.8494 600.0041 598.551 597.4755 596.7022 596.8032 596.3705 595.9919 595.7471 595.5941 595.5007 595.4546 595.453 595.4102 595.2525 595.0459 594.8012 594.4846 594.1981 593.8948 593.6691 593.4943 593.265 592.9475 592.6891 592.4537 592.3049 592.2437 592.217 592.3344 592.6292 592.9838 593.1191 593.0322 592.942 592.9834 593.2203 593.3722 593.7832 594.1203 594.6414 595.1253 595.8376 596.2961 596.7997 597.1147 597.409 597.7916 598.1232 598.5886 599.023 599.3445 600.0354 600.9449 601.8844 602.2801 602.3408 602.3605 602.558 603.0317 603.3723 603.6038 603.3638 602.8848 602.4052 601.8591 601.5878 601.3909 601.0073 600.8921 600.882 600.9125 601.1289 601.3734 601.7789 602.2724 602.6834 603.1289 604.8772 608.5475 613.7754 619.6878 625.6668 631.2272 635.9184 639.1993 640.3619 639.8714 639.0646 635.9887 631.9268 -9999 -9999 -9999 -9999 631.8004 631.1667 629.5225 627.3503 625.2327 623.6792 622.7198 622.092 621.3789 620.4526 618.8517 616.8256 614.9138 613.7654 613.0806 612.8204 612.3918 611.2861 609.6974 608.1084 606.6805 605.5968 604.9448 604.564 604.2825 603.9866 603.9299 603.7309 603.6218 603.572 603.5359 603.4381 603.1708 602.8044 602.4278 602.161 601.9597 601.8301 601.7714 601.7603 601.7573 601.7311 601.684 601.6517 601.6854 601.8188 602.0645 602.4412 602.9931 603.7657 604.6931 605.9179 607.2286 608.8265 611.0943 613.5435 616.0765 618.7092 621.5828 624.815 -9999 -9999 -9999 -9999 -9999 -9999 -9999 -9999 -9999 -9999 -9999 -9999 -9999 -9999 -9999 -9999 -9999 -9999 -9999 636.0023 634.6134 632.8411 630.8629 628.8694 627.054 625.6248 624.7289 624.5319 625.1191 626.1768 627.377 -9999 -9999 -9999 -9999 -9999 -9999 -9999 -9999 -9999 -9999 -9999 -9999 -9999 -9999 -9999 -9999 -9999 -9999 -9999 -9999 -9999 -9999 -9999 -9999 -9999 -9999 -9999 -9999 -9999 -9999 -9999 -9999 -9999 -9999 -9999 -9999 -9999 -9999 -9999 -9999 -9999 -9999 -9999 -9999 -9999 -9999 -9999 -9999 -9999
-9999 -9999 -9999 -9999 -9999 -9999 -9999 -9999 -9999 -9999 -9999 -9999 -9999 -9999 629.5247 627.0251 623.8893 620.2206 616.477 613.3057 611.446 610.3949 609.9058 609.8997 610.066 609.9591 609.4559 608.7726 608.0401 607.3472 606.7217 606.1193 605.4625 604.6819 603.9666 603.5352 603.2942 603.1586 603.0356 602.8224 602.4198 601.7316 600.9083 600.1049 599.378 598.7715 598.2058 597.8169 597.3332 596.79 596.3273 595.9191 595.5745 595.3466 595.2268 595.2095 595.2993 595.4493 595.5768 595.6636 595.7167 595.7509 595.7526 595.7431 595.781 595.8652 595.9393 595.9861 596.0448 596.16 596.3323 596.5272 596.6695 596.7031 596.6376 596.493 596.3312 596.2582 596.3295 596.3299 596.3291 596.2294 596.238 596.3257 596.3434 596.5297 596.7366 596.9288 597.1088 597.2239 597.2815 597.2797 597.2105 597.0624 596.8369 596.573 596.3691 596.3483 596.3525 596.3577 596.3745 596.5172 596.5692 596.6923 597.3159 597.7888 597.8862 598.0297 597.9114 597.6894 597.7031 597.642 597.5763 597.7386 597.9863 598.3622 598.9183 599.7998 601.0005 602.2878 603.6312 604.8646 605.8555 606.4543 606.3179 605.4244 604.0461 602.4139 600.6564 598.9816 597.5942 596.5975 596.215 596.3234 596.2222 595.9304 595.7032 595.557 595.4679 595.4152 595.3646 595.2681 595.0762 594.8131 594.5043 594.1808 593.892 593.6321 593.4299 593.2712 593.0049 592.6986 592.4164 592.1491 591.9438 591.8486 591.8234 591.9415 592.2646 592.5818 592.7586 592.7596 592.694 592.7086 592.8348 592.9742 593.2361 593.3833 593.7981 594.1655 594.6676 595.1638 595.8662 596.2817 596.7191 597.0724 597.3936 597.775 598.003 598.2785 599.0123 599.7449 600.5728 600.9429 601.0148 601.0336 601.1972 601.651 601.9709 602.1655 602.0167 601.7466 601.4305 601.02 600.9094 600.8482 600.5878 600.46 600.4463 600.5358 600.7874 600.9261 601.2939 601.6332 601.9666 602.5367 604.1266 607.2375 611.7826 617.0117 622.4064 627.5974 632.2075 635.7831 637.9325 638.4871 637.5047 634.6992 631.0312 627.8666 626.4633 627.7448 629.5782 630.6288 630.18 628.8244 626.9696 625.1119 623.5591 622.2938 621.1733 619.9391 618.1781 615.8058 613.2367 611.2832 610.0055 609.3215 609.049 608.7574 608.2451 607.3809 606.3963 605.4022 604.7 604.3077 604.0014 603.928 603.7499 603.6552 603.5068 603.3773 603.2823 603.2018 603.0915 602.9291 602.7031 602.4318 602.2035 602.0302 601.9214 601.871 601.8546 601.8373 601.7906 601.7141 601.6345 601.5948 601.63 601.769 602.0342 602.4697 603.1678 604.1061 605.2585 606.6077 608.6418 610.894 613.5797 616.3492 619.0198 621.7275 624.7559 -9999 -9999 -9999 -9999 -9999 -9999 -9999 -9999 -9999 -9999 -9999 -9999 -9999 -9999 -9999 -9999 -9999 -9999 -9999 -9999 -9999 -9999 634.9084 632.9474 630.9077 -9999 -9999 -9999 -9999 -9999 -9999 -9999 -9999 -9999 -9999 -9999 -9999 -9999 -9999 -9999 -9999 -9999 -9999 -9999 -9999 -9999 -9999 -9999 -9999 -9999 -9999 -9999 -9999 -9999 -9999 -9999 -9999 -9999 -9999 -9999 -9999 -9999 -9999 -9999 -9999 -9999 -9999 -9999 -9999 -9999 -9999 -9999 -9999 -9999 -9999 -9999 -9999 -9999 -9999 -9999
-9999 -9999 -9999 -9999 -9999 -9999 -9999 -9999 -9999 -9999 -9999 -9999 -9999 -9999 -9999 628.3638 625.6346 622.4855 619.1372 616.0384 613.7686 612.0983 611.0339 610.8081 610.9697 610.6664 609.8323 608.9202 608.0428 607.272 606.6312 606.064 605.4618 604.6921 603.9692 603.5303 603.2811 603.1453 603.0278 602.8196 602.4185 601.7285 600.9097 600.1249 599.4052 598.7782 597.9627 597.4833 596.9773 596.3751 595.9812 595.649 595.3782 595.1976 595.1063 595.1053 595.1973 595.3302 595.4326 595.5176 595.608 595.7087 595.7793 595.8458 595.9519 596.0588 596.0924 596.063 596.0424 596.0872 596.1962 596.3309 596.4499 596.4716 596.4282 596.3298 596.2672 596.3297 596.4469 596.4861 596.4539 596.3371 596.3265 596.2512 596.2477 596.3303 596.4689 596.5918 596.7607 596.9074 597.0039 597.0323 596.9784 596.8265 596.587 596.3372 596.33 596.33 596.3275 596.3246 596.325 596.3343 596.3422 596.5049 596.8864 597.2095 597.3843 597.5601 597.3806 597.0945 597.171 597.0131 596.7216 596.9135 597.1772 597.4996 597.9015 598.5101 599.3297 600.3465 601.515 602.8668 604.1859 605.1196 605.092 604.0771 602.5894 600.9333 599.271 597.7646 596.5971 595.9342 595.7336 595.8165 595.848 595.7649 595.6755 595.6096 595.5662 595.538 595.4872 595.3628 595.1247 594.7993 594.3983 594.0234 593.7164 593.4745 593.2836 593.1074 592.8688 592.6049 592.3441 592.0836 591.8414 591.6898 591.6511 591.7622 592.0563 592.2476 592.4251 592.5098 592.5212 592.5455 592.6204 592.7205 592.8654 592.9954 593.2264 593.3199 593.5513 594.0751 594.6767 595.1952 595.8676 596.2233 596.5504 596.9352 597.188 597.4742 597.9946 598.6812 599.3872 599.9382 600.228 600.392 600.585 600.8558 600.9622 601.0115 600.9724 600.918 600.8347 600.5778 600.4635 600.3771 600.1995 600.0543 599.9797 599.9761 600.0586 600.2285 600.6604 600.9099 601.261 601.7836 603.0437 605.3984 609.0312 613.4167 618.0399 622.6735 626.9391 630.5846 633.174 634.3652 633.9221 631.9927 629.3176 627.0109 626.2074 627.0831 628.4424 629.1086 628.5887 627.2876 625.5534 623.7997 622.2 620.7011 619.0479 617.1685 614.9822 612.4285 610.1202 608.2922 607.0314 606.4246 606.2176 606.0953 605.8901 605.4929 605.0032 604.2926 603.9846 603.9059 603.7083 603.6156 603.5116 603.4186 603.2877 603.1475 603.0377 602.9247 602.7866 602.7126 602.6161 602.4279 602.2125 602.0474 601.9454 601.8948 601.8695 601.8383 601.7781 601.6846 601.5807 601.504 601.4856 601.5488 601.7285 602.072 602.6437 603.6201 604.6603 605.9905 607.9266 610.2004 612.8821 615.9025 618.7199 621.4229 624.3918 -9999 -9999 -9999 -9999 -9999 -9999 -9999 -9999 -9999 -9999 -9999 -9999 -9999 -9999 -9999 -9999 -9999 -9999 -9999 -9999 -9999 -9999 -9999 -9999 -9999 -9999 -9999 -9999 -9999 -9999 -9999 -9999 -9999 -9999 -9999 -9999 -9999 -9999 -9999 -9999 -9999 -9999 -9999 -9999 -9999 -9999 -9999 -9999 -9999 -9999 -9999 -9999 -9999 -9999 -9999 -9999 -9999 -9999 -9999 -9999 -9999 -9999 -9999 -9999 -9999 -9999 -9999 -9999 -9999 -9999 -9999 -9999 -9999 -9999 -9999 -9999 -9999 -9999 -9999 -9999
-9999 -9999 -9999 -9999 -9999 -9999 -9999 -9999 -9999 -9999 -9999 -9999 -9999 -9999 -9999 629.9767 627.6932 625.1174 622.3066 619.4596 616.86 614.4968 612.6047 611.9431 611.9837 611.1474 610.0726 608.9857 607.9829 607.1364 606.4792 605.9596 605.4502 604.6954 603.9724 603.5204 603.2548 603.1152 603.0068 602.8113 602.4183 601.7283 600.9133 600.1567 599.5126 599.0446 598.0801 597.5378 597.0725 596.4227 595.9746 595.6083 595.3254 595.1415 595.0494 595.0439 595.1144 595.2041 595.2612 595.3302 595.4503 595.6125 595.7559 595.912 596.0972 596.2289 596.2215 596.1316 596.0651 596.07 596.1362 596.2309 596.3282 596.3303 596.3294 596.2781 596.3347 596.5493 596.7532 596.835 596.8101 596.696 596.5455 596.3459 596.3274 596.2839 596.3279 596.3345 596.4843 596.6413 596.756 596.8148 596.7981 596.6768 596.4833 596.3398 596.3336 596.2489 596.0688 595.9807 595.9891 596.0845 596.0824 596.0891 596.1614 596.2355 596.2534 596.2858 596.3751 596.4281 596.4125 596.152 595.7737 595.7646 595.9484 596.2784 596.6065 597.1058 597.715 598.6307 599.7224 601.132 602.5697 603.606 603.6182 602.5767 601.0449 599.3971 597.8524 596.5948 595.8174 595.4316 595.3234 595.3955 595.5097 595.6031 595.68 595.7269 595.7437 595.752 595.7239 595.5928 595.2716 594.807 594.3366 593.9329 593.6183 593.3975 593.2751 593.0494 592.8033 592.5757 592.3615 592.144 591.9048 591.6959 591.5962 591.6187 591.7683 591.9025 592.0645 592.217 592.3243 592.4091 592.4978 592.5823 592.6588 592.7205 592.7913 592.8093 592.9255 593.2307 593.5585 594.0846 594.5928 594.9162 595.3714 595.9144 596.2115 596.5001 596.9092 597.512 598.149 598.976 599.5615 599.9337 600.1945 600.3567 600.3834 600.3741 600.3568 600.3468 600.3055 600.1876 600.1214 600.0416 599.891 599.7243 599.5886 599.4928 599.4028 599.4549 599.7832 600.0693 600.4844 600.9016 601.8354 603.4969 606.0233 609.381 613.1587 617.0055 620.7682 624.0886 626.8304 628.4647 628.7898 627.9968 626.597 625.3679 625.0406 625.6384 626.3735 626.4855 625.7257 624.3635 622.6974 621.0266 619.4589 617.688 615.7625 613.8316 611.7858 609.5192 607.5821 606.0904 605.1838 604.7965 604.6899 604.6453 604.5175 604.1949 603.9566 603.6544 603.5294 603.4993 603.4014 603.3145 603.2463 603.1694 603.0376 602.8698 602.7756 602.6631 602.4547 602.4313 602.4044 602.2259 602.0476 601.9128 601.8271 601.7794 601.7441 601.7004 601.6349 601.5441 601.4493 601.3862 601.3572 601.396 601.5262 601.8201 602.3569 603.1161 604.14 605.4881 607.1643 609.2595 611.8211 614.9457 617.8641 620.6041 623.5861 -9999 -9999 -9999 -9999 -9999 -9999 -9999 -9999 -9999 -9999 -9999 -9999 -9999 -9999 -9999 -9999 -9999 -9999 -9999 -9999 -9999 -9999 -9999 -9999 -9999 -9999 -9999 -9999 -9999 -9999 -9999 -9999 -9999 -9999 -9999 -9999 -9999 -9999 -9999 -9999 -9999 -9999 -9999 -9999 -9999 -9999 -9999 -9999 -9999 -9999 -9999 -9999 -9999 -9999 -9999 -9999 -9999 -9999 -9999 -9999 -9999 -9999 -9999 -9999 -9999 -9999 -9999 -9999 -9999 -9999 -9999 -9999 -9999 -9999 -9999 -9999 -9999 -9999 -9999 -9999
-9999 -9999 -9999 -9999 -9999 -9999 -9999 -9999 -9999 -9999 -9999 -9999 -9999 -9999 -9999 631.4944 629.59 627.5248 625.3456 623.0664 620.6401 618.0401 615.5052 613.4689 612.5197 611.5037 610.3228 609.0916 607.9519 607.0003 606.2852 605.7743 605.3721 604.6504 603.9664 603.4991 603.2095 603.0654 602.9714 602.7974 602.4185 601.722 600.9084 600.1368 599.4675 599.0847 598.4637 597.9627 597.6654 597.0205 596.3781 595.8617 595.4755 595.2247 595.0933 595.0557 595.0836 595.1111 595.1064 595.144 595.2777 595.4829 595.6884 595.926 596.1747 596.3183 596.2731 596.155 596.0878 596.0828 596.1074 596.1422 596.1852 596.2142 596.267 596.337 596.6012 596.9457 597.2356 597.3337 597.3229 597.2242 596.9977 596.756 596.5562 596.3369 596.2369 596.2451 596.33 596.4504 596.5345 596.5925 596.5956 596.4567 596.2142 596.0776 595.9946 595.7362 595.2865 595.0823 594.9792 594.826 594.7587 594.7386 594.7555 594.7283 594.5436 594.2562 594.2909 594.4765 594.3536 593.9746 593.6197 593.5803 593.7467 594.0609 594.411 594.9396 595.5916 596.5314 597.7568 599.269 600.7696 601.8177 601.8949 600.95 599.4813 597.9268 596.5801 595.66 595.2296 595.0657 595.0313 595.0858 595.256 595.4937 595.7379 595.8962 595.9586 595.9963 596.0122 595.922 595.5057 594.8379 594.2859 593.8508 593.5272 593.2856 593.1619 592.9789 592.7603 592.5691 592.4065 592.2456 592.0524 591.8248 591.6516 591.5911 591.6305 591.7242 591.8506 591.9963 592.1555 592.3111 592.4431 592.5342 592.5814 592.5923 592.5784 592.5396 592.554 592.6528 592.8013 593.0595 593.1826 593.3351 593.7122 594.3729 594.7706 595.1047 595.4117 595.8897 596.5263 597.5571 598.5938 599.2917 599.7512 599.9329 599.9316 599.8964 599.8765 599.8712 599.8528 599.8169 599.8352 599.7959 599.6797 599.5215 599.4047 599.38 599.3936 599.407 599.3801 599.3935 599.518 599.9347 600.681 601.7933 603.46 605.7931 608.5297 611.5175 614.5127 617.2714 619.889 621.725 622.6442 622.8317 622.5437 622.2344 622.2707 622.5782 622.7504 622.376 621.4012 619.9933 618.4989 617.067 615.595 613.7921 612.1091 610.3807 608.6464 606.9301 605.582 604.6178 604.0191 603.8629 603.8733 603.8887 603.8251 603.5604 603.377 603.2395 603.1986 603.1776 603.0852 602.9589 602.9108 602.8567 602.7094 602.4686 602.4238 602.3904 602.1784 602.0186 601.8475 601.696 601.5875 601.516 601.4747 601.4581 601.4313 601.3898 601.3373 601.2736 601.2189 601.2257 601.2258 601.2661 601.3717 601.5834 602.0078 602.6757 603.8051 605.0667 606.483 608.3669 610.7501 613.8605 616.7256 619.3779 622.3086 -9999 -9999 -9999 -9999 -9999 -9999 -9999 -9999 -9999 -9999 -9999 -9999 -9999 -9999 -9999 -9999 -9999 -9999 -9999 -9999 -9999 -9999 -9999 -9999 -9999 -9999 -9999 -9999 -9999 -9999 -9999 -9999 -9999 -9999 -9999 -9999 -9999 -9999 -9999 -9999 -9999 -9999 -9999 -9999 -9999 -9999 -9999 -9999 -9999 -9999 -9999 -9999 -9999 -9999 -9999 -9999 -9999 -9999 -9999 -9999 -9999 -9999 -9999 -9999 -9999 -9999 -9999 -9999 -9999 -9999 -9999 -9999 -9999 -9999 -9999 -9999 -9999 -9999 -9999 -9999
-9999 -9999 -9999 -9999 -9999 -9999 -9999 -9999 -9999 -9999 -9999 -9999 -9999 -9999 -9999 -9999 630.8777 629.1909 627.6325 626.1302 624.2797 621.8886 619.1271 616.3909 614.1143 612.5834 611.0515 609.5013 608.1234 606.9961 606.1387 605.51 605.0818 604.5093 603.9385 603.4582 603.1415 602.9913 602.9178 602.7737 602.4144 601.6896 600.9124 600.1915 599.6571 599.3599 598.9709 598.6088 598.2996 597.7828 597.0731 596.386 595.8571 595.4921 595.2864 595.183 595.1463 595.1002 595.0242 595.0135 595.1355 595.3533 595.5951 595.8806 596.1591 596.2973 596.229 596.1329 596.121 596.1342 596.1154 596.0845 596.0895 596.1595 596.3245 596.5874 596.991 597.4317 597.8026 597.8734 597.8683 597.8048 597.5149 597.2874 596.9916 596.6732 596.3691 596.327 596.2824 596.3283 596.3303 596.3332 596.2876 596.0173 595.5887 595.2724 594.6865 594.2513 593.7709 593.5626 593.4849 593.4164 593.3882 593.3925 593.4227 593.2967 592.8288 592.1228 592.04 592.2289 591.817 591.2796 591.0009 591.0654 591.2468 591.5125 591.8383 592.2971 592.9241 593.9622 595.3864 597.045 598.5892 599.6562 599.9028 599.2419 597.977 596.6396 595.5817 594.9189 594.7905 594.7978 594.8022 594.8165 595.0431 595.4174 595.8474 596.107 596.1669 596.2031 596.2598 596.3018 595.8265 594.9192 594.243 593.7613 593.4573 593.2725 593.0757 592.9015 592.727 592.583 592.475 592.3717 592.234 592.031 591.8148 591.6897 591.6622 591.7114 591.8179 591.9669 592.1455 592.3341 592.496 592.5933 592.624 592.603 592.5507 592.4779 592.4098 592.3396 592.2471 592.1124 591.9244 591.9016 592.0829 592.6315 592.9809 593.2429 593.4549 593.8166 594.4347 595.58 596.9273 598.127 599.0208 599.3519 599.3839 599.3605 599.3463 599.3429 599.3512 599.4008 599.5736 599.603 599.5449 599.4188 599.375 599.5646 599.8183 599.9379 599.7446 599.5212 599.3583 599.3951 599.7853 600.4871 601.5245 602.9338 604.7634 606.7784 608.9114 611.1119 613.4554 615.0722 616.1958 616.9256 617.3255 617.5807 617.8241 617.9128 617.7349 617.13 616.1315 614.757 613.5324 612.5444 611.688 610.1597 608.73 607.3098 606.0527 604.9934 604.1317 603.5897 603.1902 603.0919 603.1179 603.1508 603.1226 603.0078 602.9293 602.8828 602.8761 602.8505 602.7191 602.481 602.4282 602.3887 602.2251 601.9186 601.803 601.7568 601.6024 601.3406 600.9562 600.7881 600.7404 600.7402 600.7783 600.8641 600.8975 600.9001 600.9026 600.901 600.9128 601.0428 601.0811 601.1487 601.2278 601.3806 601.7281 602.3876 603.4176 604.5022 605.8657 607.7756 610.1802 613.0466 615.674 618.1464 620.972 624.4313 -9999 -9999 -9999 -9999 -9999 -9999 -9999 -9999 -9999 -9999 -9999 -9999 -9999 -9999 -9999 -9999 -9999 -9999 -9999 -9999 -9999 -9999 -9999 -9999 -9999 -9999 -9999 -9999 -9999 -9999 -9999 -9999 -9999 -9999 -9999 -9999 -9999 -9999 -9999 -9999 -9999 -9999 -9999 -9999 -9999 -9999 -9999 -9999 -9999 -9999 -9999 -9999 -9999 -9999 -9999 -9999 -9999 -9999 -9999 -9999 -9999 -9999 -9999 -9999 -9999 -9999 -9999 -9999 -9999 -9999 -9999 -9999 -9999 -9999 -9999 -9999 -9999 -9999 -9999
-9999 -9999 -9999 -9999 -9999 -9999 -9999 -9999 -9999 -9999 -9999 -9999 -9999 -9999 -9999 -9999 631.1668 629.8259 628.818 628.1289 627.1398 625.2886 622.743 619.8712 617.1124 614.7346 612.5351 610.4117 608.6759 607.3171 606.2833 605.5275 605.0323 604.4753 603.9203 603.4178 603.0697 602.902 602.8434 602.7277 602.3799 601.5477 600.8369 600.1679 599.7148 599.5157 599.3638 599.1381 598.9328 598.5647 597.9015 597.1714 596.5032 595.9849 595.6852 595.4731 595.3456 595.2152 595.0646 594.9919 595.0712 595.2609 595.4979 595.7822 596.0538 596.1786 596.1223 596.1075 596.2028 596.2524 596.179 596.0701 596.0437 596.1548 596.3775 596.8767 597.3967 597.8618 598.2172 598.3481 598.3236 598.1742 597.8986 597.8085 597.5121 597.2457 596.8944 596.6143 596.3426 596.2247 596.1914 596.1126 595.7542 595.0941 594.7885 594.3859 593.5735 593.4987 593.3839 593.3214 593.3142 593.3066 593.2972 593.2875 593.2809 592.7916 591.8687 590.7786 590.7017 590.7731 589.7193 588.8779 588.562 588.6731 588.856 589.1144 589.4609 589.8467 590.3901 591.3759 592.8541 594.5435 596.1103 597.2852 597.8482 597.5864 596.6461 595.6501 594.8666 594.462 594.3959 594.4404 594.4852 594.5588 594.8147 595.2991 595.9657 596.3255 596.3356 596.3329 596.3384 596.4629 596.1077 594.992 594.1448 593.5883 593.2769 593.0817 592.9204 592.7954 592.6939 592.6206 592.584 592.5518 592.4539 592.2815 592.0664 591.9001 591.8326 591.8502 591.938 592.0844 592.278 592.4899 592.6705 592.7596 592.7756 592.7437 592.6831 592.6027 592.5035 592.3604 592.1301 591.7859 591.5139 591.2609 590.9601 591.0862 591.2454 591.4545 591.5731 591.7756 592.3312 593.5109 595.0553 596.6647 597.863 598.4865 598.6294 598.6132 598.5889 598.5909 598.663 598.9139 599.2724 599.3797 599.4523 599.3694 599.3868 599.8429 600.4118 600.7359 600.4302 600.0894 599.7206 599.4678 599.3804 599.5455 600.1956 600.8961 602.0143 603.2692 604.631 606.0864 607.6852 609.0259 610.1324 611.0853 611.7859 612.2937 612.6036 612.4435 612.1754 611.7827 611.1131 610.0161 609.1177 608.4424 607.7993 606.8235 605.9143 605.0416 604.1764 603.6023 603.0686 602.6166 602.4423 602.4167 602.4177 602.4322 602.4397 602.4272 602.4232 602.4261 602.4313 602.3979 602.2288 601.9009 601.7227 601.5511 601.2083 600.9727 600.8406 600.7971 600.7032 600.383 599.7136 599.4277 599.3657 599.4033 599.5601 599.92 600.1288 600.2463 600.3854 600.5029 600.663 600.8826 600.9067 601.0305 601.0823 601.1536 601.3982 601.9211 602.7432 603.9618 605.5092 607.5253 609.9417 612.6235 615.096 617.4901 620.2333 623.6605 -9999 -9999 -9999 -9999 -9999 -9999 -9999 -9999 -9999 -9999 -9999 -9999 -9999 -9999 -9999 -9999 -9999 -9999 -9999 -9999 -9999 -9999 -9999 -9999 -9999 -9999 -9999 -9999 -9999 -9999 -9999 -9999 -9999 -9999 -9999 -9999 -9999 -9999 -9999 -9999 -9999 -9999 -9999 -9999 -9999 -9999 -9999 -9999 -9999 -9999 -9999 -9999 -9999 -9999 -9999 -9999 -9999 -9999 -9999 -9999 -9999 -9999 -9999 -9999 -9999 -9999 -9999 -9999 -9999 -9999 -9999 -9999 -9999 -9999 -9999 -9999 -9999 -9999 -9999
-9999 -9999 -9999 -9999 -9999 -9999 -9999 -9999 -9999 -9999 -9999 -9999 -9999 -9999 -9999 -9999 -9999 -9999 629.3094 629.0998 629.101 627.9153 625.7909 623.1099 620.2731 617.4869 614.6897 611.8873 609.7473 608.1278 606.8896 606.0017 605.3806 604.7029 604.0164 603.4893 603.0802 602.8479 602.7654 602.6495 602.2763 601.2111 600.5415 599.9838 599.6055 599.4716 599.43 599.3801 599.3761 599.2787 598.7656 598.1375 597.5192 596.7613 596.3693 595.9788 595.7346 595.4981 595.2688 595.1203 595.1251 595.2448 595.4282 595.6622 595.9054 596.0259 596.0349 596.1506 596.3802 596.467 596.3152 596.1079 596.0695 596.3107 596.7443 597.3217 597.837 598.2646 598.6107 598.7786 598.7358 598.5295 598.2582 598.0759 597.8716 597.8043 597.473 597.0963 596.7266 596.4088 596.345 596.2929 595.8684 595.3287 594.8892 594.7239 594.3792 594.0978 594.1038 594.3619 594.497 594.605 594.6477 594.6099 594.3672 593.5209 592.4682 591.338 590.3805 589.4606 588.5573 587.5538 587.2518 587.2547 587.3321 587.4683 587.9404 588.3721 588.8024 589.4609 590.7122 592.3228 593.8467 595.1251 595.9937 596.0868 595.5573 594.8738 594.3728 594.1302 594.0948 594.1385 594.1935 594.2819 594.527 595.0162 595.9429 596.401 596.5168 596.5282 596.5211 596.4497 595.9417 594.7996 593.8616 593.2919 593.0121 592.8633 592.7762 592.7234 592.7076 592.7144 592.7649 592.8272 592.778 592.5871 592.395 592.2336 592.1472 592.1434 592.2105 592.3399 592.5245 592.7413 592.9409 593.0028 593.004 592.9797 592.9408 592.8914 592.8272 592.7256 592.5605 592.2985 591.9453 591.5303 590.6322 590.4733 590.3391 590.2742 590.275 590.3685 590.8679 591.963 593.5057 595.314 596.8032 597.6885 597.8908 597.8887 597.8708 597.8676 597.9351 598.2639 598.5854 598.9589 599.3631 599.3763 599.4021 600.0328 600.799 601.0968 600.9525 600.7827 600.363 600.0515 599.7886 599.5026 599.3947 599.5959 600.2176 600.918 601.7362 602.535 603.4804 604.4819 605.3419 606.1149 606.7578 607.2514 607.4997 607.4342 607.2658 607.0201 606.5912 605.9315 605.3925 605.0458 604.7321 604.2901 603.903 603.4702 602.8229 602.5009 602.314 602.0427 601.8984 601.8143 601.7178 601.6974 601.7126 601.7217 601.7273 601.7343 601.7141 601.5768 601.222 600.9645 600.7765 600.618 600.2986 600.0023 599.6469 599.4558 599.3312 599.0056 598.3334 598.0332 597.9664 598.0284 598.288 598.8929 599.2194 599.4641 599.7969 600.0094 600.2672 600.5268 600.6901 600.8785 600.8919 600.9007 601.1067 601.6054 602.4537 603.7722 605.5051 607.7542 610.3053 613.1006 615.7175 618.168 620.768 623.9011 -9999 -9999 -9999 -9999 -9999 -9999 -9999 -9999 -9999 -9999 -9999 -9999 -9999 -9999 -9999 -9999 -9999 -9999 -9999 -9999 -9999 -9999 -9999 -9999 -9999 -9999 -9999 -9999 -9999 -9999 -9999 -9999 -9999 -9999 -9999 -9999 -9999 -9999 -9999 -9999 -9999 -9999 -9999 -9999 -9999 -9999 -9999 -9999 -9999 -9999 -9999 -9999 -9999 -9999 -9999 -9999 -9999 -9999 -9999 -9999 -9999 -9999 -9999 -9999 -9999 -9999 -9999 -9999 -9999 -9999 -9999 -9999 -9999 -9999 -9999 -9999 -9999 -9999 -9999
-9999 -9999 -9999 -9999 -9999 -9999 -9999 -9999 -9999 -9999 -9999 -9999 -9999 -9999 -9999 -9999 -9999 -9999 -9999 630.3484 630.4747 629.8079 628.0278 625.6011 622.9073 620.1215 617.192 614.2034 611.5152 609.5642 608.0161 606.9049 606.1083 605.3774 604.6117 603.9412 603.3496 602.9442 602.7513 602.5911 602.209 601.0786 600.3601 599.8156 599.4493 599.3396 599.3453 599.3605 599.417 599.4976 599.3815 599.1371 598.5618 597.892 597.4252 596.7454 596.39 595.9946 595.6822 595.4309 595.3334 595.3455 595.432 595.5854 595.8001 595.9379 596.0636 596.3282 596.6883 596.7988 596.5349 596.1925 596.113 596.4298 597.1417 597.7751 598.1866 598.5839 598.9688 599.1954 599.1217 598.8295 598.4859 598.2152 598.0331 597.9692 597.8472 597.5879 597.344 597.1104 596.8947 596.7045 596.369 596.0799 595.6457 595.4358 595.2607 595.1371 595.1907 595.4078 595.6531 595.988 596.1274 596.0994 595.7819 594.9194 593.9014 592.7653 591.5118 590.3005 589.3042 588.3334 587.5983 587.3218 587.2357 587.3088 587.7716 588.1987 588.4894 588.8707 589.5734 590.9922 592.3312 593.4521 594.3866 594.6804 594.5516 594.222 593.9646 593.854 593.8553 593.8948 593.9417 594.014 594.2016 594.6022 595.226 595.9676 596.1857 596.2062 596.1504 595.9081 595.1018 594.1375 593.3624 592.9685 592.7897 592.7209 592.73 592.7737 592.859 592.9397 593.0619 593.2606 593.2478 593.0076 592.8322 592.7239 592.6399 592.6239 592.6615 592.7437 592.8673 593.0377 593.2634 593.2828 593.2824 593.2817 593.2808 593.2794 593.2778 593.2745 593.2581 593.2061 593.0505 592.6478 591.7603 591.153 590.6147 590.356 590.2746 590.2582 590.4891 591.4324 592.7536 594.5258 596.1467 597.0919 597.4537 597.5211 597.5075 597.5055 597.5892 597.8268 597.9506 598.4798 599.165 599.376 599.4092 600.0946 600.8773 601.3406 601.4333 601.2971 600.9832 600.8469 600.6409 600.1638 599.8322 599.6118 599.3858 599.5557 600.0316 600.3306 600.7952 601.575 602.1183 602.5734 602.9993 603.3614 603.5566 603.5974 603.6002 603.5347 603.3619 603.072 602.8522 602.7339 602.6544 602.5614 602.4874 602.3274 601.9606 601.7078 601.5913 601.4724 601.3788 601.2393 600.9949 600.924 600.8988 600.8425 600.7761 600.7614 600.7472 600.6406 600.304 599.9524 599.5352 599.3533 599.2266 599.047 598.6096 598.1653 597.9482 597.6603 597.2411 597.0377 596.9861 597.0371 597.2405 597.675 598.0801 598.6327 599.2 599.4471 599.7972 600.0916 600.2861 600.4354 600.4958 600.5945 600.8965 601.4879 602.4453 603.9041 605.9453 608.6486 611.6382 614.8271 617.7824 620.4031 622.8235 625.3936 -9999 -9999 -9999 -9999 -9999 -9999 -9999 -9999 -9999 -9999 -9999 -9999 -9999 -9999 -9999 -9999 -9999 -9999 -9999 -9999 -9999 -9999 -9999 -9999 -9999 -9999 -9999 -9999 -9999 -9999 -9999 -9999 -9999 -9999 -9999 -9999 -9999 -9999 -9999 -9999 -9999 -9999 -9999 -9999 -9999 -9999 -9999 -9999 -9999 -9999 -9999 -9999 -9999 -9999 -9999 -9999 -9999 -9999 -9999 -9999 -9999 -9999 -9999 -9999 -9999 -9999 -9999 -9999 -9999 -9999 -9999 -9999 -9999 -9999 -9999 -9999 -9999 -9999 -9999
-9999 -9999 -9999 -9999 -9999 -9999 -9999 -9999 -9999 -9999 -9999 -9999 -9999 -9999 -9999 -9999 -9999 -9999 -9999 -9999 -9999 631.0341 629.3854 627.1033 624.6213 622.1298 619.4986 616.73 614.038 611.6983 609.739 608.3575 607.4337 606.6414 605.8069 604.9714 604.0865 603.3705 602.9355 602.6324 602.1872 601.1044 600.3904 599.8195 599.4178 599.2619 599.2457 599.2319 599.2837 599.4741 599.6169 599.5941 599.3129 598.8169 598.4033 597.8516 597.43 596.7552 596.3735 595.9545 595.7328 595.5995 595.5594 595.6211 595.8218 595.9835 596.2489 596.6531 597.1162 597.2655 596.8787 596.4014 596.3325 596.8878 597.6497 598.0728 598.4026 598.8068 599.2859 599.6276 599.4875 599.062 598.5891 598.2142 597.9834 597.8922 597.8719 597.8592 597.8481 597.7823 597.4886 597.2708 597.0614 596.8449 596.5512 596.4426 596.3869 596.3552 596.3832 596.4736 596.6282 596.9467 597.1108 597.1156 596.8907 596.3221 595.5167 594.5363 593.311 592.1072 591.1411 590.2236 589.395 588.9379 588.652 588.6305 588.9097 589.2897 589.4492 589.674 590.165 590.942 591.6996 592.3278 593.0688 593.3866 593.475 593.5925 593.58 593.609 593.657 593.6944 593.7233 593.771 593.8749 594.1355 594.5264 594.9081 595.0132 594.9785 594.8567 594.6442 594.0885 593.4081 592.9831 592.7748 592.72 592.7437 592.8674 593.0273 593.2714 593.4308 593.5657 593.8503 593.8573 593.5887 593.4956 593.4459 593.3485 593.3134 593.3156 593.3204 593.3009 593.28 593.4484 593.5582 593.6156 593.6465 593.6672 593.6873 593.7145 593.754 593.7996 593.8194 593.7644 593.5272 593.0854 592.6534 592.1232 591.7324 591.5582 591.4498 591.6411 592.2101 593.3119 594.7365 596.1068 596.9875 597.4349 597.5443 597.5372 597.524 597.5549 597.6564 597.8129 598.3107 599.2036 599.3302 599.4768 600.2472 601.0082 601.6413 601.9127 601.8177 601.5947 601.4399 601.2446 600.9358 600.7856 600.6446 600.3768 599.9882 599.7811 599.403 599.5401 600.1915 600.3851 600.487 600.6434 600.7991 600.9178 601.0378 601.2449 601.3499 601.3926 601.4489 601.4561 601.4662 601.4824 601.5003 601.521 601.4572 601.239 600.9602 600.858 600.7606 600.706 600.5844 600.2922 600.1389 599.9957 599.7281 599.4544 599.3682 599.3669 599.3435 599.2062 598.9182 598.3013 598.0613 598.0009 597.9241 597.6662 597.2012 596.9033 596.5418 596.3488 596.2994 596.2946 596.2939 596.3406 596.5609 597.0861 597.7842 598.4661 598.9357 599.3659 599.6802 599.8617 600.0095 600.129 600.3435 600.8076 601.6315 602.7942 604.4841 606.9387 610.1515 613.7784 617.5415 620.9624 623.8002 626.0411 628.0148 -9999 -9999 -9999 -9999 -9999 -9999 -9999 -9999 -9999 -9999 -9999 -9999 -9999 -9999 -9999 -9999 -9999 -9999 -9999 -9999 -9999 -9999 -9999 -9999 -9999 -9999 -9999 -9999 -9999 -9999 -9999 -9999 -9999 -9999 -9999 -9999 -9999 -9999 -9999 -9999 -9999 -9999 -9999 -9999 -9999 -9999 -9999 -9999 -9999 -9999 -9999 -9999 -9999 -9999 -9999 -9999 -9999 -9999 -9999 -9999 -9999 -9999 -9999 -9999 -9999 -9999 -9999 -9999 -9999 -9999 -9999 -9999 -9999 -9999 -9999 -9999 -9999 -9999 -9999
-9999 -9999 -9999 -9999 -9999 -9999 -9999 -9999 -9999 -9999 -9999 -9999 -9999 -9999 -9999 -9999 -9999 -9999 -9999 -9999 -9999 -9999 -9999 627.6387 625.3007 623.2633 621.2675 619.0543 616.6599 614.2985 612.144 610.4666 609.5071 608.7402 607.9189 606.8996 605.6274 604.4149 603.593 603.0182 602.3975 601.5094 600.803 600.1743 599.7126 599.4333 599.301 599.1939 599.1696 599.3675 599.6718 599.8 599.7091 599.436 599.2382 598.7864 598.3961 597.8522 597.4241 596.728 596.3729 596.0344 595.8799 595.8334 595.9155 596.0868 596.4573 596.9905 597.5619 597.8799 597.4199 596.8573 596.807 597.5419 598.0846 598.3694 598.6024 598.9857 599.5782 600.1054 599.8389 599.2317 598.6162 598.1517 597.8627 597.7427 597.7483 597.8267 597.8893 597.91 597.8557 597.8497 597.8742 597.8864 597.8401 597.7671 597.7053 597.6561 597.6309 597.6398 597.6907 597.7927 597.8412 597.8564 597.8025 597.5577 597.0276 596.3406 595.3506 594.2809 593.3398 592.4811 591.6559 591.0991 590.7285 590.6373 590.8322 591.1438 591.2898 591.3912 591.5607 591.7559 591.8185 591.8002 592.3158 592.6797 592.9484 593.2371 593.2867 593.4153 593.4969 593.531 593.5388 593.5551 593.6099 593.7181 593.9111 594.0634 594.0439 593.8707 593.5801 593.4412 593.272 592.9948 592.8318 592.7856 592.8662 592.9829 593.2673 593.554 594.042 594.4908 594.6549 594.7557 594.7482 594.6706 594.6371 594.5604 594.2909 594.1912 594.171 594.1318 593.9308 593.5226 593.6964 593.8903 593.9911 594.0374 594.0627 594.0833 594.109 594.1475 594.1931 594.2273 594.2267 594.152 594.0007 593.8394 593.5738 593.3434 593.2502 593.2511 593.3337 593.6966 594.4617 595.4405 596.4636 597.3434 597.9132 598.0482 598.0561 598.0475 598.0409 598.0685 598.2658 598.9686 599.2728 599.4304 599.8868 600.702 601.4581 602.0823 602.3985 602.2445 602.035 601.876 601.7223 601.5562 601.4658 601.3521 601.1301 600.8655 600.7253 600.5505 600.5949 600.7609 600.4069 599.9086 599.5159 599.4592 599.4959 599.6251 599.9792 600.1257 600.2368 600.4835 600.576 600.6036 600.6193 600.6334 600.6558 600.653 600.5464 600.2158 599.9833 599.6524 599.4947 599.3528 599.2374 599.181 599.0401 598.6144 598.1669 598.0128 597.9961 598.0103 597.9828 597.8369 597.4736 597.2638 597.1843 597.0886 596.8271 596.4303 596.262 595.9656 595.7921 595.7341 595.7263 595.7365 595.7849 595.973 596.3853 597.0468 597.8756 598.4745 598.9756 599.3625 599.5423 599.7557 599.944 600.2638 600.9094 602.0531 603.5671 605.6918 608.6838 612.3885 616.6722 620.9435 624.7352 627.7132 629.7469 -9999 -9999 -9999 -9999 -9999 -9999 -9999 -9999 -9999 -9999 -9999 -9999 -9999 -9999 -9999 -9999 -9999 -9999 -9999 -9999 -9999 -9999 -9999 -9999 -9999 -9999 -9999 -9999 -9999 -9999 -9999 -9999 -9999 -9999 -9999 -9999 -9999 -9999 -9999 -9999 -9999 -9999 -9999 -9999 -9999 -9999 -9999 -9999 -9999 -9999 -9999 -9999 -9999 -9999 -9999 -9999 -9999 -9999 -9999 -9999 -9999 -9999 -9999 -9999 -9999 -9999 -9999 -9999 -9999 -9999 -9999 -9999 -9999 -9999 -9999 -9999 -9999 -9999 -9999 -9999
-9999 -9999 -9999 -9999 -9999 -9999 -9999 -9999 -9999 -9999 -9999 -9999 -9999 -9999 -9999 -9999 -9999 -9999 -9999 -9999 -9999 -9999 -9999 -9999 625.458 623.978 622.7235 621.1417 619.1375 616.9821 614.9534 613.3276 612.387 611.6769 610.9331 609.9277 608.1649 606.4486 605.1458 604.2594 603.4313 602.5245 601.7322 601.0627 600.5585 600.0781 599.7621 599.4612 599.2782 599.3898 599.7402 599.9711 600.0153 599.8932 599.7096 599.4188 599.2272 598.7833 598.3739 597.8127 597.3698 596.7084 596.4589 596.3262 596.2271 596.027 596.1943 596.7976 597.8121 598.6369 598.3265 597.9648 598.2322 598.8079 599.0317 599.0515 599.0542 599.2614 599.8732 600.6356 600.1779 599.3936 598.6813 598.1914 597.9036 597.7804 597.7797 597.8832 597.9688 598.0569 598.2151 598.5026 598.854 599.1346 599.2905 599.1335 598.8969 598.6685 598.4822 598.3788 598.3582 598.3976 598.4293 598.4573 598.4751 598.4258 598.2622 597.9055 597.3491 596.5707 595.6907 594.8306 594.02 593.3571 592.9275 592.7764 592.8691 593.0519 593.1198 593.1526 593.1708 593.1431 592.9318 592.4675 592.4873 592.5599 592.6967 592.8858 593.0436 593.2704 593.3757 593.4117 593.4105 593.4045 593.4163 593.4581 593.5162 593.541 593.4591 593.2764 593.0715 592.986 592.9357 592.8826 592.9243 593.0017 593.2394 593.4359 593.9719 594.5223 594.9016 595.2458 595.3113 595.2491 595.1223 595.0486 594.6948 594.981 594.8203 594.7956 594.801 594.7869 594.5329 593.7421 594.0823 594.3268 594.4106 594.4362 594.4473 594.4556 594.4673 594.4844 594.5065 594.5223 594.5276 594.5337 594.5747 594.7363 594.7415 594.6862 594.6013 594.4351 594.3688 594.78 595.4849 596.3666 597.2727 598.1538 598.9177 599.1522 599.196 599.2034 599.1957 599.1901 599.2126 599.2895 599.4637 599.9002 600.3965 601.0798 601.8835 602.4148 602.5829 602.4355 602.2876 602.1513 602.0411 601.9505 601.8926 601.8207 601.6633 601.4647 601.3264 601.2143 601.1986 601.1517 600.7763 599.9866 599.4259 599.2703 599.2792 599.3292 599.46 599.5187 599.5315 599.4948 599.5009 599.507 599.5119 599.507 599.5156 599.5287 599.5163 599.4363 599.2927 598.8553 598.4745 598.1254 598.0124 597.9968 597.9384 597.7101 597.414 597.2509 597.1943 597.1859 597.1748 597.0897 596.9052 596.767 596.6821 596.5726 596.3321 596.0397 595.8312 595.6024 595.4514 595.3857 595.3879 595.4478 595.5654 595.7819 596.1255 596.5969 597.5649 598.1459 598.6999 599.171 599.4578 599.8368 600.0752 600.4744 601.2667 602.6794 604.6421 607.3759 611.0291 615.3477 620.0745 624.623 628.5354 631.4793 633.3167 -9999 -9999 -9999 -9999 -9999 -9999 -9999 -9999 -9999 -9999 -9999 -9999 -9999 -9999 -9999 -9999 -9999 -9999 -9999 -9999 -9999 -9999 -9999 -9999 -9999 -9999 -9999 -9999 -9999 -9999 -9999 -9999 -9999 -9999 -9999 -9999 -9999 -9999 -9999 -9999 -9999 -9999 -9999 -9999 -9999 -9999 -9999 -9999 -9999 -9999 -9999 -9999 -9999 -9999 -9999 -9999 -9999 -9999 -9999 -9999 -9999 -9999 -9999 -9999 -9999 -9999 -9999 -9999 -9999 -9999 -9999 -9999 -9999 -9999 -9999 -9999 -9999 -9999 -9999 -9999
-9999 -9999 -9999 -9999 -9999 -9999 -9999 -9999 -9999 -9999 -9999 -9999 -9999 -9999 -9999 -9999 -9999 -9999 -9999 -9999 -9999 -9999 -9999 -9999 -9999 625.0477 624.3431 623.2405 621.5643 619.7286 618.0603 616.7574 615.896 615.2565 614.4802 613.2814 611.4875 609.5668 608.0336 606.871 605.7557 604.6739 603.6672 602.8462 602.1155 601.4532 600.9413 600.3131 599.814 599.7047 599.9943 600.2521 600.3045 600.2465 600.0779 599.8684 599.7288 599.4803 599.2213 598.7008 598.2632 597.7869 597.5415 597.1283 596.7891 596.5063 596.5744 597.0711 598.0152 599.1211 599.9081 600.4482 600.8987 601.0972 600.8953 600.5399 600.1769 599.9732 600.3358 601.2275 600.5556 599.7151 599.0325 598.6264 598.4255 598.3491 598.3563 598.4265 598.5024 598.605 598.8702 599.3942 600.0614 600.5465 600.8949 600.6475 600.2764 599.9042 599.5741 599.4047 599.3766 599.43 599.4612 599.4756 599.5051 599.5571 599.6227 599.6263 599.4496 598.9922 598.2834 597.4659 596.6569 595.8601 595.2292 594.8911 594.8359 594.9157 594.8123 594.7306 594.625 594.5137 594.2324 593.6305 593.2588 592.9219 592.7828 592.7521 592.848 593.0634 593.2771 593.3621 593.3896 593.3815 593.3737 593.377 593.3889 593.3689 593.2796 593.1171 593.0073 592.9734 592.9781 593.0316 593.2487 593.3773 593.7441 594.1632 594.7319 595.2404 595.6443 595.8698 595.7189 595.4274 595.147 594.7525 595.024 595.0568 594.9829 594.9023 594.8035 594.6473 594.3192 593.9425 594.6121 594.8 594.8128 594.8115 594.8113 594.8113 594.8111 594.8115 594.8124 594.8137 594.8133 594.8144 594.8657 595.1778 595.3771 595.4376 595.3927 595.2755 595.3052 595.7515 596.5281 597.5013 598.3809 599.2523 599.5878 599.5307 599.4686 599.4478 599.4219 599.3883 599.3868 599.52 600.0588 600.6666 601.0516 601.6583 602.3287 602.6232 602.6814 602.5642 602.429 602.3049 602.2228 602.167 602.123 602.048 601.9057 601.7042 601.5134 601.3622 601.2926 601.125 600.6498 599.808 599.2501 599.2112 599.3607 599.4031 599.3917 599.3677 599.3798 599.3799 599.3799 599.38 599.3798 599.3119 599.3064 599.3489 599.3798 599.2459 598.828 598.2877 597.8563 597.5426 597.4153 597.3907 597.3558 597.2274 597.0446 596.9058 596.8216 596.7637 596.7163 596.6577 596.5702 596.5002 596.4359 596.3237 596.0758 595.8214 595.6152 595.4252 595.2972 595.2455 595.2784 595.406 595.634 595.9399 596.297 596.6719 597.3239 597.9041 598.6221 599.3451 600.0377 600.4319 600.6115 601.1432 602.2423 603.8989 606.268 609.5631 613.7383 618.5366 623.5244 628.1068 631.893 634.6413 -9999 -9999 -9999 -9999 -9999 -9999 -9999 -9999 -9999 -9999 -9999 -9999 -9999 -9999 -9999 -9999 -9999 -9999 -9999 -9999 -9999 -9999 -9999 -9999 -9999 -9999 -9999 -9999 -9999 -9999 -9999 -9999 -9999 -9999 -9999 -9999 -9999 -9999 -9999 -9999 -9999 -9999 -9999 -9999 -9999 -9999 -9999 -9999 -9999 -9999 -9999 -9999 -9999 -9999 -9999 -9999 -9999 -9999 -9999 -9999 -9999 -9999 -9999 -9999 -9999 -9999 -9999 -9999 -9999 -9999 -9999 -9999 -9999 -9999 -9999 -9999 -9999 -9999 -9999 -9999 -9999
-9999 -9999 -9999 -9999 -9999 -9999 -9999 -9999 -9999 -9999 -9999 -9999 -9999 -9999 -9999 -9999 -9999 -9999 -9999 -9999 -9999 -9999 -9999 -9999 -9999 -9999 626.5099 625.5453 624.108 622.6572 621.5087 620.6537 620.0244 619.4411 618.6141 617.2786 615.4549 613.6274 612.1707 610.9612 609.6635 608.3541 607.0848 605.9305 604.9152 604.0856 603.2686 602.078 601.0204 600.4537 600.4481 600.7047 600.6248 600.5712 600.4452 600.3137 600.2908 600.2475 599.913 599.4445 599.1447 598.8187 598.7808 598.3615 598.2434 598.3813 598.8083 599.5994 600.7904 602.2582 603.6722 604.6705 605.0546 604.7718 604.0776 603.2844 602.525 601.9871 601.8739 601.8907 601.2713 600.6429 600.136 599.9039 599.8511 599.8641 599.8866 599.9022 599.9134 599.9343 600.1385 600.71 601.5909 602.1124 602.6703 602.4838 602.2194 601.9089 601.5589 601.4157 601.4442 601.5678 601.6005 601.5762 601.5784 601.6754 601.8798 602.1221 602.1782 601.9218 601.3721 600.6811 599.8908 599.0096 598.1411 597.4793 597.1378 597.0377 596.5244 596.1862 595.7787 595.5197 595.2471 594.8173 594.35 593.6602 593.2726 592.9474 592.8887 593.0377 593.2872 593.479 593.5607 593.5751 593.5629 593.5552 593.5531 593.5263 593.4376 593.2995 593.2723 593.2684 593.272 593.3435 593.7217 594.0602 594.3643 594.7642 595.2279 595.7178 596.1437 596.3077 595.9329 595.4465 594.9905 594.8102 594.8529 594.9352 594.921 594.8123 594.6153 594.4252 594.1979 594.2205 594.6774 594.9645 595.0861 595.1404 595.1653 595.1738 595.1754 595.1783 595.187 595.2029 595.2235 595.2566 595.3548 595.5944 595.8037 595.914 595.932 595.8795 596.0066 596.6103 597.6148 598.7394 599.9329 600.9035 600.7724 599.9504 599.5286 599.3675 599.3276 599.3829 599.6412 600.1586 600.8304 601.3914 601.7732 602.1059 602.4391 602.6428 602.6716 602.5699 602.431 602.3403 602.2815 602.2482 602.2036 602.0988 601.9005 601.6093 601.2734 600.9465 600.7739 600.4861 599.734 598.9739 598.2337 598.2145 598.8636 599.3558 599.3977 599.3801 599.3998 599.4294 599.4589 599.4821 599.4894 599.4595 599.4584 599.482 599.4532 599.2158 598.4939 597.8893 597.5244 597.308 597.2202 597.1994 597.1759 597.1058 596.9906 596.8738 596.7683 596.6578 596.554 596.4716 596.4141 596.3821 596.33 596.1732 595.9373 595.7066 595.5261 595.3856 595.3071 595.2978 595.3839 595.5745 595.8986 596.2962 596.582 596.9026 597.4053 597.9691 598.7502 599.4908 600.3549 601.105 601.3518 602.2263 603.5447 605.4392 608.1776 611.8572 616.4112 621.526 626.5728 630.9913 634.507 636.9914 -9999 -9999 -9999 -9999 -9999 -9999 -9999 -9999 -9999 -9999 -9999 -9999 -9999 -9999 -9999 -9999 -9999 -9999 -9999 -9999 -9999 -9999 -9999 -9999 -9999 -9999 -9999 -9999 -9999 -9999 -9999 -9999 -9999 -9999 -9999 -9999 -9999 -9999 -9999 -9999 -9999 -9999 -9999 -9999 -9999 -9999 -9999 -9999 -9999 -9999 -9999 -9999 -9999 -9999 -9999 -9999 -9999 -9999 -9999 -9999 -9999 -9999 -9999 -9999 -9999 -9999 -9999 -9999 -9999 -9999 -9999 -9999 -9999 -9999 -9999 -9999 -9999 -9999 -9999 -9999 -9999
-9999 -9999 -9999 -9999 -9999 -9999 -9999 -9999 -9999 -9999 -9999 -9999 -9999 -9999 -9999 -9999 -9999 -9999 -9999 -9999 -9999 -9999 -9999 -9999 -9999 -9999 -9999 -9999 626.7418 625.7998 625.2248 624.7739 624.3018 623.7194 622.8275 621.431 619.6241 617.9776 616.8131 615.8506 614.6962 613.3328 611.9046 610.4976 609.1597 608.0089 607.0413 605.0872 603.2231 601.9894 601.4219 601.2957 601.0639 601.0054 600.9576 600.9155 601.0386 601.2368 600.7552 600.2741 600.0044 599.9031 600.1532 600.4418 600.8917 601.6772 602.7282 604.0454 605.6138 607.3618 609.0276 610.1005 610.2765 609.5411 608.3705 607.1451 606.0228 605.204 604.7737 604.4379 603.7177 603.1214 602.743 602.6273 602.6705 602.7626 602.8173 602.7864 602.6605 602.4586 602.4071 602.7073 603.3339 603.9703 604.6357 605.0185 605.2628 605.3264 605.2921 605.2977 605.3544 605.4071 605.3412 605.2086 605.1279 605.2047 605.4571 605.7813 605.9283 605.7536 605.3326 604.8268 604.1417 603.2412 602.1699 601.104 600.1912 599.3829 598.4979 597.7935 597.206 596.8489 596.6116 596.2926 595.7472 594.9778 594.3157 593.6149 593.3998 593.4773 593.7712 593.9718 594.0546 594.0693 594.0651 594.0613 594.0625 594.0464 593.9766 593.858 593.7297 593.6786 593.722 593.9223 594.3402 594.7161 594.8127 595.0481 595.4207 595.8918 596.3149 596.3062 596.0149 595.5596 594.9918 594.7838 594.8065 594.81 594.8095 594.7328 594.5334 594.4327 594.4215 594.5108 594.7738 595.0908 595.2999 595.4252 595.4929 595.5233 595.5365 595.551 595.577 595.6167 595.6648 595.7116 595.7976 595.9548 596.1195 596.2155 596.3186 596.3246 596.5349 597.4504 598.559 599.9441 601.8059 603.3594 602.5369 601.0388 599.8496 599.335 599.1974 599.3641 599.7966 600.6852 601.4625 602.0284 602.3768 602.439 602.5519 602.623 602.6166 602.528 602.4294 602.3293 602.2634 602.2216 602.1545 601.9915 601.6862 601.2408 600.6984 600.132 599.6511 599.2494 598.6521 598.0268 597.7296 597.955 598.6315 599.2236 599.381 599.4462 599.5067 599.5772 599.6455 599.6929 599.7072 599.6787 599.6278 599.5284 599.2771 598.6713 597.9711 597.5748 597.3761 597.2976 597.2926 597.307 597.2899 597.2395 597.1608 597.0645 596.9431 596.7726 596.6028 596.4703 596.3944 596.3675 596.3284 596.1167 595.8788 595.6755 595.5403 595.4639 595.4626 595.5264 595.6973 595.9415 596.3514 596.8125 597.093 597.3624 597.8523 598.4894 599.2289 599.8516 600.6021 601.3792 602.2852 603.4261 604.9055 607.0515 610.0865 613.9914 618.7242 623.925 628.8466 632.9783 636.1766 638.3702 -9999 -9999 -9999 -9999 -9999 -9999 -9999 -9999 -9999 -9999 -9999 -9999 -9999 -9999 -9999 -9999 -9999 -9999 -9999 -9999 -9999 -9999 -9999 -9999 -9999 -9999 -9999 -9999 -9999 -9999 -9999 -9999 -9999 -9999 -9999 -9999 -9999 -9999 -9999 -9999 -9999 -9999 -9999 -9999 -9999 -9999 -9999 -9999 -9999 -9999 -9999 -9999 -9999 -9999 -9999 -9999 -9999 -9999 -9999 -9999 -9999 -9999 -9999 -9999 -9999 -9999 -9999 -9999 -9999 -9999 -9999 -9999 -9999 -9999 -9999 -9999 -9999 -9999 -9999 -9999 -9999
-9999 -9999 -9999 -9999 -9999 -9999 -9999 -9999 -9999 -9999 -9999 -9999 -9999 -9999 -9999 -9999 -9999 -9999 -9999 -9999 -9999 -9999 -9999 -9999 -9999 -9999 -9999 -9999 -9999 628.9811 628.9107 628.7246 628.275 627.6068 626.6528 625.2935 623.6115 622.1745 621.3296 620.7043 619.8083 618.5897 617.2234 615.7905 614.2563 612.6613 610.9932 608.8616 606.7121 604.9774 603.7095 602.8067 602.2408 602.0624 601.963 601.9224 602.0516 602.2987 601.908 601.6438 601.6808 602.0845 602.8597 603.8096 604.9651 606.3141 607.8526 609.6012 611.4719 613.3142 614.9156 615.8477 615.8206 614.8579 613.3876 611.847 610.4133 609.3425 608.7361 608.3051 607.4301 606.8418 606.5938 606.5948 606.7164 606.8745 606.9861 606.961 606.7646 606.4742 606.299 606.4662 607.0253 607.8129 608.692 609.5051 610.1561 610.5181 610.7086 610.8351 610.8877 610.8312 610.6175 610.331 610.1238 610.1251 610.3344 610.5952 610.6819 610.532 610.2975 610.1001 609.6272 608.8038 607.6199 606.2133 604.7648 603.3938 602.1054 600.9972 600.0258 599.3453 598.8896 598.4316 597.706 596.7382 595.7429 594.9612 594.6931 594.7062 594.8272 594.9028 594.9256 594.9324 594.946 594.9565 594.9602 594.9321 594.8262 594.6534 594.3476 594.2142 594.23 594.4182 594.7704 594.9087 594.9547 595.1345 595.4706 595.892 596.2201 596.3609 596.4139 596.2949 595.9265 595.3688 595.0963 594.9266 594.8361 594.7902 594.6486 594.7745 594.7896 594.7974 594.8915 595.269 595.5287 595.6986 595.7963 595.8445 595.8678 595.8912 595.9298 595.9877 596.0558 596.0913 596.1342 596.2124 596.3271 596.3322 596.4469 596.5889 596.9786 597.8687 599.1096 600.7305 603.2994 605.7832 603.912 602.0278 600.5378 599.4522 599.0406 599.1208 599.6262 600.8174 601.8546 602.4339 602.6648 602.6432 602.5969 602.5567 602.528 602.4309 602.349 602.2605 602.1869 602.1228 602.0109 601.7616 601.2958 600.5928 599.7018 599.1012 598.585 598.1101 597.829 597.559 597.5673 597.9841 598.7258 599.3338 599.4829 599.5564 599.6432 599.7507 599.8496 599.9005 599.8822 599.7848 599.6027 599.2778 598.6732 598.006 597.5837 597.3862 597.3489 597.4054 597.4971 597.5723 597.5668 597.5284 597.4763 597.4113 597.2949 597.05 596.8045 596.5979 596.4664 596.3978 596.327 596.0961 595.8856 595.7194 595.6526 595.665 595.7776 595.9409 596.2554 596.5702 597.1254 597.7103 597.9445 598.1132 598.5696 599.216 599.8377 600.4133 601.2112 602.274 603.3897 604.611 606.3292 608.8276 611.9648 615.8893 620.6412 625.6536 630.2165 633.9368 636.8178 -9999 -9999 -9999 -9999 -9999 -9999 -9999 -9999 -9999 -9999 -9999 -9999 -9999 -9999 -9999 -9999 -9999 -9999 -9999 -9999 -9999 -9999 -9999 -9999 -9999 -9999 -9999 -9999 -9999 -9999 -9999 -9999 -9999 -9999 -9999 -9999 -9999 -9999 -9999 -9999 -9999 -9999 -9999 -9999 -9999 -9999 -9999 -9999 -9999 -9999 -9999 -9999 -9999 -9999 -9999 -9999 -9999 -9999 -9999 -9999 -9999 -9999 -9999 -9999 -9999 -9999 -9999 -9999 -9999 -9999 -9999 -9999 -9999 -9999 -9999 -9999 -9999 -9999 -9999 -9999 -9999 -9999
-9999 -9999 -9999 -9999 -9999 -9999 -9999 -9999 -9999 -9999 -9999 -9999 -9999 -9999 -9999 -9999 -9999 -9999 -9999 -9999 -9999 -9999 -9999 -9999 -9999 -9999 -9999 -9999 -9999 -9999 632.1781 632.0869 631.5461 630.7424 629.7426 628.4853 627.0192 625.8155 625.2411 624.9077 624.257 623.2736 622.1685 620.9888 619.5443 617.8038 615.8611 613.6754 611.4636 609.365 607.5676 606.1627 605.1949 604.5416 604.2004 603.9959 603.9323 604.0118 603.9746 604.1748 604.7935 605.803 607.1383 608.6357 610.2736 611.9561 613.6801 615.458 617.2869 619.0153 620.4107 621.1201 620.9277 619.8857 618.35 616.6848 615.167 614.0126 613.2172 612.5926 611.9064 611.4826 611.3976 611.5123 611.6911 611.8849 612.0578 612.0986 611.9209 611.6399 611.4869 611.6927 612.3436 613.2913 614.3362 615.3361 616.1547 616.6811 616.986 617.1646 617.2008 617.0603 616.7416 616.3452 616.0413 615.9501 616.0459 616.1551 616.1077 615.9497 615.9215 616.0908 616.0547 615.4933 614.3415 612.7156 610.8643 609.0776 607.4324 605.9059 604.3812 603.1033 602.1638 601.3011 600.1697 598.8132 597.4967 596.6042 596.2245 596.1219 596.1124 596.1275 596.1508 596.2048 596.2919 596.3333 596.3273 596.2198 595.8995 595.5002 595.0911 594.9169 594.8129 594.8224 594.9562 595.0048 595.0644 595.3088 595.7463 596.2738 596.6586 597.1316 597.5493 597.6697 597.4932 597.0167 596.5968 596.1107 595.6342 595.2075 594.9763 594.9495 594.939 594.9383 595.049 595.5272 595.8233 595.9901 596.0771 596.1198 596.141 596.1609 596.1938 596.2477 596.3273 596.3295 596.3295 596.3309 596.4028 596.4304 596.5121 596.6708 597.0781 597.8522 598.9792 600.4437 602.5851 603.9928 603.2258 602.0624 600.7633 599.5095 598.9388 598.9543 599.5548 600.9056 602.1809 602.6918 602.795 602.688 602.5443 602.4319 602.428 602.3345 602.2435 602.1539 602.0681 601.9746 601.8159 601.4832 600.8467 599.7576 598.7334 598.0648 597.7863 597.5239 597.4322 597.4572 597.722 598.2798 599.1398 599.3884 599.5326 599.6385 599.7632 599.9031 600.0122 600.0327 599.9305 599.6863 599.2875 598.6538 597.9849 597.5472 597.3355 597.3106 597.4096 597.5662 597.7225 597.8542 597.8583 597.8568 597.8622 597.8698 597.8021 597.4725 597.1662 596.866 596.6572 596.5061 596.3314 596.1288 595.9956 595.864 595.8879 596.0079 596.2802 596.5469 597.0472 597.6487 598.2449 598.9852 599.285 599.3819 599.5975 600.0904 600.7368 601.3184 602.3083 603.4678 604.5557 605.8961 607.8887 610.6501 613.7666 617.6238 622.1594 626.7359 630.7857 634.102 636.8027 -9999 -9999 -9999 -9999 -9999 -9999 -9999 -9999 -9999 -9999 -9999 -9999 -9999 -9999 -9999 -9999 -9999 -9999 -9999 -9999 -9999 -9999 -9999 -9999 -9999 -9999 -9999 -9999 -9999 -9999 -9999 -9999 -9999 -9999 -9999 -9999 -9999 -9999 -9999 -9999 -9999 -9999 -9999 -9999 -9999 -9999 -9999 -9999 -9999 -9999 -9999 -9999 -9999 -9999 -9999 -9999 -9999 -9999 -9999 -9999 -9999 -9999 -9999 -9999 -9999 -9999 -9999 -9999 -9999 -9999 -9999 -9999 -9999 -9999 -9999 -9999 -9999 -9999 -9999 -9999 -9999 -9999
-9999 -9999 -9999 -9999 -9999 -9999 -9999 -9999 -9999 -9999 -9999 -9999 -9999 -9999 -9999 -9999 -9999 -9999 -9999 -9999 -9999 -9999 -9999 -9999 -9999 -9999 -9999 -9999 -9999 -9999 -9999 -9999 -9999 -9999 -9999 -9999 629.5401 628.5385 628.165 628.0615 627.5872 626.8615 626.1422 625.4407 624.3724 622.8318 621.025 619.0514 616.9828 614.8963 612.9324 611.2346 610.0007 609.1332 608.6092 608.2546 608.0191 607.9563 608.0574 608.5431 609.5328 610.9814 612.6848 614.4417 616.1883 617.861 619.4308 620.9158 622.3923 623.808 624.8983 625.3524 625.0336 624.0668 622.7306 621.2935 619.9774 618.9214 618.1313 617.4904 616.9421 616.6464 616.641 616.7912 616.9613 617.1328 617.3196 617.4513 617.4222 617.2955 617.3117 617.6832 618.4728 619.5038 620.5905 621.6042 622.4152 622.9505 623.2542 623.4114 623.4242 623.2661 622.939 622.531 622.197 622.0344 622.0033 621.9333 621.7162 621.5049 621.6286 622.1133 622.5215 622.3528 621.4083 619.7845 617.774 615.7361 613.793 611.8713 609.788 607.7999 606.2524 604.821 603.0288 601.1346 599.5014 598.3885 597.6948 597.2775 597.0374 597.0002 597.1 597.3143 597.5776 597.6633 597.6547 597.5027 597.0664 596.6069 596.3144 596.0626 595.6457 595.4341 595.3828 595.3767 595.5052 595.9369 596.6617 597.5176 598.184 598.7518 599.2559 599.486 599.469 599.0816 598.5751 597.907 597.2949 596.7834 596.3864 596.1898 596.107 596.0526 596.0794 596.2429 596.3119 596.3257 596.3282 596.329 596.3294 596.3296 596.3298 596.33 596.3531 596.3615 596.3808 596.409 596.4557 596.4726 596.5058 596.6198 596.9174 597.4822 598.3079 599.6105 601.2332 602.3663 602.3865 601.7796 600.7652 599.5241 598.9072 598.8972 599.5421 600.9503 602.2701 602.7396 602.7615 602.6014 602.4308 602.312 602.257 602.176 602.0892 602.0001 601.9014 601.7803 601.5852 601.2267 600.5817 599.3616 598.1457 597.5732 597.3725 597.3347 597.4756 597.7241 598.2316 599.0137 599.3766 599.4919 599.5868 599.7053 599.8573 600.0114 600.1011 600.0574 599.8301 599.3841 598.6889 597.9753 597.4849 597.2278 597.1862 597.309 597.5159 597.7244 597.8594 597.9441 598.0106 598.1309 598.3014 598.4525 598.3911 598.0565 597.7579 597.349 597.0837 596.8741 596.5908 596.3499 596.2927 596.1463 596.2983 596.5272 596.9764 597.5308 598.0994 598.8986 599.6314 600.4758 600.9042 600.985 601.0112 601.2601 601.9549 602.6354 603.7222 604.9262 606.0458 607.4756 609.4764 612.1291 615.4327 619.2565 623.3691 627.3354 630.8675 634.0067 -9999 -9999 -9999 -9999 -9999 -9999 -9999 -9999 -9999 -9999 -9999 -9999 -9999 -9999 -9999 -9999 -9999 -9999 -9999 -9999 -9999 -9999 -9999 -9999 -9999 -9999 -9999 -9999 -9999 -9999 -9999 -9999 -9999 -9999 -9999 -9999 -9999 -9999 -9999 -9999 -9999 -9999 -9999 -9999 -9999 -9999 -9999 -9999 -9999 -9999 -9999 -9999 -9999 -9999 -9999 -9999 -9999 -9999 -9999 -9999 -9999 -9999 -9999 -9999 -9999 -9999 -9999 -9999 -9999 -9999 -9999 -9999 -9999 -9999 -9999 -9999 -9999 -9999 -9999 -9999 -9999 -9999 -9999
-9999 -9999 -9999 -9999 -9999 -9999 -9999 -9999 -9999 -9999 -9999 -9999 -9999 -9999 -9999 -9999 -9999 -9999 -9999 -9999 -9999 -9999 -9999 -9999 -9999 -9999 -9999 -9999 -9999 -9999 -9999 -9999 -9999 -9999 -9999 -9999 -9999 -9999 -9999 630.0928 629.7692 629.306 629.0149 628.8448 628.2783 627.1591 625.7548 624.2029 622.5163 620.7263 618.9507 617.3932 616.2377 615.4138 614.7987 614.3269 613.9494 613.7537 613.8318 614.3845 615.463 616.9891 618.6906 620.3767 621.9501 623.3296 624.4746 625.4329 626.4014 627.4042 628.1287 628.2939 627.8767 627.1096 626.1575 625.1753 624.2924 623.5252 622.9077 622.3681 621.9315 621.7106 621.7028 621.8003 621.8873 621.9684 622.1292 622.377 622.6077 622.7908 623.0848 623.6827 624.6043 625.6483 626.6462 627.5109 628.183 628.6039 628.8131 628.8975 628.9047 628.7955 628.5522 628.2372 627.959 627.778 627.6295 627.3702 626.9606 626.6486 626.8371 627.536 628.2546 628.4144 627.7007 626.1701 624.1685 622.0635 619.9963 617.8573 615.4464 612.9492 610.8773 608.8768 606.2689 603.7703 601.6873 600.1993 599.0516 598.1846 597.8347 597.8145 598.0123 598.3273 598.506 598.4846 598.4465 598.36 598.1567 597.9089 597.6796 597.2811 596.6165 596.3335 596.2647 596.3038 596.603 597.3993 598.6658 599.9649 600.9213 601.5077 601.8059 601.887 601.8021 601.4182 600.8676 600.2344 599.644 599.053 598.4699 597.9705 597.6024 597.2535 597.0024 596.8778 596.726 596.5902 596.4951 596.4402 596.4117 596.3834 596.3429 596.3077 596.3011 596.324 596.3829 596.4515 596.4982 596.4875 596.461 596.501 596.6997 597.1243 597.7953 598.7511 599.925 600.9674 601.4756 601.3296 600.627 599.5065 598.9211 598.922 599.5823 601.02 602.2607 602.6519 602.6077 602.4337 602.2906 602.1633 602.0663 601.9738 601.8817 601.7875 601.6703 601.5237 601.2782 600.8962 600.2592 599.2943 598.2247 597.6486 597.491 597.6085 597.9715 598.326 599.0262 599.3051 599.3818 599.4966 599.6141 599.7576 599.9225 600.0618 600.0955 599.9543 599.5873 598.9882 598.08 597.4689 597.1113 596.9904 597.0894 597.3401 597.6304 597.8561 597.92 597.9866 598.1345 598.4343 598.8595 599.2969 599.3746 599.1512 598.6984 598.1761 597.9028 597.6633 597.2231 596.9059 596.7344 596.5878 596.9307 597.4409 597.839 598.4517 599.2562 600.1605 601.1245 602.0802 602.731 602.8419 602.6973 602.7249 603.3754 604.2033 605.4467 606.821 608.179 609.6935 611.7233 614.4631 617.6263 621.0278 624.4625 627.7117 630.7812 633.8802 -9999 -9999 -9999 -9999 -9999 -9999 -9999 -9999 -9999 -9999 -9999 -9999 -9999 -9999 -9999 -9999 -9999 -9999 -9999 -9999 -9999 -9999 -9999 -9999 -9999 -9999 -9999 -9999 -9999 -9999 -9999 -9999 -9999 -9999 -9999 -9999 -9999 -9999 -9999 -9999 -9999 -9999 -9999 -9999 -9999 -9999 -9999 -9999 -9999 -9999 -9999 -9999 -9999 -9999 -9999 -9999 -9999 -9999 -9999 -9999 -9999 -9999 -9999 -9999 -9999 -9999 -9999 -9999 -9999 -9999 -9999 -9999 -9999 -9999 -9999 -9999 -9999 -9999 -9999 -9999 -9999 -9999 -9999
-9999 -9999 -9999 -9999 -9999 -9999 -9999 -9999 -9999 -9999 -9999 -9999 -9999 -9999 -9999 -9999 -9999 -9999 -9999 -9999 -9999 -9999 -9999 -9999 -9999 -9999 -9999 -9999 -9999 -9999 -9999 -9999 -9999 -9999 -9999 -9999 -9999 -9999 -9999 -9999 -9999 -9999 631.2325 631.4038 631.1923 630.4541 629.504 628.4785 627.3207 626.0052 624.6602 623.4941 622.6603 622.0778 621.5452 621.0299 620.5754 620.2982 620.3174 620.7871 621.7172 623.0038 624.4141 625.7755 626.9625 627.8557 628.4133 628.7532 629.2192 629.8652 630.2668 630.0883 629.6002 629.0225 628.4844 627.9891 627.61 627.233 626.8599 626.4697 626.1481 625.9914 625.981 626.0067 625.9787 625.9272 626.0527 626.4496 626.9998 627.5554 628.1648 628.9705 629.9982 631.0069 631.8312 632.4526 632.8891 633.106 633.1275 633.0872 633.1423 633.1647 633.071 632.915 632.7736 632.6415 632.3845 631.9286 631.3156 630.8566 631.0081 631.8146 632.7256 633.1208 632.5704 631.0826 629.1097 627.0571 625.0715 623.0291 620.6735 618.0215 615.3437 612.5957 609.6693 606.8246 604.2926 602.2888 600.6945 599.5008 598.9286 598.9026 599.3349 599.8608 599.6163 599.2687 599.1816 599.2313 599.3113 599.2708 599.0134 598.4187 597.8524 597.6672 597.7483 598.0148 598.7035 600.0753 601.9402 603.683 604.8184 605.3017 605.3016 605.0899 604.772 604.3206 603.7645 603.168 602.592 601.9142 601.1161 600.2532 599.4664 598.7775 598.203 597.7847 597.3419 597.0232 596.7943 596.6492 596.576 596.5081 596.4045 596.3239 596.2987 596.3365 596.4297 596.5288 596.5721 596.5215 596.4218 596.382 596.4985 596.8004 597.2997 597.9999 598.978 599.8572 600.6257 600.7708 600.2307 599.4287 598.9557 598.9883 599.6722 601.181 602.1708 602.5007 602.4329 602.3171 602.1724 602.0139 601.8675 601.7394 601.6216 601.5126 601.3584 601.2042 600.9009 600.525 600.0524 599.4929 598.9657 598.2642 598.0984 598.3018 598.9572 599.2352 599.3713 599.3805 599.4326 599.533 599.662 599.8127 599.9593 600.0432 599.9727 599.6747 599.0869 598.2156 597.5262 597.0528 596.8074 596.7826 596.9985 597.3699 597.7123 597.8606 597.9291 598.0495 598.3364 598.867 599.6132 600.4382 600.7479 600.6625 600.2475 599.7289 599.3468 598.9307 598.3179 597.9537 597.756 597.6868 597.8577 598.2079 598.6925 599.4888 600.5704 601.6836 602.912 603.9101 604.6195 604.6649 604.3355 604.3232 605.0083 606.1361 607.6841 609.3815 611.1017 612.9189 614.9783 617.4404 620.156 622.9161 625.5587 628.0402 630.6505 -9999 -9999 -9999 -9999 -9999 -9999 -9999 -9999 -9999 -9999 -9999 -9999 -9999 -9999 -9999 -9999 -9999 -9999 -9999 -9999 -9999 -9999 -9999 -9999 -9999 -9999 -9999 -9999 -9999 -9999 -9999 -9999 -9999 -9999 -9999 -9999 -9999 -9999 -9999 -9999 -9999 -9999 -9999 -9999 -9999 -9999 -9999 -9999 -9999 -9999 -9999 -9999 -9999 -9999 -9999 -9999 -9999 -9999 -9999 -9999 -9999 -9999 -9999 -9999 -9999 -9999 -9999 -9999 -9999 -9999 -9999 -9999 -9999 -9999 -9999 -9999 -9999 -9999 -9999 -9999 -9999 -9999 -9999 -9999
-9999 -9999 -9999 -9999 -9999 -9999 -9999 -9999 -9999 -9999 -9999 -9999 -9999 -9999 -9999 -9999 -9999 -9999 -9999 -9999 -9999 -9999 -9999 -9999 -9999 -9999 -9999 -9999 -9999 -9999 -9999 -9999 -9999 -9999 -9999 -9999 -9999 -9999 -9999 -9999 -9999 -9999 -9999 -9999 -9999 -9999 632.1277 631.5853 631.0012 630.2186 629.3683 628.6985 628.2968 628.0302 627.6926 627.243 626.811 626.546 626.5377 626.8805 627.5471 628.4216 629.3677 630.2529 630.9572 631.3411 631.3179 631.1224 -9999 -9999 -9999 -9999 -9999 -9999 629.802 629.5579 629.6263 629.6516 629.5435 629.3198 629.1415 629.0874 629.1559 629.1862 629.0873 628.9197 629.012 629.5618 630.4046 631.2704 632.088 632.9951 634.0657 635.0082 635.6273 635.9921 -9999 -9999 635.8474 -9999 -9999 -9999 636.2213 636.235 636.2717 636.2319 635.8643 -9999 -9999 633.7775 633.7911 634.6193 635.6766 636.2387 635.7916 634.296 632.328 630.3871 628.6213 626.9167 624.9622 622.6427 619.988 616.999 613.8865 610.7455 607.7552 605.1838 603.1242 601.5823 600.7263 600.5468 601.0145 601.5582 600.9596 600.3397 600.2686 600.4443 600.7581 600.8781 600.5582 599.8748 599.45 599.5059 599.9881 600.646 601.8057 603.775 606.1978 608.3315 609.6669 610.0813 609.8694 609.3829 608.8168 608.2325 607.6354 607.0272 606.389 605.5571 604.4133 603.1736 601.9712 600.9363 600.041 599.2191 598.3965 597.8585 597.4382 597.1412 596.9985 596.8738 596.6604 596.5104 596.4666 596.5142 596.6235 596.7292 596.7488 596.629 596.4426 596.3187 596.3607 596.5868 596.9482 597.4461 598.114 598.9875 599.6447 599.9773 599.7668 599.3702 599.017 599.0543 599.7134 601.2296 602.1355 602.4308 602.4056 602.2687 602.0817 601.8729 601.6653 601.4772 601.3063 601.1792 600.9371 600.7994 600.4407 600.0855 599.7682 599.5357 599.3773 599.2467 599.209 599.2703 599.38 599.3807 599.38 599.409 599.4772 599.5927 599.7323 599.868 599.9585 599.9427 599.7231 599.2173 598.3174 597.5935 597.0541 596.6939 596.5476 596.5675 596.8876 597.4104 597.8426 597.9362 598.0158 598.2504 598.7616 599.6229 600.8175 601.9805 602.6373 602.8502 602.6483 602.1587 601.5895 600.9046 600.178 599.6572 599.2673 599.1058 599.149 599.3734 599.9083 600.9665 602.3541 603.8242 605.2438 606.2212 606.6772 606.5123 606.1868 606.3463 607.2189 608.7198 610.5615 612.5753 614.5584 616.4918 618.4503 620.5422 622.7349 624.8176 626.6495 628.3745 -9999 -9999 -9999 -9999 -9999 -9999 -9999 -9999 -9999 -9999 -9999 -9999 -9999 -9999 -9999 -9999 -9999 -9999 -9999 -9999 -9999 -9999 -9999 -9999 -9999 -9999 -9999 -9999 -9999 -9999 -9999 -9999 -9999 -9999 -9999 -9999 -9999 -9999 -9999 -9999 -9999 -9999 -9999 -9999 -9999 -9999 -9999 -9999 -9999 -9999 -9999 -9999 -9999 -9999 -9999 -9999 -9999 -9999 -9999 -9999 -9999 -9999 -9999 -9999 -9999 -9999 -9999 -9999 -9999 -9999 -9999 -9999 -9999 -9999 -9999 -9999 -9999 -9999 -9999 -9999 -9999 -9999 -9999 -9999 -9999
-9999 -9999 -9999 -9999 -9999 -9999 -9999 -9999 -9999 -9999 -9999 -9999 -9999 -9999 -9999 -9999 -9999 -9999 -9999 -9999 -9999 -9999 -9999 -9999 -9999 -9999 -9999 -9999 -9999 -9999 -9999 -9999 -9999 -9999 -9999 -9999 -9999 -9999 -9999 -9999 -9999 -9999 -9999 -9999 -9999 -9999 -9999 633.6642 633.5405 633.2293 632.8077 632.5599 632.5496 632.5716 632.421 632.1282 631.8481 631.7535 631.8309 632.0941 632.4835 632.8986 633.3409 633.7618 634.0597 634.0712 -9999 -9999 -9999 -9999 -9999 -9999 -9999 -9999 -9999 -9999 -9999 -9999 -9999 -9999 -9999 -9999 -9999 -9999 -9999 -9999 -9999 -9999 -9999 -9999 -9999 -9999 -9999 -9999 -9999 -9999 -9999 -9999 -9999 -9999 -9999 -9999 -9999 -9999 -9999 -9999 -9999 -9999 -9999 -9999 -9999 -9999 -9999 637.7339 637.4436 635.9865 634.0938 632.3256 630.8153 629.4994 628.0908 626.409 624.2654 621.5791 618.5262 615.3464 612.1907 609.2543 606.7963 604.939 603.8218 603.3755 603.4133 603.4496 602.9445 602.4552 602.3431 602.5287 602.9297 603.2565 602.8602 602.1551 601.8115 602.1415 603.1757 604.2278 605.7703 608.157 610.9531 613.4246 615.0543 615.6396 615.403 614.7598 614.0087 613.2983 612.6204 611.9371 611.1744 610.1061 608.5211 606.8668 605.2487 603.858 602.6016 601.378 600.2212 599.3301 598.6149 598.072 597.8257 597.6147 597.2262 596.9972 596.9373 596.9813 597.0757 597.1517 597.116 596.8779 596.5719 596.3556 596.3405 596.5188 596.7732 597.116 597.5664 598.1652 598.9796 599.4002 599.3972 599.3109 599.0951 599.106 599.6927 601.1843 602.1605 602.4302 602.4014 602.2252 601.9829 601.7167 601.4496 601.1888 600.9298 600.8081 600.4278 600.1145 599.8541 599.6258 599.3925 599.3777 599.3649 599.3853 599.4031 599.417 599.4103 599.3717 599.3627 599.4095 599.5126 599.6581 599.8021 599.8969 599.8892 599.7254 599.3238 598.6215 597.759 597.0324 596.5977 596.3307 596.3137 596.341 596.7578 597.4478 597.8583 598.016 598.2263 598.7017 599.5899 600.9725 602.6767 604.3312 605.5169 606.1838 606.2358 605.7338 604.8983 603.8554 602.8304 601.9769 601.3218 601.0132 600.9825 601.2441 601.9608 603.2316 604.9241 606.7586 608.3418 609.2773 609.3929 608.9285 608.7032 609.1545 610.3145 612.0484 614.116 616.2109 618.1958 620.0287 621.7638 623.4562 625.1146 626.5195 627.6535 -9999 -9999 -9999 -9999 -9999 -9999 -9999 -9999 -9999 -9999 -9999 -9999 -9999 -9999 -9999 -9999 -9999 -9999 -9999 -9999 -9999 -9999 -9999 -9999 -9999 -9999 -9999 -9999 -9999 -9999 -9999 -9999 -9999 -9999 -9999 -9999 -9999 -9999 -9999 -9999 -9999 -9999 -9999 -9999 -9999 -9999 -9999 -9999 -9999 -9999 -9999 -9999 -9999 -9999 -9999 -9999 -9999 -9999 -9999 -9999 -9999 -9999 -9999 -9999 -9999 -9999 -9999 -9999 -9999 -9999 -9999 -9999 -9999 -9999 -9999 -9999 -9999 -9999 -9999 -9999 -9999 -9999 -9999 -9999 -9999 -9999
-9999 -9999 -9999 -9999 -9999 -9999 -9999 -9999 -9999 -9999 -9999 -9999 -9999 -9999 -9999 -9999 -9999 -9999 -9999 -9999 -9999 -9999 -9999 -9999 -9999 -9999 -9999 -9999 -9999 -9999 -9999 -9999 -9999 -9999 -9999 -9999 -9999 -9999 -9999 -9999 -9999 -9999 -9999 -9999 -9999 -9999 -9999 -9999 -9999 635.127 634.9667 634.9961 635.2792 635.4789 635.4532 635.3487 635.3527 635.6102 635.9135 636.191 636.3402 636.3207 636.3115 -9999 -9999 -9999 -9999 -9999 -9999 -9999 -9999 -9999 -9999 -9999 -9999 -9999 -9999 -9999 -9999 -9999 -9999 -9999 -9999 -9999 -9999 -9999 -9999 -9999 -9999 -9999 -9999 -9999 -9999 -9999 -9999 -9999 -9999 -9999 -9999 -9999 -9999 -9999 -9999 -9999 -9999 -9999 -9999 -9999 -9999 -9999 -9999 -9999 -9999 -9999 -9999 -9999 -9999 -9999 632.2172 631.1378 630.1686 629.1389 627.7163 625.6678 623.1014 620.2382 617.2597 614.3711 611.7676 609.7393 608.454 607.8257 607.5819 607.2684 606.5817 605.8855 605.5273 605.6049 606.0679 606.7221 606.3199 605.6296 605.2897 605.6471 606.7029 608.194 610.2531 612.9026 615.8214 618.4866 620.3585 621.1578 621.0369 620.4099 619.6403 618.9152 618.2095 617.4388 616.4672 615.1385 613.3677 611.3993 609.3735 607.6351 605.9702 604.2549 602.7079 601.4658 600.4586 599.6526 599.155 598.6874 598.2016 597.9457 597.8764 597.887 597.9105 597.8962 597.7626 597.3263 596.8511 596.5172 596.4406 596.6037 596.7865 596.9905 597.2661 597.6521 598.2045 598.9816 599.3313 599.4055 599.2443 599.1753 599.623 601.0268 602.2447 602.4307 602.375 602.1498 601.843 601.5166 601.2023 600.882 600.527 600.2118 599.8019 599.4441 599.3801 599.3787 599.2523 599.2347 599.262 599.3044 599.3257 599.2935 599.2581 599.2443 599.2794 599.3779 599.5331 599.7113 599.8467 599.8692 599.7107 599.3326 598.6827 597.8389 596.9518 596.2487 595.9899 595.8345 595.9982 596.268 596.7731 597.6672 597.979 598.1946 598.6335 599.5115 600.9943 603.0596 605.492 607.8813 609.7647 610.9658 611.2707 610.7015 609.532 608.0532 606.5611 605.2444 604.3211 603.8793 603.8219 604.1626 605.0465 606.5378 608.4816 610.5802 612.192 612.9807 612.7078 611.9462 611.7312 612.507 613.9845 615.9828 618.0628 620.0206 621.7706 623.3198 624.7633 626.0671 627.2012 627.9591 -9999 -9999 -9999 -9999 -9999 -9999 -9999 -9999 -9999 -9999 -9999 -9999 -9999 -9999 -9999 -9999 -9999 -9999 -9999 -9999 -9999 -9999 -9999 -9999 -9999 -9999 -9999 -9999 -9999 -9999 -9999 -9999 -9999 -9999 -9999 -9999 -9999 -9999 -9999 -9999 -9999 -9999 -9999 -9999 -9999 -9999 -9999 -9999 -9999 -9999 -9999 -9999 -9999 -9999 -9999 -9999 -9999 -9999 -9999 -9999 -9999 -9999 -9999 -9999 -9999 -9999 -9999 -9999 -9999 -9999 -9999 -9999 -9999 -9999 -9999 -9999 -9999 -9999 -9999 -9999 -9999 -9999 -9999 -9999 -9999 -9999 -9999
