ncols         330
nrows         34
xllcorner     773700
yllcorner     6154150
cellsize      50
NODATA_value  -9999
-9999 -9999 -9999 -9999 -9999 -9999 -9999 -9999 -9999 -9999 -9999 -9999 -9999 -9999 -9999 599.8727 598.9818 598.0432 596.7639 595.1255 593.5886 592.809 592.0749 591.293 590.5342 589.843 589.2545 588.8365 588.4471 588.0488 587.637 587.2089 586.7534 586.2514 585.77 585.238 584.5809 583.8529 583.1638 582.6145 582.1824 581.8248 581.5153 581.2228 580.938 580.6666 580.4097 580.1752 580.1086 580.459 581.7097 584.4229 587.5229 590.109 591.6106 592.2907 593.2281 594.819 596.6557 598.2241 599.139 599.3455 598.9509 598.2006 597.1727 595.8268 594.4827 593.0913 591.7838 590.5924 589.5439 588.8112 588.2789 587.8824 587.5358 587.1664 586.7241 586.1572 585.3318 584.4535 583.6564 582.9314 582.058 581.2211 580.517 580.0531 579.6011 579.2321 578.9352 578.6868 578.4673 578.2861 578.1697 578.0847 577.9824 577.8966 577.9041 578.0076 578.1523 578.3305 578.5627 578.8617 579.2345 579.6615 580.1071 580.66 581.5811 582.5515 583.2632 583.9236 584.5091 585.0445 585.6498 586.1916 586.5869 586.874 587.0911 587.2651 587.4066 587.5262 587.6374 587.7501 587.863 587.9589 588.0147 588.0139 587.9476 587.8169 587.6292 587.3876 587.0876 586.7023 586.1791 585.4302 584.5417 583.6965 583.1158 582.698 582.3676 582.0726 581.7869 581.5359 581.3176 581.1304 580.9723 580.8406 580.7321 580.6433 580.6047 580.6182 580.6749 580.7704 580.9154 581.1108 581.3567 581.6456 581.9663 582.3044 582.6392 582.9412 583.1946 583.6882 584.2549 584.8063 585.2773 585.6225 585.8185 585.8037 585.5602 584.9642 584.2627 583.6032 583.0843 582.5156 581.9875 581.5057 581.0663 580.6835 580.3542 580.1086 579.9376 579.7859 579.6386 579.4952 579.3579 579.2264 579.101 578.9783 578.8547 578.7302 578.6086 578.4941 578.3896 578.3029 578.2397 578.1957 578.1654 578.1521 578.1654 578.2012 578.2419 578.2754 578.3058 578.3462 578.4041 578.4747 578.5494 578.6251 578.706 578.7913 578.8838 578.9912 579.1282 579.3154 579.5591 579.8439 580.1144 580.3933 580.7008 581.0013 581.3397 581.7246 582.174 582.6624 583.1586 583.6335 584.0504 584.3942 584.7141 585.0028 585.2213 585.3997 585.5767 585.7541 585.8262 585.8511 585.8619 585.8721 585.8864 585.9052 585.9246 585.9392 585.9344 585.8745 585.8346 585.8098 585.776 585.7438 585.7109 585.6735 585.6393 585.6132 585.5976 585.5901 585.5885 585.5927 585.6007 585.6107 585.6195 585.6272 585.6393 585.6625 585.7001 585.7504 585.8071 585.8653 585.9189 585.9803 586.0557 586.1965 586.2834 586.4016 586.5588 586.7521 587.0037 587.3016 587.5933 587.8497 588.0911 588.3488 588.6451 588.9707 589.3366 590.0354 590.8531 591.6586 592.518 593.5068 594.4672 595.5701 596.8101 598.6638 600.1758 601.2296 602.0019 -9999 -9999 -9999 -9999 -9999 -9999 -9999 -9999 -9999 -9999 -9999 -9999 -9999 -9999 -9999 -9999 -9999 -9999 -9999 -9999 -9999 -9999 -9999 -9999 -9999 -9999 -9999 -9999 -9999 -9999 -9999 -9999 -9999 -9999 -9999
-9999 -9999 -9999 -9999 -9999 -9999 -9999 -9999 -9999 -9999 -9999 -9999 -9999 -9999 -9999 599.0539 598.2043 597.3097 596.0059 594.3185 593.1249 592.5446 591.9062 591.1921 590.5096 589.8757 589.3096 588.9789 588.6123 588.2188 587.812 587.3975 586.9788 586.5618 586.1607 585.621 584.85 583.986 583.175 582.5594 582.1018 581.7412 581.4378 581.1549 580.8654 580.5791 580.3195 580.114 580.1084 580.6461 582.2166 585.2471 588.4541 590.8367 592.0331 592.2906 592.6209 593.6174 594.7324 595.6376 596.0306 595.9581 595.6674 595.1108 594.3554 593.454 592.5658 591.6678 590.7792 589.9161 589.1557 588.5208 588.051 587.6973 587.3797 587.0251 586.5746 585.983 585.0187 584.0219 583.1957 582.4598 581.6619 580.8846 580.2104 579.8298 579.4658 579.1331 578.8508 578.6168 578.4161 578.2433 578.1241 578.0571 577.9951 577.9233 577.9092 577.9889 578.1259 578.2988 578.52 578.8091 579.1791 579.6187 580.1208 580.7632 581.5883 582.4413 583.1769 583.8403 584.4401 585.0178 585.6319 586.1964 586.626 586.9407 587.1765 587.3641 587.5154 587.638 587.7454 587.8486 587.9487 588.0315 588.0731 588.0551 587.967 587.8063 587.577 587.2852 586.9385 586.5399 586.0176 585.1547 584.2112 583.3438 582.8607 582.4962 582.1941 581.9251 581.6744 581.4505 581.2539 581.0829 580.9365 580.8148 580.7189 580.6522 580.6316 580.6593 580.728 580.8347 580.9831 581.1846 581.4393 581.7402 582.0763 582.4348 582.8005 583.1418 583.3329 583.6899 584.1458 584.6042 584.9927 585.2661 585.3894 585.3187 585.0278 584.5001 583.8691 583.2625 582.8265 582.3518 581.8641 581.4035 580.9865 580.625 580.3344 580.1098 579.9238 579.757 579.6021 579.456 579.318 579.1881 579.0645 578.9457 578.8276 578.7081 578.5906 578.4796 578.3767 578.2867 578.2175 578.1699 578.1359 578.1139 578.111 578.1342 578.1741 578.2145 578.2488 578.2832 578.3269 578.3844 578.4521 578.5264 578.6068 578.6957 578.7908 578.8981 579.0273 579.1919 579.4 579.6323 579.8647 580.1116 580.3674 580.646 580.9723 581.3463 581.7693 582.2364 582.7108 583.1535 583.5236 583.7899 584.1095 584.425 584.6967 584.9283 585.1326 585.307 585.4172 585.4791 585.5178 585.5502 585.5835 585.6164 585.6448 585.6632 585.6631 585.6378 585.6162 585.6017 585.5844 585.5635 585.5385 585.5092 585.4799 585.4556 585.4398 585.4319 585.4297 585.4346 585.4473 585.4644 585.4838 585.5032 585.5258 585.5573 585.5994 585.648 585.7037 585.763 585.8245 585.8921 585.9785 586.1005 586.1994 586.2971 586.4517 586.6399 586.8773 587.1695 587.4719 587.7433 587.9852 588.2352 588.5208 588.8574 589.2585 589.9087 590.7277 591.5856 592.4268 593.3192 594.2107 595.1708 596.2432 597.996 599.3044 600.2586 601.162 -9999 -9999 -9999 -9999 -9999 -9999 -9999 -9999 -9999 -9999 -9999 -9999 -9999 -9999 -9999 -9999 -9999 -9999 -9999 -9999 -9999 -9999 -9999 -9999 -9999 -9999 -9999 -9999 -9999 -9999 -9999 -9999 -9999 -9999 -9999
-9999 -9999 -9999 -9999 -9999 -9999 -9999 -9999 -9999 -9999 -9999 -9999 -9999 -9999 -9999 598.0168 597.4977 596.8299 595.602 593.9464 592.7969 592.1582 591.6466 591.1051 590.5475 590.0176 589.5439 589.2108 588.8004 588.3949 587.9935 587.5969 587.2118 586.8469 586.4883 586.0156 585.1292 584.1253 583.1937 582.5272 582.0549 581.6932 581.3922 581.1152 580.8315 580.5432 580.283 580.1091 580.0927 580.694 582.3873 585.2944 588.3058 590.3969 591.385 591.5333 591.538 592.074 592.6312 592.9714 593.0398 592.8838 592.6238 592.2523 591.7963 591.3011 590.8372 590.3806 589.8737 589.2697 588.6912 588.1775 587.7743 587.4669 587.1771 586.8092 586.2792 585.5643 584.5659 583.5063 582.7285 582.0151 581.3011 580.6447 580.1166 579.7189 579.3669 579.0519 578.781 578.5588 578.3749 578.2186 578.0974 578.0315 578.0007 577.9681 577.951 578.0071 578.1393 578.3137 578.5271 578.8015 579.1547 579.5929 580.1229 580.7994 581.5863 582.3966 583.1436 583.7581 584.3452 584.9564 585.6045 586.2031 586.6595 586.9967 587.2512 587.4529 587.6155 587.7435 587.8477 587.9393 588.0223 588.0854 588.1063 588.0652 587.9497 587.7529 587.4713 587.1047 586.6646 586.1879 585.581 584.7771 583.9346 583.1995 582.7051 582.3319 582.0321 581.7761 581.5499 581.3517 581.1802 581.0296 580.8971 580.7853 580.702 580.6545 580.6503 580.6899 580.7687 580.8828 581.0366 581.2375 581.4912 581.7932 582.1307 582.4868 582.8394 583.151 583.3179 583.6243 584.012 584.3921 584.7006 584.9037 584.9641 584.8489 584.5455 584.0746 583.543 583.1074 582.6489 582.1965 581.7437 581.3054 580.9077 580.5684 580.3041 580.1106 579.9164 579.7334 579.5679 579.4187 579.2818 579.1547 579.0352 578.9205 578.8085 578.6957 578.5829 578.475 578.3743 578.2823 578.2059 578.1511 578.1138 578.0865 578.0723 578.0791 578.111 578.1559 578.2006 578.2408 578.2817 578.3304 578.3907 578.4611 578.5387 578.625 578.7179 578.8197 578.9381 579.0829 579.258 579.458 579.6653 579.8815 580.1088 580.3502 580.667 581.0286 581.4312 581.8652 582.3127 582.7397 583.0932 583.2371 583.5664 583.9067 584.2071 584.4628 584.6793 584.8628 585.0033 585.1024 585.172 585.2286 585.2828 585.3322 585.3694 585.3895 585.3947 585.3889 585.3851 585.385 585.3832 585.376 585.3622 585.3428 585.3204 585.2996 585.2858 585.2797 585.2791 585.2859 585.3027 585.3269 585.3549 585.3854 585.4177 585.4562 585.5016 585.5518 585.6086 585.6722 585.741 585.8185 585.9086 586.0111 586.1096 586.2021 586.3686 586.5551 586.7792 587.0579 587.3568 587.636 587.8854 588.1408 588.4352 588.7992 589.2623 589.8708 590.6174 591.4349 592.2339 593.0052 593.7706 594.6201 595.7101 597.4758 598.6495 599.5748 600.4579 -9999 -9999 -9999 -9999 -9999 -9999 -9999 -9999 -9999 -9999 -9999 -9999 -9999 -9999 -9999 -9999 -9999 -9999 -9999 -9999 -9999 -9999 -9999 -9999 -9999 -9999 -9999 -9999 -9999 -9999 -9999 -9999 -9999 -9999 -9999
-9999 -9999 -9999 -9999 -9999 -9999 -9999 -9999 -9999 -9999 -9999 -9999 -9999 -9999 -9999 597.1093 596.9939 596.6649 595.7828 594.2051 592.8187 592.0505 591.59 591.1445 590.6471 590.1467 589.6786 589.2554 588.9015 588.5348 588.1537 587.7683 587.3879 587.0164 586.6331 586.1475 585.304 584.2452 583.2223 582.5351 582.0599 581.6963 581.3883 581.1097 580.826 580.5385 580.2817 580.1082 580.0583 580.642 582.4774 585.0593 587.6924 589.4767 590.3031 590.4208 590.3418 590.5361 590.6683 590.5778 590.4258 590.218 589.9897 589.7615 589.5471 589.3699 589.2573 589.1774 589.0077 588.5993 588.1583 587.741 587.3962 587.1519 586.9153 586.5652 586.0363 585.1909 584.2 583.2264 582.4138 581.6794 581.0024 580.4355 580.0632 579.649 579.2896 578.9819 578.7211 578.5081 578.3378 578.1996 578.0891 578.019 577.9948 577.9993 578.0127 578.0622 578.1802 578.3567 578.5718 578.8356 579.1711 579.5942 580.1211 580.7892 581.5381 582.3105 583.0383 583.56 584.1232 584.7827 585.5124 586.1896 586.6605 587.0197 587.2996 587.5209 587.6969 587.8318 587.9329 588.0114 588.0715 588.1053 588.095 588.022 587.874 587.641 587.3084 586.8647 586.3047 585.7322 585.064 584.3302 583.6346 583.0743 582.5579 582.1641 581.8577 581.6156 581.4125 581.2406 581.0959 580.972 580.8605 580.7634 580.692 580.6587 580.6684 580.7177 580.8025 580.9216 581.0776 581.2768 581.5233 581.8143 582.137 582.4688 582.7772 583.0209 583.1752 583.4949 583.8481 584.1589 584.4041 584.5526 584.5729 584.4407 584.1499 583.7223 583.2244 582.8722 582.4725 582.0453 581.6239 581.208 580.822 580.491 580.2428 580.1039 579.8949 579.7002 579.5294 579.3801 579.2473 579.1258 579.0126 578.9035 578.7974 578.6917 578.5848 578.4802 578.3816 578.2895 578.2075 578.1432 578.0995 578.0696 578.049 578.0433 578.0604 578.1013 578.1537 578.2056 578.2537 578.3026 578.3585 578.4241 578.4987 578.5791 578.6683 578.7617 578.8679 578.9947 579.1481 579.324 579.5159 579.7174 579.9216 580.1282 580.4333 580.7629 581.1271 581.5254 581.937 582.3252 582.6483 582.8685 583.1636 583.4895 583.7881 584.0419 584.2523 584.4385 584.6011 584.7322 584.8323 584.9122 584.9849 585.0498 585.0985 585.123 585.1334 585.1404 585.1515 585.1665 585.1801 585.187 585.1857 585.177 585.1631 585.1479 585.1375 585.134 585.1366 585.1472 585.1683 585.1992 585.2349 585.2736 585.3149 585.3597 585.4094 585.464 585.5252 585.5948 585.6719 585.7589 585.8582 585.9667 586.0811 586.2 586.3333 586.4958 586.702 586.9637 587.2552 587.5318 587.7884 588.0514 588.3572 588.731 589.2179 589.8085 590.4682 591.2017 591.9809 592.6886 593.3636 594.1425 595.2637 597.0753 598.3261 599.4568 600.4824 601.8086 -9999 -9999 -9999 -9999 -9999 -9999 -9999 -9999 -9999 -9999 -9999 -9999 -9999 -9999 -9999 -9999 -9999 -9999 -9999 -9999 -9999 -9999 -9999 -9999 -9999 -9999 -9999 -9999 -9999 -9999 -9999 -9999 -9999 -9999
-9999 -9999 -9999 -9999 -9999 -9999 -9999 -9999 -9999 -9999 -9999 -9999 -9999 -9999 -9999 596.8211 596.8674 596.8156 596.2866 594.8164 593.0967 592.2592 591.808 591.3571 590.8289 590.2982 589.7802 589.2964 589.0107 588.672 588.301 587.9139 587.5181 587.1097 586.6796 586.2025 585.4987 584.4185 583.309 582.6194 582.1427 581.7646 581.4335 581.1334 580.8407 580.5483 580.2865 580.1085 580.0565 580.636 582.4348 584.569 586.6862 588.2274 588.9177 589.0314 589.0201 589.0499 588.9952 588.7804 588.5284 588.2594 587.9952 587.8129 587.7158 587.706 587.7979 587.9572 587.9901 587.8104 587.528 587.2026 586.8936 586.7261 586.5519 586.1731 585.5592 584.729 583.8232 583.0052 582.1791 581.4238 580.7445 580.1735 579.8527 579.5165 579.1945 578.9083 578.6639 578.4622 578.303 578.1802 578.0862 578.0231 577.9995 578.014 578.0567 578.1237 578.2378 578.4111 578.6301 578.8916 579.2135 579.6166 580.1172 580.7389 581.4159 582.0891 582.6992 583.1838 583.7461 584.4801 585.2965 586.0725 586.5594 586.9688 587.2971 587.5509 587.744 587.8854 587.9825 588.0459 588.0791 588.0738 588.0173 587.8984 587.7101 587.4445 587.0773 586.6003 586.0159 585.2582 584.5002 583.7922 583.1929 582.7227 582.2924 581.9374 581.6543 581.4302 581.2524 581.108 580.9916 580.8956 580.8119 580.7368 580.6811 580.6609 580.683 580.7429 580.8343 580.9563 581.1129 581.3082 581.5449 581.8204 582.123 582.4319 582.7197 582.9618 583.1608 583.4016 583.6742 583.9239 584.1173 584.2258 584.2264 584.1057 583.8658 583.5356 583.1607 582.776 582.3607 581.9351 581.5137 581.1169 580.7402 580.3999 580.1183 579.9829 579.8173 579.6444 579.4836 579.3406 579.2147 579.101 578.9955 578.8944 578.7947 578.6958 578.5955 578.4948 578.3981 578.3072 578.2222 578.1489 578.0953 578.0608 578.0386 578.0259 578.0304 578.0588 578.1099 578.1704 578.2296 578.286 578.3443 578.4084 578.4791 578.5555 578.6373 578.726 578.821 578.9329 579.0693 579.2313 579.4132 579.6163 579.8434 580.0964 580.2955 580.5455 580.8514 581.2108 581.5939 581.9623 582.2833 582.5573 582.8516 583.1594 583.443 583.6802 583.863 584.045 584.223 584.3805 584.5068 584.6069 584.694 584.7716 584.8322 584.8619 584.8791 584.8967 584.9211 584.9505 584.9789 585.0001 585.0113 585.0137 585.0092 585.0015 584.9956 584.996 585.0027 585.018 585.0443 585.0807 585.1241 585.1692 585.2167 585.2676 585.3234 585.3838 585.4523 585.5307 585.6144 585.7086 585.8153 585.9336 586.0627 586.1984 586.2896 586.4342 586.6267 586.879 587.1632 587.4395 587.6951 587.9608 588.2574 588.5884 588.972 589.414 590.1317 590.8875 591.6501 592.3571 592.9871 593.676 594.5864 596.7032 598.5391 600.0441 601.368 602.7455 -9999 -9999 -9999 -9999 -9999 -9999 -9999 -9999 -9999 -9999 -9999 -9999 -9999 -9999 -9999 -9999 -9999 -9999 -9999 -9999 -9999 -9999 -9999 -9999 -9999 -9999 -9999 -9999 -9999 -9999 -9999 -9999 -9999 -9999
-9999 -9999 -9999 -9999 -9999 -9999 -9999 -9999 -9999 -9999 -9999 -9999 -9999 -9999 -9999 597.0063 596.9675 596.9866 596.5123 595.3087 593.5699 592.7101 592.1895 591.6052 591.0428 590.5056 589.9886 589.53 589.2138 588.8328 588.4484 588.0527 587.648 587.2333 586.7996 586.3408 585.8367 584.7227 583.539 582.8253 582.3267 581.8973 581.5194 581.1755 580.8575 580.556 580.2857 580.1095 580.0574 580.5967 582.2634 583.8019 585.3891 586.5502 587.1326 587.226 587.3329 587.3749 587.317 587.1505 586.9366 586.6742 586.3718 586.2264 586.2045 586.2903 586.501 586.8531 587.0281 587.004 586.8606 586.6248 586.3042 586.2128 586.0969 585.6448 584.993 584.2025 583.364 582.655 581.92 581.2167 580.595 580.1133 579.7468 579.4121 579.1056 578.8359 578.6073 578.4197 578.2715 578.16 578.0823 578.0332 578.0173 578.0358 578.0913 578.1755 578.2924 578.4604 578.6823 578.9482 579.2644 579.648 580.1144 580.6735 581.2672 581.8445 582.3655 582.8244 583.3225 584.0738 584.9018 585.6885 586.2867 586.8165 587.2211 587.5194 587.7319 587.8768 587.9669 588.0136 588.0178 587.9679 587.8499 587.6631 587.4174 587.116 586.696 586.1375 585.4269 584.6257 583.8635 583.2161 582.7362 582.3544 582.0075 581.7037 581.451 581.2461 581.0845 580.9622 580.8692 580.8 580.7438 580.6953 580.6606 580.655 580.6899 580.7618 580.863 580.9899 581.1465 581.337 581.563 581.8218 582.1042 582.3947 582.6738 582.9277 583.1539 583.3052 583.5104 583.7068 583.8553 583.9304 583.9187 583.8184 583.631 583.3907 583.1291 582.7133 582.278 581.8466 581.4332 581.0433 580.6874 580.3695 580.1091 579.9269 579.7589 579.5956 579.4432 579.3071 579.188 579.0819 578.9844 578.8917 578.7996 578.7069 578.6136 578.5179 578.423 578.3331 578.2484 578.1696 578.1047 578.0608 578.0358 578.0226 578.0199 578.0362 578.077 578.1371 578.2042 578.2704 578.3358 578.4041 578.4737 578.5473 578.6226 578.7062 578.7952 578.897 579.0193 579.167 579.3367 579.5245 579.7288 579.9363 580.1113 580.3213 580.585 580.9193 581.2891 581.6521 581.9845 582.2874 582.5883 582.8871 583.1608 583.3811 583.5079 583.6874 583.8792 584.0557 584.2014 584.3164 584.4131 584.4972 584.5631 584.6041 584.632 584.6607 584.6974 584.7401 584.7825 584.8171 584.8399 584.853 584.8586 584.8594 584.8597 584.865 584.8772 584.8981 584.9299 584.9717 585.0201 585.072 585.1251 585.1824 585.2448 585.3115 585.386 585.4758 585.5648 585.6634 585.7736 585.8923 586.0129 586.1227 586.2025 586.362 586.5479 586.7919 587.0777 587.3574 587.616 587.8827 588.1791 588.4908 588.8429 589.2835 589.9435 590.6563 591.3329 592.0447 592.6739 593.4434 594.3019 596.6233 598.9063 600.8439 602.4988 603.6993 -9999 -9999 -9999 -9999 -9999 -9999 -9999 -9999 -9999 -9999 -9999 -9999 -9999 -9999 -9999 -9999 -9999 -9999 -9999 -9999 -9999 -9999 -9999 -9999 -9999 -9999 -9999 -9999 -9999 -9999 -9999 -9999 -9999 -9999
-9999 -9999 -9999 -9999 -9999 -9999 -9999 -9999 -9999 -9999 -9999 -9999 -9999 -9999 -9999 597.6645 597.2024 597.0851 596.6802 595.6792 594.087 593.1243 592.3619 591.7501 591.2261 590.7296 590.2241 589.7282 589.2919 588.9597 588.5872 588.1877 587.7838 587.3807 586.9728 586.5765 586.0686 585.0814 583.9708 583.1265 582.5617 582.055 581.6048 581.2078 580.8549 580.5379 580.2507 580.1033 579.9882 580.3345 581.5125 582.7548 583.8591 584.7888 585.3274 585.4346 585.5475 585.5994 585.5906 585.5157 585.4082 585.2408 584.9592 584.8973 584.9698 585.1753 585.5044 585.9304 586.1462 586.2131 586.2043 586.1199 585.8597 585.6982 585.4747 585.0168 584.3959 583.7142 583.0535 582.3714 581.6775 581.0178 580.4429 580.0695 579.6698 579.3219 579.0217 578.7654 578.5511 578.3782 578.243 578.1438 578.0771 578.0425 578.0391 578.0679 578.1272 578.2247 578.3531 578.5166 578.7302 578.996 579.3102 579.6793 580.1126 580.6133 581.1318 581.6323 582.0999 582.5581 583.0829 583.6897 584.4412 585.257 586.0276 586.5959 587.0499 587.3906 587.6207 587.7628 587.8409 587.8703 587.8492 587.7567 587.569 587.288 586.9562 586.6281 586.1365 585.4656 584.6987 583.9176 583.2266 582.7071 582.3196 582.0115 581.7424 581.5015 581.2864 581.1007 580.9504 580.8344 580.7531 580.701 580.6685 580.6453 580.6327 580.6432 580.6895 580.7731 580.8853 581.02 581.1788 581.3653 581.5805 581.8223 582.0842 582.3543 582.6166 582.8535 583.045 583.1664 583.3594 583.5228 583.629 583.67 583.6418 583.5558 583.387 583.1655 582.9189 582.5621 582.1625 581.7556 581.3605 580.991 580.6538 580.3578 580.1096 579.9063 579.7283 579.5656 579.4174 579.2858 579.1713 579.0712 578.9805 578.8953 578.811 578.7247 578.6376 578.5481 578.4561 578.3665 578.2823 578.2026 578.1302 578.0742 578.0409 578.0261 578.023 578.0322 578.0618 578.114 578.1807 578.2528 578.3264 578.4006 578.4756 578.5469 578.6216 578.6968 578.7847 578.8802 578.9927 579.1259 579.2783 579.4434 579.6151 579.7833 579.937 580.1096 580.3307 580.6584 581.0284 581.3937 581.7338 582.0499 582.3542 582.6476 582.9185 583.1387 583.1797 583.3779 583.5847 583.77 583.9237 584.0454 584.147 584.2353 584.3068 584.358 584.3972 584.437 584.4849 584.5392 584.5934 584.6398 584.6733 584.6959 584.7111 584.7205 584.7283 584.7396 584.7584 584.786 584.824 584.8706 584.9218 584.9794 585.0386 585.1047 585.1741 585.2479 585.3289 585.4208 585.5168 585.6206 585.7341 585.8539 585.975 586.0914 586.2001 586.325 586.481 586.7057 586.9923 587.2837 587.5541 587.8262 588.1311 588.4607 588.8191 589.2686 589.8726 590.4914 591.0934 591.7067 592.2227 592.9407 594.0996 596.628 599.1884 601.3402 603.0326 603.798 -9999 -9999 -9999 -9999 -9999 -9999 -9999 -9999 -9999 -9999 -9999 -9999 -9999 -9999 -9999 -9999 -9999 -9999 -9999 -9999 -9999 -9999 -9999 -9999 -9999 -9999 -9999 -9999 -9999 -9999 -9999 -9999 -9999 -9999
-9999 -9999 -9999 -9999 -9999 -9999 -9999 -9999 -9999 -9999 -9999 -9999 -9999 -9999 -9999 -9999 597.8085 597.1999 596.6288 595.5959 594.1709 593.0393 592.3228 591.8162 591.3975 590.9738 590.502 589.9963 589.543 589.1953 588.7456 588.3197 587.9207 587.5411 587.1678 586.7758 586.2478 585.4371 584.3403 583.302 582.6428 582.0999 581.6207 581.1932 580.8121 580.4539 580.1208 579.9496 579.8683 580.1021 580.7938 581.7007 582.548 583.2181 583.5495 583.6246 583.6673 583.7023 583.7249 583.7034 583.6799 583.6692 583.661 583.811 583.9724 584.2473 584.5725 584.9274 585.2089 585.3945 585.4907 585.484 585.346 585.1729 584.8888 584.4091 583.8015 583.1979 582.6337 582.0542 581.4143 580.7948 580.1924 579.8558 579.523 579.2102 578.9333 578.6954 578.4973 578.3378 578.2173 578.131 578.0771 578.0525 578.0593 578.0998 578.1714 578.2728 578.4109 578.584 578.7927 579.0487 579.3544 579.7083 580.1112 580.5609 581.0166 581.451 581.8603 582.2644 582.7037 583.2029 583.863 584.6441 585.4415 586.1357 586.6908 587.0977 587.3474 587.4786 587.5387 587.5532 587.5187 587.401 587.1528 586.759 586.2956 585.9693 585.3921 584.684 583.9338 583.2378 582.6938 582.2781 581.9641 581.7166 581.5051 581.3175 581.1506 581.0011 580.8669 580.7551 580.6749 580.6259 580.6051 580.6017 580.6086 580.6337 580.6885 580.7787 580.8994 581.0423 581.2051 581.3893 581.5956 581.8214 582.0627 582.3118 582.5566 582.7847 582.9859 583.1565 583.2753 583.3869 583.4473 583.4482 583.3923 583.3303 583.163 582.9527 582.7015 582.3824 582.0236 581.6531 581.2887 580.9437 580.6288 580.35 580.1099 579.9019 579.7192 579.5556 579.4092 579.2802 579.1681 579.0713 578.9857 578.9061 578.8286 578.749 578.6666 578.5828 578.4958 578.4075 578.3226 578.2435 578.1691 578.104 578.0582 578.0359 578.0319 578.0402 578.0628 578.1056 578.1663 578.2376 578.315 578.3956 578.4756 578.5531 578.6243 578.7006 578.7804 578.8759 578.9825 579.1041 579.2401 579.384 579.5297 579.6722 579.8082 579.9503 580.1253 580.4592 580.8243 581.1847 581.5234 581.8381 582.1346 582.4122 582.6564 582.8457 582.9555 583.1569 583.3535 583.5315 583.68 583.7969 583.8989 583.9911 584.0688 584.1295 584.1795 584.2296 584.2875 584.3513 584.4146 584.4706 584.5133 584.5443 584.5675 584.5851 584.6006 584.6189 584.6452 584.6798 584.7238 584.7752 584.8261 584.8848 584.9557 585.0346 585.113 585.193 585.2771 585.3707 585.4713 585.5797 585.6965 585.8192 585.9445 586.0718 586.1987 586.2803 586.4142 586.6241 586.9097 587.2155 587.5015 587.7877 588.1016 588.4513 588.8348 589.267 589.7493 590.2416 590.7662 591.2671 591.7487 592.4885 593.8326 596.384 598.9529 601.0089 602.433 602.7134 -9999 -9999 -9999 -9999 -9999 -9999 -9999 -9999 -9999 -9999 -9999 -9999 -9999 -9999 -9999 -9999 -9999 -9999 -9999 -9999 -9999 -9999 -9999 -9999 -9999 -9999 -9999 -9999 -9999 -9999 -9999 -9999 -9999 -9999
-9999 -9999 -9999 -9999 -9999 -9999 -9999 -9999 -9999 -9999 -9999 -9999 -9999 -9999 -9999 -9999 597.9872 596.8834 595.9757 595.0879 594.0126 592.8776 592.3292 591.9706 591.6454 591.269 590.8088 590.2766 589.7362 589.2486 588.8185 588.4197 588.0502 587.6942 587.3432 586.9741 586.5226 585.8825 584.7743 583.5814 582.8083 582.2037 581.688 581.2261 580.8125 580.4381 580.1068 579.8829 579.7831 579.8868 580.2388 580.9081 581.5585 582.0638 582.3085 582.3663 582.3877 582.4413 582.5206 582.5663 582.6622 582.8716 583.1263 583.1765 583.2612 583.5441 583.7758 584.024 584.3401 584.6147 584.7891 584.8503 584.8006 584.668 584.3973 583.9099 583.3035 582.7812 582.2338 581.6768 581.1167 580.6107 580.0926 579.7126 579.3916 579.1026 578.8481 578.6304 578.4482 578.3029 578.1945 578.1224 578.0811 578.0682 578.083 578.1293 578.2103 578.3232 578.4679 578.6461 578.8612 579.1117 579.4038 579.738 580.1105 580.5135 580.9163 581.2942 581.644 581.9825 582.3359 582.736 583.2443 583.9281 584.6801 585.4047 586.0829 586.5726 586.8324 586.9385 586.9741 586.9788 586.9506 586.8439 586.5782 586.0936 585.4839 585.0781 584.542 583.8936 583.2384 582.6996 582.2725 581.9392 581.6822 581.4796 581.3098 581.1609 581.0294 580.9127 580.8103 580.7197 580.6436 580.5922 580.5709 580.5753 580.5965 580.6323 580.6925 580.7839 580.9064 581.0535 581.2195 581.4024 581.6014 581.8136 582.0355 582.2629 582.4882 582.7008 582.892 583.0511 583.1613 583.2667 583.2973 583.2722 583.1677 583.1517 582.9753 582.7521 582.4951 582.1993 581.8751 581.5405 581.2101 580.8944 580.6024 580.3405 580.1099 579.906 579.7252 579.5634 579.4188 579.2911 579.1802 579.0844 579.0013 578.9255 578.8525 578.7789 578.7014 578.6212 578.5393 578.4543 578.3693 578.2892 578.2153 578.1473 578.0912 578.0566 578.0457 578.0524 578.0732 578.1099 578.1637 578.2304 578.3064 578.3893 578.4747 578.5564 578.6335 578.7057 578.7865 578.8757 578.9804 579.0961 579.2209 579.351 579.4821 579.6155 579.7543 579.9111 580.1082 580.3756 580.6905 581.0216 581.3452 581.6498 581.9329 582.1945 582.4226 582.6096 582.7729 582.9672 583.1599 583.3317 583.4706 583.5698 583.6693 583.7671 583.8525 583.9222 583.9821 584.0413 584.1075 584.1789 584.2489 584.3114 584.3616 584.4001 584.4301 584.4547 584.4775 584.5034 584.5376 584.5788 584.6267 584.6804 584.7389 584.8102 584.8859 584.9751 585.0593 585.145 585.2325 585.3253 585.4279 585.5394 585.6589 585.7828 585.9071 586.0267 586.1312 586.2014 586.3423 586.5535 586.8396 587.1555 587.4537 587.7466 588.0676 588.418 588.8032 589.1991 589.3614 589.8922 590.4429 590.9178 591.3811 592.0997 593.412 595.7335 598.1151 599.9325 600.9729 601.0751 -9999 -9999 -9999 -9999 -9999 -9999 -9999 -9999 -9999 -9999 -9999 -9999 -9999 -9999 -9999 -9999 -9999 -9999 -9999 -9999 -9999 -9999 -9999 -9999 -9999 -9999 -9999 -9999 -9999 -9999 -9999 -9999 -9999 -9999
-9999 -9999 -9999 -9999 -9999 -9999 -9999 -9999 -9999 -9999 -9999 -9999 -9999 -9999 -9999 -9999 598.0092 596.4238 595.324 594.7941 594.2506 593.4085 592.7299 592.3623 592.053 591.6515 591.1946 590.6337 589.9949 589.3541 588.9286 588.5441 588.1984 587.8477 587.4913 587.1204 586.7006 586.1737 585.2679 584.0901 583.1102 582.4041 581.8459 581.3395 580.8826 580.4701 580.1093 579.8847 579.8014 579.8739 580.1058 580.5059 580.9445 581.3137 581.4982 581.5365 581.5553 581.6238 581.7615 581.8734 582.0245 582.3156 582.6232 582.7364 582.8677 583.1 583.1722 583.2852 583.632 583.9569 584.1594 584.2518 584.2592 584.1947 584.0135 583.5813 583.1015 582.5371 581.9286 581.3271 580.7526 580.2109 579.866 579.558 579.2712 579.0068 578.7722 578.5729 578.407 578.2742 578.1778 578.1176 578.089 578.0878 578.1112 578.1628 578.2471 578.3671 578.5206 578.7072 578.9241 579.1742 579.4556 579.769 580.1106 580.4721 580.8279 581.158 581.4575 581.7392 582.0247 582.3429 582.7348 583.2358 583.8538 584.4711 585.1555 585.7338 585.9725 586.037 586.0462 586.0471 586.0401 585.9816 585.7654 585.2477 584.688 584.2332 583.761 583.2162 582.7192 582.2987 581.9576 581.6891 581.4772 581.3073 581.1653 581.0422 580.9338 580.8383 580.7565 580.6893 580.6343 580.593 580.5698 580.5724 580.5976 580.6406 580.7026 580.7914 580.9093 581.0536 581.2185 581.3994 581.592 581.7926 581.9976 582.2037 582.4077 582.6016 582.7782 582.931 583.0546 583.1576 583.1616 583.1558 583.0364 582.9366 582.7609 582.5413 582.2932 582.0182 581.7249 581.4238 581.1257 580.8394 580.5715 580.3279 580.11 579.9157 579.7418 579.5851 579.4441 579.3182 579.2074 579.1114 579.0278 578.9537 578.8834 578.8137 578.7411 578.6642 578.5851 578.5043 578.4213 578.3397 578.2646 578.197 578.137 578.0915 578.0688 578.0685 578.0865 578.1204 578.1696 578.2316 578.3037 578.385 578.4724 578.5593 578.6396 578.7171 578.7935 578.8818 578.9818 579.0939 579.2134 579.3372 579.4636 579.5962 579.7432 579.9131 580.1103 580.3206 580.5871 580.8857 581.1896 581.4802 581.751 582.0044 582.2277 582.4244 582.6102 582.802 582.9903 583.1602 583.2958 583.36 583.4596 583.5667 583.6609 583.7379 583.8055 583.8727 583.9457 584.0226 584.0969 584.1636 584.2185 584.2633 584.2994 584.3304 584.3604 584.3945 584.4368 584.4856 584.5382 584.5961 584.6612 584.7494 584.8299 584.9193 585.0087 585.1 585.1927 585.2867 585.3879 585.499 585.62 585.7458 585.8718 585.9938 586.1052 586.1997 586.3036 586.5034 586.7878 587.1078 587.4081 587.6982 588.0071 588.3346 588.6638 588.9714 589.2512 589.7024 590.1727 590.6517 591.0999 591.7421 592.8785 594.795 596.9045 598.5516 599.377 599.5002 -9999 -9999 -9999 -9999 -9999 -9999 -9999 -9999 -9999 -9999 -9999 -9999 -9999 -9999 -9999 -9999 -9999 -9999 -9999 -9999 -9999 -9999 -9999 -9999 -9999 -9999 -9999 -9999 -9999 -9999 -9999 -9999 -9999 -9999
-9999 -9999 -9999 -9999 -9999 -9999 -9999 -9999 -9999 -9999 -9999 -9999 -9999 -9999 -9999 -9999 598.3691 596.4666 595.2455 594.8896 594.8298 594.2722 593.3504 592.9254 592.5154 592.1274 591.7023 591.1464 590.4707 589.7676 589.2012 588.7438 588.3846 588.013 587.6302 587.2341 586.8168 586.4316 585.7635 584.5444 583.3694 582.6447 582.0598 581.5 580.9883 580.5294 580.1143 579.9243 579.8882 579.9717 580.1101 580.3353 580.606 580.8629 581.0048 581.0295 581.046 581.1138 581.2683 581.4408 581.6179 581.9008 582.1642 582.3199 582.4736 582.6534 582.7643 582.9106 583.1771 583.4769 583.6298 583.6937 583.7129 583.6941 583.5885 583.2349 582.8214 582.2959 581.6896 581.0771 580.5437 580.1125 579.7671 579.46 579.1808 578.9298 578.7098 578.5253 578.3744 578.2548 578.1682 578.118 578.1007 578.1096 578.1421 578.1981 578.2854 578.4082 578.5684 578.7622 578.9851 579.2324 579.5045 579.7982 580.1105 580.4354 580.7511 581.0419 581.3029 581.5426 581.7798 582.0353 582.3357 582.6984 583.1124 583.4809 584.0337 584.4423 584.6202 584.6661 584.6691 584.6693 584.6693 584.6354 584.4973 584.1893 583.8043 583.3752 583.1022 582.7166 582.3418 582.0137 581.7413 581.5201 581.3419 581.1965 581.0745 580.9678 580.8738 580.7898 580.7173 580.6624 580.623 580.5963 580.5832 580.587 580.611 580.6546 580.7173 580.8011 580.9111 581.0468 581.2047 581.3796 581.5651 581.7552 581.9453 582.1318 582.3138 582.4874 582.6453 582.7828 582.8943 582.9706 582.9792 582.9486 582.8444 582.7141 582.5377 582.3271 582.094 581.843 581.5782 581.3079 581.0398 580.7808 580.5367 580.3125 580.11 579.929 579.7657 579.6174 579.4822 579.3593 579.2491 579.1519 579.0664 578.9908 578.9216 578.8535 578.7845 578.7114 578.6342 578.5558 578.4758 578.3946 578.317 578.2479 578.1874 578.137 578.1037 578.0924 578.1027 578.1322 578.178 578.237 578.3057 578.3835 578.4702 578.5594 578.6453 578.7249 578.8051 578.8885 578.9852 579.0939 579.2104 579.3312 579.4567 579.5901 579.7395 579.9124 580.1053 580.246 580.4826 580.7628 581.0502 581.3275 581.5861 581.8386 582.0586 582.2625 582.4587 582.6509 582.8352 583.0051 583.1544 583.1649 583.2798 583.3977 583.4971 583.5757 583.6477 583.7217 583.8005 583.8817 583.9594 584.0284 584.0858 584.135 584.1768 584.213 584.2495 584.2923 584.3441 584.4008 584.4607 584.5258 584.5986 584.6852 584.7727 584.8668 584.9628 585.0569 585.1536 585.2524 585.3526 585.4614 585.5808 585.7075 585.837 585.9664 586.0923 586.2 586.2639 586.4615 586.7427 587.0648 587.3591 587.6451 587.9426 588.2551 588.5713 588.8972 589.2496 589.645 590.0575 590.431 590.8619 591.4253 592.3296 593.7413 595.5632 597.1608 598.013 598.4747 -9999 -9999 -9999 -9999 -9999 -9999 -9999 -9999 -9999 -9999 -9999 -9999 -9999 -9999 -9999 -9999 -9999 -9999 -9999 -9999 -9999 -9999 -9999 -9999 -9999 -9999 -9999 -9999 -9999 -9999 -9999 -9999 -9999 -9999
-9999 -9999 -9999 -9999 -9999 -9999 -9999 -9999 -9999 -9999 -9999 -9999 -9999 -9999 -9999 -9999 -9999 596.9697 595.6102 595.0315 594.9324 594.6863 594.3056 593.6187 593.1071 592.7842 592.402 591.8455 591.1182 590.2955 589.4924 588.9681 588.5848 588.1675 587.7646 587.3741 586.9982 586.6243 586.0255 584.9026 583.6766 582.9489 582.3013 581.6288 581.0465 580.5416 580.1259 579.9907 579.9934 580.1073 580.1664 580.2843 580.438 580.6043 580.712 580.7323 580.7452 580.8077 580.926 581.1262 581.3318 581.6044 581.7775 581.9301 582.096 582.2797 582.4382 582.6204 582.8648 583.1187 583.1675 583.171 583.1728 583.1794 583.1738 583.0546 582.5727 582.0082 581.4442 580.8678 580.3848 580.0778 579.7126 579.3903 579.1099 578.8674 578.6604 578.4883 578.3502 578.2433 578.1672 578.1244 578.1152 578.1333 578.173 578.2351 578.3239 578.4485 578.6124 578.8125 579.0418 579.2897 579.5515 579.826 580.1101 580.3994 580.6816 580.9432 581.178 581.3912 581.5962 581.8081 582.0404 582.2995 582.5738 582.8331 583.1355 583.291 583.344 583.3467 583.3371 583.3325 583.3353 583.334 583.3036 583.2236 583.0952 582.8288 582.608 582.3441 582.0746 581.8254 581.609 581.4272 581.2743 581.1445 581.0327 580.9353 580.8494 580.7722 580.7026 580.6486 580.616 580.5978 580.5929 580.6014 580.6265 580.6696 580.7303 580.8103 580.9119 581.0366 581.1835 581.348 581.5237 581.7028 581.8793 582.0486 582.2095 582.3613 582.4987 582.6154 582.7056 582.7593 582.7621 582.7192 582.6224 582.4888 582.319 582.1213 581.9052 581.677 581.4396 581.1971 580.9556 580.7215 580.4999 580.2953 580.11 579.9442 579.7942 579.6569 579.5294 579.4114 579.3027 579.2042 579.1161 579.0376 578.9666 578.8989 578.8309 578.761 578.6865 578.6088 578.5308 578.4515 578.373 578.3004 578.2377 578.1854 578.1465 578.1252 578.1249 578.146 578.1866 578.2423 578.3087 578.3837 578.4678 578.5576 578.6464 578.7311 578.8122 578.8972 578.989 579.093 579.2068 579.3256 579.4491 579.5792 579.7185 579.8646 580.0033 580.1174 580.3755 580.653 580.928 581.1945 581.4429 581.6805 581.9003 582.1093 582.3119 582.5038 582.6823 582.8445 582.978 583.0487 583.1596 583.2697 583.363 583.4313 583.5041 583.5842 583.6693 583.7548 583.8351 583.9054 583.9648 584.0164 584.063 584.1038 584.1456 584.1958 584.2573 584.3203 584.3902 584.4636 584.5425 584.6279 584.72 584.8162 584.918 585.019 585.1158 585.2152 585.3204 585.4281 585.5435 585.6676 585.7963 585.9283 586.0651 586.1976 586.2034 586.4304 586.692 586.9956 587.2957 587.5863 587.8855 588.1973 588.5194 588.8666 589.2571 589.6832 590.0471 590.3806 590.7252 591.1802 591.8484 592.8235 594.2768 595.9107 597.157 597.8132 -9999 -9999 -9999 -9999 -9999 -9999 -9999 -9999 -9999 -9999 -9999 -9999 -9999 -9999 -9999 -9999 -9999 -9999 -9999 -9999 -9999 -9999 -9999 -9999 -9999 -9999 -9999 -9999 -9999 -9999 -9999 -9999 -9999 -9999
-9999 -9999 -9999 -9999 -9999 -9999 -9999 -9999 -9999 -9999 -9999 -9999 -9999 -9999 -9999 -9999 -9999 -9999 596.0524 595.3258 595.0973 594.9017 594.7887 594.4852 593.8753 593.6816 593.3615 592.7365 591.928 591.0116 590.0745 589.2452 588.6812 588.2471 587.8649 587.4918 587.1268 586.7516 586.2194 585.3231 584.1552 583.165 582.3854 581.6964 581.1136 580.6299 580.2693 580.1083 580.0513 580.11 580.1788 580.2733 580.369 580.4657 580.5404 580.5566 580.5627 580.6022 580.6976 580.847 581.0485 581.2567 581.4176 581.5803 581.7605 581.9571 582.1331 582.3153 582.509 582.6696 582.7098 582.7039 582.694 582.6906 582.6682 582.5305 582.1392 581.6382 581.1121 580.616 580.1577 579.8912 579.593 579.3022 579.0394 578.8115 578.6195 578.4609 578.3343 578.2386 578.1732 578.1378 578.1335 578.1569 578.2031 578.2703 578.3633 578.4895 578.655 578.8598 579.0938 579.3448 579.5995 579.8543 580.1096 580.3623 580.6157 580.8579 581.0789 581.2796 581.4681 581.6542 581.8448 582.0422 582.2374 582.4172 582.577 582.6442 582.6437 582.6129 582.5791 582.557 582.5525 582.564 582.5818 582.5861 582.5475 582.4224 582.278 582.1019 581.9114 581.7251 581.554 581.4026 581.27 581.1519 581.0443 580.9463 580.8583 580.7805 580.7109 580.6544 580.6184 580.6038 580.6009 580.6115 580.6372 580.6797 580.7388 580.8147 580.9095 581.0244 581.1589 581.3107 581.474 581.6409 581.8037 581.9581 582.1006 582.2301 582.3464 582.4423 582.5116 582.5469 582.5401 582.4913 582.3997 582.2723 582.114 581.9321 581.7344 581.5269 581.3129 581.0952 580.8774 580.665 580.4636 580.2777 580.11 579.9605 579.8253 579.7001 579.5822 579.4705 579.3647 579.2659 579.1752 579.0931 579.0183 578.9489 578.8807 578.8116 578.7401 578.6642 578.5863 578.5087 578.4307 578.356 578.2888 578.2328 578.1901 578.1628 578.1533 578.1643 578.1967 578.2469 578.3098 578.3824 578.4639 578.553 578.6432 578.7313 578.8157 578.9011 578.9916 579.0908 579.2003 579.3171 579.4386 579.5656 579.698 579.8336 579.9675 580.11 580.3303 580.5717 580.8217 581.073 581.3105 581.5356 581.7513 581.9609 582.1687 582.3572 582.5293 582.6854 582.8198 582.9284 583.0465 583.1601 583.2523 583.2958 583.3705 583.4583 583.5496 583.6392 583.7227 583.7928 583.8534 583.9069 583.9576 584.0032 584.0498 584.1032 584.1652 584.2402 584.323 584.4064 584.4907 584.579 584.6707 584.7721 584.8745 584.9784 585.0813 585.1813 585.285 585.3953 585.5099 585.6285 585.7491 585.8672 585.9776 586.0778 586.1991 586.4075 586.652 586.9321 587.2318 587.5316 587.838 588.1586 588.4928 588.8527 589.2579 589.7122 590.1075 590.4263 590.737 591.1172 591.6301 592.3173 593.2037 594.6553 596.0483 596.9523 597.5021 -9999 -9999 -9999 -9999 -9999 -9999 -9999 -9999 -9999 -9999 -9999 -9999 -9999 -9999 -9999 -9999 -9999 -9999 -9999 -9999 -9999 -9999 -9999 -9999 -9999 -9999 -9999 -9999 -9999 -9999 -9999 -9999 -9999
-9999 -9999 -9999 -9999 -9999 -9999 -9999 -9999 -9999 -9999 -9999 -9999 -9999 -9999 -9999 -9999 -9999 -9999 -9999 595.6583 595.4388 595.2957 595.225 595.1554 595.0125 594.9129 594.5286 593.7166 592.7562 591.7042 590.6139 589.4493 588.7842 588.326 587.9653 587.6021 587.2448 586.8895 586.4935 585.8146 584.6226 583.3904 582.5198 581.8182 581.2444 580.7789 580.4329 580.2269 580.1118 580.142 580.2156 580.3076 580.3755 580.4158 580.4509 580.453 580.4386 580.4509 580.5135 580.6395 580.8076 580.965 581.1218 581.2981 581.483 581.6738 581.8334 581.9873 582.1287 582.2269 582.2535 582.2423 582.2178 582.1827 582.1157 581.9577 581.6375 581.2186 580.7843 580.3923 580.0847 579.7725 579.4813 579.2123 578.9709 578.7611 578.5856 578.4419 578.3268 578.2406 578.1842 578.1564 578.1559 578.1815 578.2305 578.3026 578.4002 578.5308 578.6996 578.907 579.1456 579.3984 579.6487 579.8849 580.1091 580.3274 580.5577 580.7891 581.006 581.2045 581.3893 581.5662 581.7388 581.9075 582.0676 582.2078 582.3118 582.3495 582.3325 582.2872 582.2364 582.1957 582.1753 582.1791 582.2023 582.229 582.2311 582.1823 582.1001 581.9867 581.851 581.7083 581.57 581.4415 581.3236 581.2142 581.109 581.0068 580.9094 580.8203 580.7404 580.6759 580.6343 580.6145 580.613 580.6218 580.6437 580.6843 580.7421 580.8146 580.903 581.0092 581.1327 581.2717 581.4214 581.5757 581.7253 581.8655 581.9925 582.1043 582.1991 582.2758 582.3275 582.3481 582.333 582.2809 582.1935 582.0751 581.9302 581.7648 581.5854 581.3971 581.2031 581.0056 580.8077 580.614 580.4298 580.2606 580.11 579.9775 579.8577 579.7454 579.6375 579.5327 579.431 579.3334 579.2412 579.1556 579.0766 579.0031 578.9333 578.8638 578.7932 578.7201 578.6431 578.5651 578.4884 578.413 578.3425 578.2813 578.2329 578.2004 578.1842 578.1863 578.2092 578.2522 578.3099 578.3787 578.4575 578.5446 578.6365 578.7256 578.8136 578.8994 578.9899 579.0862 579.1912 579.3052 579.425 579.5505 579.6821 579.8195 579.9612 580.1105 580.2822 580.4881 580.717 580.952 581.1824 581.4 581.6123 581.8162 582.0295 582.2109 582.3768 582.5298 582.6699 582.7988 582.9291 583.0551 583.1578 583.1619 583.2497 583.3458 583.4404 583.5319 583.6179 583.6865 583.7495 583.8064 583.8594 583.9108 583.9655 584.0259 584.0939 584.1741 584.2604 584.352 584.4415 584.5338 584.6299 584.7291 584.8353 584.9406 585.0434 585.1467 585.2529 585.363 585.4772 585.5948 585.7108 585.8229 585.9322 586.0483 586.2003 586.4086 586.6385 586.8954 587.1855 587.4929 587.8072 588.1373 588.4811 588.848 589.2537 589.7132 590.1345 590.4932 590.8194 591.1759 591.6129 592.1417 592.5054 593.6619 594.9476 595.9703 596.7327 -9999 -9999 -9999 -9999 -9999 -9999 -9999 -9999 -9999 -9999 -9999 -9999 -9999 -9999 -9999 -9999 -9999 -9999 -9999 -9999 -9999 -9999 -9999 -9999 -9999 -9999 -9999 -9999 -9999 -9999 -9999 -9999 -9999
-9999 -9999 -9999 -9999 -9999 -9999 -9999 -9999 -9999 -9999 -9999 -9999 -9999 -9999 -9999 -9999 -9999 -9999 -9999 -9999 595.9057 595.6961 595.6576 595.8246 596.172 596.3286 595.6072 594.5535 593.3835 592.078 590.7944 589.5881 588.9334 588.4978 588.1199 587.7365 587.397 587.0851 586.7328 586.1445 585.0914 583.7558 582.78 582.0469 581.4661 581.0027 580.6526 580.4296 580.2965 580.2717 580.3201 580.3986 580.4493 580.4418 580.4316 580.4038 580.3509 580.3328 580.3577 580.4636 580.6259 580.7244 580.8707 581.0537 581.2295 581.3817 581.5135 581.6347 581.734 581.7936 581.8038 581.7844 581.7471 581.6842 581.579 581.4045 581.1349 580.7904 580.433 580.1172 579.8683 579.6099 579.3574 579.1202 578.905 578.7169 578.5587 578.43 578.3271 578.2491 578.199 578.1774 578.181 578.2076 578.2571 578.3313 578.4341 578.5701 578.7449 578.9573 579.2004 579.457 579.7042 579.9226 580.1086 580.3044 580.5216 580.7477 580.9659 581.1683 581.3565 581.5353 581.7072 581.871 582.0233 582.1548 582.2484 582.2858 582.2727 582.2292 582.1746 582.1221 582.085 582.0723 582.0836 582.1071 582.1232 582.1119 582.0693 581.9937 581.8907 581.7737 581.6548 581.5399 581.4311 581.3268 581.2223 581.1136 581.004 580.8984 580.8016 580.7186 580.6625 580.6348 580.6277 580.6356 580.6542 580.6871 580.7407 580.8108 580.8943 580.9918 581.1053 581.2327 581.3699 581.5108 581.6492 581.7761 581.89 581.9874 582.0668 582.1254 582.1622 582.172 582.1508 582.0974 582.0135 581.9034 581.7711 581.6216 581.4592 581.2881 581.1112 580.9305 580.7489 580.5703 580.4 580.2448 580.11 579.9957 579.892 579.7921 579.6935 579.5955 579.4983 579.4029 579.3104 579.2223 579.1396 579.0619 578.9886 578.9178 578.8464 578.7744 578.6998 578.6222 578.545 578.4698 578.3978 578.3326 578.2779 578.2382 578.2153 578.21 578.2242 578.2589 578.3102 578.374 578.4485 578.5333 578.6242 578.7168 578.8046 578.8936 578.9822 579.078 579.1801 579.29 579.4082 579.5328 579.6647 579.8049 579.9539 580.1078 580.2167 580.3909 580.6046 580.8315 581.0561 581.2706 581.4857 581.6866 581.884 582.061 582.2231 582.3752 582.5193 582.6574 582.7925 582.9183 583.0184 583.072 583.1597 583.2515 583.3409 583.4266 583.5048 583.5796 583.6499 583.7139 583.7675 583.825 583.8922 583.9606 584.0348 584.1165 584.2069 584.2991 584.3944 584.4888 584.5885 584.6931 584.7976 584.9031 585.0078 585.1121 585.2198 585.333 585.4492 585.5677 585.6844 585.7981 585.9137 586.0422 586.2002 586.3998 586.6259 586.8779 587.1626 587.4762 587.7998 588.1327 588.4839 588.8516 589.2506 589.6877 590.1273 590.5279 590.8923 591.2435 591.5918 591.9174 592.2222 593.0986 594.0949 594.995 595.7767 -9999 -9999 -9999 -9999 -9999 -9999 -9999 -9999 -9999 -9999 -9999 -9999 -9999 -9999 -9999 -9999 -9999 -9999 -9999 -9999 -9999 -9999 -9999 -9999 -9999 -9999 -9999 -9999 -9999 -9999 -9999 -9999 -9999
-9999 -9999 -9999 -9999 -9999 -9999 -9999 -9999 -9999 -9999 -9999 -9999 -9999 -9999 -9999 -9999 -9999 -9999 -9999 -9999 596.3926 596.1139 596.105 596.4082 597.1594 597.2892 596.6745 595.2383 593.7367 592.3363 591.0331 589.9102 589.1944 588.7294 588.3038 587.9182 587.576 587.2698 586.9409 586.4568 585.6667 584.3607 583.1906 582.3594 581.7526 581.2847 580.9248 580.6885 580.5499 580.4849 580.5022 580.5585 580.5685 580.5216 580.4727 580.3962 580.296 580.2388 580.2308 580.2944 580.4184 580.5029 580.6514 580.8311 580.9808 581.0836 581.1771 581.2647 581.3334 581.3698 581.3694 581.3438 581.3017 581.2281 581.1058 580.9222 580.6824 580.4032 580.1169 579.8779 579.6677 579.4536 579.2399 579.0352 578.8469 578.6808 578.5404 578.4257 578.3341 578.2642 578.2182 578.1996 578.2065 578.2347 578.2842 578.3588 578.4647 578.6071 578.7892 579.0094 579.2587 579.5225 579.7753 579.9846 580.1147 580.3157 580.5304 580.7521 580.9707 581.177 581.3709 581.5563 581.7361 581.9084 582.0679 582.2062 582.3073 582.3551 582.355 582.3269 582.2852 582.2336 582.1874 582.1606 582.1577 582.1724 582.1902 582.1955 582.1752 582.1193 582.0265 581.918 581.8066 581.6965 581.5912 581.4883 581.3814 581.2638 581.1381 581.0128 580.8959 580.792 580.714 580.6692 580.6527 580.6538 580.6685 580.6967 580.741 580.8051 580.8843 580.9758 581.0793 581.1953 581.3205 581.4496 581.5757 581.6935 581.7954 581.882 581.9498 581.9965 582.0208 582.0219 581.9969 581.9438 581.8635 581.7599 581.6378 581.5016 581.3542 581.1985 581.0365 580.8702 580.702 580.5358 580.3765 580.2314 580.1099 580.0184 579.9305 579.8406 579.7493 579.6569 579.5643 579.4718 579.3804 579.2913 579.2055 579.1243 579.0469 578.973 578.9006 578.8278 578.7547 578.6793 578.6022 578.5264 578.4536 578.386 578.3265 578.2797 578.2489 578.2355 578.2407 578.267 578.3113 578.3695 578.4391 578.5197 578.6096 578.702 578.7938 578.8814 578.9722 579.0653 579.166 579.2734 579.3884 579.5109 579.6394 579.7735 579.908 580.028 580.1131 580.2828 580.4902 580.7144 580.937 581.1529 581.3619 581.558 581.744 581.9149 582.0735 582.2242 582.3694 582.5101 582.6465 582.7734 582.8817 582.9685 583.0635 583.1599 583.2487 583.3314 583.408 583.4836 583.5565 583.6211 583.6816 583.7455 583.8299 583.9033 583.9816 584.0663 584.1569 584.2528 584.3479 584.4465 584.5477 584.6543 584.7627 584.8684 584.9727 585.0789 585.1893 585.3059 585.4271 585.5484 585.6677 585.786 585.9082 586.0437 586.2003 586.3879 586.6105 586.8689 587.1539 587.4707 587.8066 588.1464 588.4935 588.8606 589.2506 589.67 590.1027 590.5328 590.9477 591.3325 591.6688 591.9269 592.1877 592.9227 593.5711 594.1689 594.8805 -9999 -9999 -9999 -9999 -9999 -9999 -9999 -9999 -9999 -9999 -9999 -9999 -9999 -9999 -9999 -9999 -9999 -9999 -9999 -9999 -9999 -9999 -9999 -9999 -9999 -9999 -9999 -9999 -9999 -9999 -9999 -9999 -9999
-9999 -9999 -9999 -9999 -9999 -9999 -9999 -9999 -9999 -9999 -9999 -9999 -9999 -9999 -9999 -9999 -9999 -9999 -9999 -9999 -9999 -9999 596.8826 597.1501 597.8398 597.8979 597.3983 595.9666 594.1865 592.7604 591.4376 590.2805 589.4083 588.906 588.4974 588.1389 587.7861 587.4446 587.088 586.6382 585.9904 584.8347 583.5881 582.712 582.0682 581.5906 581.2288 580.9756 580.832 580.7505 580.7397 580.7715 580.7143 580.6411 580.5581 580.3948 580.2498 580.1804 580.143 580.1637 580.2517 580.3279 580.4747 580.6281 580.715 580.7721 580.8267 580.8845 580.9325 580.9587 580.9601 580.9386 580.9023 580.8389 580.7239 580.551 580.3297 580.1126 579.9023 579.7062 579.5198 579.3326 579.1469 578.9685 578.8036 578.657 578.5328 578.4304 578.3479 578.2841 578.2411 578.2233 578.2311 578.2607 578.3113 578.3867 578.4945 578.6422 578.8311 579.0592 579.3158 579.5872 579.8577 580.1033 580.2322 580.4036 580.6025 580.8145 581.0291 581.2369 581.4353 581.6281 581.8175 582.0026 582.1744 582.3226 582.4347 582.492 582.5059 582.504 582.4974 582.4623 582.4183 582.3871 582.3763 582.3832 582.3992 582.4117 582.4044 582.3562 582.2526 582.137 582.024 581.9103 581.8037 581.702 581.5908 581.4591 581.311 581.1604 581.0193 580.8954 580.7941 580.7277 580.6943 580.6848 580.6915 580.713 580.7501 580.8044 580.8757 580.9609 581.0565 581.1624 581.2756 581.3929 581.5087 581.6156 581.7105 581.7875 581.8469 581.8859 581.9026 581.8972 581.8695 581.8177 581.7416 581.6439 581.5294 581.4031 581.2679 581.1256 580.9768 580.8234 580.6674 580.5125 580.3634 580.2263 580.1106 580.0522 579.9761 579.8914 579.8043 579.7163 579.6276 579.5383 579.449 579.3604 579.2733 579.1889 579.1083 579.0305 578.9557 578.882 578.8082 578.7344 578.6592 578.5834 578.5098 578.4406 578.3781 578.3256 578.2876 578.2657 578.2616 578.2778 578.314 578.366 578.4302 578.5058 578.5923 578.6853 578.7778 578.869 578.9581 579.0514 579.1497 579.2551 579.3673 579.4865 579.6107 579.7386 579.8668 579.9904 580.1082 580.2097 580.3896 580.6053 580.8208 581.0373 581.2437 581.4346 581.6128 581.7783 581.9331 582.0812 582.2251 582.3654 582.5017 582.6311 582.7493 582.8561 582.9615 583.0647 583.1599 583.2433 583.3208 583.4022 583.4794 583.5487 583.615 583.6858 583.7681 583.8481 583.9288 584.0176 584.1112 584.2072 584.3053 584.4044 584.5085 584.6172 584.7267 584.8335 584.9381 585.0455 585.1588 585.2799 585.4073 585.5321 585.6549 585.7778 585.9058 586.0463 586.2008 586.3678 586.5869 586.853 587.144 587.4625 587.8083 588.1613 588.5118 588.8699 589.2504 589.6597 590.089 590.5325 590.9888 591.437 591.8282 592.0833 592.1774 592.8104 593.2058 593.5678 594.1556 -9999 -9999 -9999 -9999 -9999 -9999 -9999 -9999 -9999 -9999 -9999 -9999 -9999 -9999 -9999 -9999 -9999 -9999 -9999 -9999 -9999 -9999 -9999 -9999 -9999 -9999 -9999 -9999 -9999 -9999 -9999 -9999 -9999
-9999 -9999 -9999 -9999 -9999 -9999 -9999 -9999 -9999 -9999 -9999 -9999 -9999 -9999 -9999 -9999 -9999 -9999 -9999 -9999 -9999 -9999 -9999 597.6272 597.9924 598.0525 597.7803 596.8507 595.2408 593.6632 592.1993 590.9185 589.922 589.2595 588.7975 588.3815 588.0141 587.628 587.2123 586.7335 586.2008 585.2949 584.1049 583.0948 582.3804 581.8906 581.5381 581.2837 581.1212 581.0305 580.9805 580.9456 580.8616 580.7676 580.6226 580.433 580.2609 580.1483 580.0934 580.0776 580.1243 580.19 580.3244 580.4113 580.4528 580.4691 580.4859 580.5145 580.5477 580.5721 580.5852 580.5841 580.567 580.5307 580.4504 580.3097 580.1165 579.9589 579.7866 579.6084 579.4312 579.2559 579.0859 578.9255 578.7783 578.6478 578.5366 578.4443 578.3683 578.308 578.2664 578.2479 578.2545 578.2849 578.3369 578.4149 578.5251 578.676 578.8711 579.1039 579.3635 579.6302 579.8848 580.1105 580.2985 580.4985 580.7109 580.9257 581.1399 581.3494 581.5521 581.7513 581.9493 582.146 582.33 582.4861 582.6072 582.6639 582.6854 582.7192 582.781 582.7765 582.7466 582.7229 582.7131 582.716 582.7271 582.7403 582.7413 582.6954 582.5522 582.4225 582.3078 582.1798 582.0679 581.97 581.8577 581.7075 581.5281 581.3437 581.1735 581.0269 580.9054 580.816 580.7612 580.7346 580.7291 580.7412 580.7694 580.8131 580.8751 580.9509 581.0389 581.1344 581.2369 581.3428 581.4475 581.5457 581.6317 581.703 581.7559 581.7893 581.8019 581.7932 581.7639 581.7136 581.6421 581.5505 581.4427 581.3239 581.198 581.0665 580.9295 580.788 580.6439 580.5013 580.366 580.2468 580.1571 580.1096 580.0256 579.9406 579.8563 579.7722 579.6874 579.6016 579.5153 579.4282 579.3414 579.2556 579.1718 579.091 579.0125 578.9368 578.8622 578.788 578.7142 578.6401 578.5667 578.4965 578.4318 578.3752 578.3311 578.3022 578.2891 578.2949 578.3212 578.3654 578.4235 578.4935 578.5748 578.6655 578.76 578.8525 578.9439 579.0358 579.1327 579.2362 579.3458 579.4614 579.5815 579.7036 579.8239 579.9367 580.0338 580.1125 580.2915 580.4968 580.7076 580.9178 581.1251 581.3169 581.4916 581.6533 581.8051 581.9501 582.0913 582.2296 582.3649 582.4963 582.6222 582.7418 582.8579 582.9686 583.0707 583.1598 583.2379 583.3321 583.4142 583.4869 583.5557 583.6288 583.7095 583.7925 583.879 583.9688 584.0656 584.1644 584.2631 584.3642 584.4701 584.5803 584.691 584.7985 584.9032 585.0112 585.1263 585.2509 585.3836 585.5137 585.6399 585.7645 585.8939 586.0367 586.1969 586.3179 586.5411 586.8289 587.1202 587.4451 587.7958 588.1625 588.524 588.8813 589.249 589.6381 590.0594 590.5112 590.9957 591.5023 591.9842 592.2929 592.0087 592.3926 592.7607 593.0256 593.6785 -9999 -9999 -9999 -9999 -9999 -9999 -9999 -9999 -9999 -9999 -9999 -9999 -9999 -9999 -9999 -9999 -9999 -9999 -9999 -9999 -9999 -9999 -9999 -9999 -9999 -9999 -9999 -9999 -9999 -9999 -9999 -9999 -9999
-9999 -9999 -9999 -9999 -9999 -9999 -9999 -9999 -9999 -9999 -9999 -9999 -9999 -9999 -9999 -9999 -9999 -9999 -9999 -9999 -9999 -9999 -9999 597.8444 597.8893 598.0045 598.1768 598.009 596.8447 595.056 593.3444 591.8314 590.6187 589.7385 589.1465 588.6533 588.2178 587.8104 587.3944 586.9554 586.4773 585.7617 584.5115 583.3309 582.6124 582.1463 581.8228 581.5891 581.4259 581.3155 581.2397 581.1398 581.0292 580.9147 580.7666 580.571 580.3732 580.205 580.0931 580.0374 580.0311 580.0691 580.1569 580.2172 580.2302 580.2115 580.1909 580.1897 580.2063 580.2304 580.2576 580.2864 580.3054 580.3083 580.2842 580.2173 580.1084 579.9415 579.7584 579.5728 579.3917 579.2183 579.0555 578.9059 578.7711 578.6523 578.5509 578.4655 578.3936 578.3344 578.2921 578.2717 578.2766 578.3066 578.3608 578.4415 578.5562 578.7106 578.9097 579.1483 579.4093 579.6716 579.9073 580.1092 580.3431 580.5909 580.8389 581.0734 581.2971 581.5134 581.722 581.9266 582.1312 582.3388 582.5349 582.6951 582.8336 582.8751 582.8901 582.9567 583.1346 583.1761 583.1727 583.1669 583.1644 583.1646 583.1668 583.1682 583.1646 583.1173 582.8945 582.7636 582.6635 582.5021 582.3822 582.2985 582.1914 582.0134 581.7926 581.5671 581.3641 581.1924 581.0521 580.9399 580.8605 580.8109 580.7866 580.7843 580.8007 580.8344 580.8838 580.9515 581.0287 581.115 581.2056 581.3002 581.3944 581.483 581.5614 581.6256 581.6735 581.7031 581.7131 581.7031 581.6736 581.6252 581.558 581.4727 581.3719 581.2601 581.1418 581.0189 580.892 580.7614 580.6287 580.4973 580.3728 580.2625 580.1743 580.11 580.0482 579.9783 579.9024 579.8237 579.7434 579.6614 579.5782 579.4938 579.4086 579.3228 579.2377 579.1538 579.0726 578.9933 578.9171 578.842 578.7681 578.695 578.6231 578.5531 578.4875 578.4283 578.379 578.3438 578.3235 578.3198 578.3356 578.3707 578.4213 578.4849 578.5602 578.6462 578.7397 578.8347 578.9276 579.0204 579.1161 579.2174 579.3251 579.438 579.5549 579.673 579.7902 579.9022 580.0074 580.1099 580.2407 580.411 580.6037 580.8062 581.0067 581.1984 581.3754 581.5378 581.6891 581.8322 581.9706 582.1064 582.24 582.3723 582.5029 582.6311 582.7566 582.877 582.9878 583.0837 583.1609 583.2626 583.3546 583.4259 583.4962 583.5711 583.6527 583.7383 583.8273 583.9216 584.0198 584.121 584.222 584.3245 584.4323 584.5447 584.6563 584.7633 584.8676 584.9753 585.0935 585.2236 585.3607 585.4944 585.6211 585.7417 585.86 585.979 586.0963 586.2065 586.4646 586.7689 587.0828 587.4158 587.7765 588.1509 588.5262 588.8895 589.248 589.6071 589.9993 590.4301 590.9046 591.4173 591.936 592.2958 591.9974 592.0509 592.0945 592.5026 593.3763 -9999 -9999 -9999 -9999 -9999 -9999 -9999 -9999 -9999 -9999 -9999 -9999 -9999 -9999 -9999 -9999 -9999 -9999 -9999 -9999 -9999 -9999 -9999 -9999 -9999 -9999 -9999 -9999 -9999 -9999 -9999 -9999 -9999
-9999 -9999 -9999 -9999 -9999 -9999 -9999 -9999 -9999 -9999 -9999 -9999 -9999 -9999 -9999 -9999 -9999 -9999 -9999 -9999 -9999 -9999 -9999 -9999 597.8486 598.0566 598.5342 599.0034 598.6289 597.0048 594.9082 593.0305 591.4906 590.2645 589.3549 588.8511 588.3801 587.9539 587.5348 587.0916 586.6135 585.9712 584.7692 583.5469 582.8378 582.3843 582.0828 581.8722 581.7171 581.5937 581.4861 581.3673 581.2482 581.1332 580.9989 580.8163 580.5964 580.3774 580.201 580.0839 580.0287 580.0297 580.0719 580.1031 580.0854 580.0327 579.9761 579.9442 579.9399 579.956 579.9933 580.0474 580.1088 580.157 580.1827 580.1725 580.1097 579.9541 579.7651 579.5703 579.3826 579.2076 579.0479 578.9047 578.7782 578.6678 578.5725 578.4911 578.4205 578.3608 578.3164 578.2933 578.296 578.3256 578.3821 578.4666 578.5853 578.7451 578.9489 579.1931 579.463 579.7323 579.9646 580.1209 580.3992 580.6926 580.9805 581.246 581.4921 581.7244 581.9435 582.1519 582.359 582.5812 582.7966 582.9484 583.1388 583.1658 583.1705 583.2322 583.5111 583.7 583.7408 583.7468 583.7448 583.741 583.7351 583.7104 583.654 583.516 583.2551 583.1724 583.1033 582.8672 582.7473 582.697 582.6057 582.3773 582.0988 581.8286 581.5953 581.4017 581.2419 581.1089 581.0012 580.9218 580.8704 580.8466 580.8468 580.8672 580.9077 580.962 581.0305 581.1048 581.1849 581.2676 581.3507 581.4296 581.4996 581.5572 581.5993 581.6248 581.6327 581.6223 581.5937 581.5476 581.4845 581.4051 581.3114 581.2069 581.0957 580.9805 580.8622 580.7413 580.619 580.4976 580.3812 580.2753 580.1843 580.1102 580.0709 580.014 579.9456 579.8717 579.7954 579.7175 579.6381 579.5568 579.4738 579.3895 579.3043 579.2192 579.1349 579.0531 578.9736 578.897 578.8223 578.7494 578.6783 578.6094 578.5441 578.4838 578.4309 578.3898 578.3632 578.3517 578.3579 578.3834 578.4257 578.4819 578.5507 578.6307 578.7206 578.8154 578.9103 579.0043 579.0999 579.2001 579.3058 579.4166 579.5313 579.6478 579.7638 579.8789 579.9934 580.1089 580.1904 580.3325 580.5088 580.7003 580.8953 581.0842 581.2616 581.4262 581.5797 581.7238 581.8613 581.9954 582.1277 582.2603 582.3933 582.5269 582.66 582.791 582.9185 583.0411 583.1589 583.2359 583.3005 583.3607 583.4312 583.51 583.5956 583.6844 583.7777 583.8742 583.9753 584.0776 584.1797 584.2836 584.3935 584.5083 584.6221 584.7294 584.8328 584.9406 585.0611 585.1962 585.3385 585.476 585.6018 585.7175 585.8268 585.9352 586.0516 586.1996 586.4424 586.7373 587.0576 587.3967 587.7561 588.1373 588.52 588.8917 589.2474 589.5801 589.9351 590.3188 590.73 591.1677 591.6393 592.0689 591.7789 591.9934 591.9689 592.3848 593.532 -9999 -9999 -9999 -9999 -9999 -9999 -9999 -9999 -9999 -9999 -9999 -9999 -9999 -9999 -9999 -9999 -9999 -9999 -9999 -9999 -9999 -9999 -9999 -9999 -9999 -9999 -9999 -9999 -9999 -9999 -9999 -9999 -9999
-9999 -9999 -9999 -9999 -9999 -9999 -9999 -9999 -9999 -9999 -9999 -9999 -9999 -9999 -9999 -9999 -9999 -9999 -9999 -9999 -9999 -9999 -9999 -9999 -9999 598.33 599.0491 600.1249 600.4031 599.1141 596.9065 594.5619 592.6433 591.0278 589.7406 589.0406 588.5514 588.0973 587.6437 587.1483 586.631 586.058 585.0129 583.9108 583.1212 582.6296 582.328 582.1265 581.9762 581.8451 581.7222 581.6036 581.5018 581.4033 581.2856 581.118 580.8883 580.634 580.4015 580.2316 580.1268 580.0922 580.0991 580.0963 580.0371 579.9479 579.8602 579.8016 579.7707 579.7653 579.8009 579.8739 579.9652 580.0552 580.1189 580.1425 580.1094 579.9625 579.7743 579.5765 579.3864 579.2115 579.0544 578.9157 578.7948 578.6896 578.5978 578.5172 578.4463 578.3848 578.3375 578.3118 578.3123 578.3419 578.4001 578.4894 578.6127 578.7771 578.9863 579.2363 579.517 579.813 580.0986 580.2721 580.5292 580.8287 581.139 581.4342 581.7118 581.9733 582.2123 582.4244 582.621 582.8662 583.1287 583.237 583.4769 583.6078 583.6987 583.8329 584.0757 584.2785 584.3634 584.3889 584.3893 584.3792 584.3631 584.3346 584.2691 584.1326 583.9255 583.7589 583.5608 583.2706 583.1932 583.1876 583.1035 582.7823 582.4322 582.1218 581.8702 581.6626 581.4865 581.3306 581.1907 581.0743 580.9874 580.9335 580.911 580.916 580.9435 580.9891 581.0434 581.1072 581.1755 581.2474 581.3197 581.3884 581.4493 581.4991 581.535 581.5557 581.5602 581.5488 581.521 581.4774 581.4185 581.3448 581.2581 581.1609 581.057 580.9492 580.8387 580.7266 580.6136 580.5012 580.3928 580.2936 580.2087 580.1449 580.1098 580.0524 579.9865 579.9158 579.8433 579.7694 579.6941 579.6166 579.5367 579.4547 579.3708 579.2854 579.1999 579.1154 579.0333 578.9539 578.8774 578.8041 578.7333 578.665 578.6 578.5397 578.4855 578.4403 578.4077 578.3893 578.3871 578.4032 578.437 578.4855 578.5473 578.6211 578.7057 578.7981 578.8931 578.9882 579.0841 579.1836 579.2882 579.3976 579.5103 579.6251 579.7393 579.8506 579.9556 580.046 580.1115 580.2556 580.4233 580.6041 580.7909 580.9757 581.153 581.3198 581.4761 581.6228 581.7612 581.8947 582.0267 582.1593 582.2939 582.4302 582.5676 582.7046 582.8408 582.9697 583.0829 583.1602 583.2274 583.2901 583.3615 583.4454 583.5397 583.6335 583.7292 583.8282 583.9309 584.0347 584.1375 584.242 584.3531 584.4706 584.5867 584.6956 584.7994 584.908 585.0307 585.17 585.3174 585.4591 585.5854 585.6979 585.8031 585.91 586.0343 586.2 586.437 586.7286 587.0474 587.388 587.7469 588.1239 588.5123 588.8902 589.2467 589.5668 589.8981 590.2433 590.5847 590.8983 591.1857 591.4484 591.8414 592.1663 592.2144 592.834 593.8734 -9999 -9999 -9999 -9999 -9999 -9999 -9999 -9999 -9999 -9999 -9999 -9999 -9999 -9999 -9999 -9999 -9999 -9999 -9999 -9999 -9999 -9999 -9999 -9999 -9999 -9999 -9999 -9999 -9999 -9999 -9999 -9999 -9999
-9999 -9999 -9999 -9999 -9999 -9999 -9999 -9999 -9999 -9999 -9999 -9999 -9999 -9999 -9999 -9999 -9999 -9999 -9999 -9999 -9999 -9999 -9999 -9999 -9999 -9999 600.0979 601.4448 602.144 601.2003 599.0583 596.4782 594.175 592.1738 590.5596 589.4733 588.8597 588.3017 587.7924 587.2766 586.7472 586.1435 585.2453 584.22 583.3339 582.8533 582.5624 582.3558 582.1963 582.0553 581.9227 581.8113 581.7549 581.6879 581.5852 581.4293 581.1986 580.9146 580.6458 580.4341 580.291 580.2262 580.2097 580.1809 580.0748 579.949 579.8359 579.7593 579.7009 579.6597 579.6842 579.7643 579.877 579.9906 580.0776 580.11 580.0748 579.9472 579.7708 579.5789 579.3922 579.221 579.0679 578.9332 578.8163 578.7141 578.6232 578.5411 578.4678 578.4042 578.3546 578.3265 578.3262 578.3556 578.4163 578.509 578.6378 578.8066 579.0188 579.2701 579.5477 579.8337 580.1101 580.3624 580.6563 580.9811 581.3147 581.6373 581.9487 582.2485 582.5209 582.7453 582.9005 583.1712 583.5148 583.7924 584.0128 584.1856 584.339 584.5153 584.7299 584.9175 585.0161 585.0484 585.048 585.0323 585.0121 585.0015 584.9629 584.867 584.7039 584.4928 584.2485 583.995 583.8772 583.8169 583.5768 583.1807 582.7808 582.4457 582.1971 581.9839 581.7955 581.6114 581.4323 581.2697 581.1392 581.0477 580.9971 580.9827 580.9972 581.0294 581.0728 581.1224 581.1798 581.2413 581.3033 581.3621 581.4133 581.4543 581.4829 581.4978 581.498 581.4839 581.4557 581.4139 581.3589 581.2908 581.2107 581.1205 581.024 580.9234 580.8204 580.7162 580.6118 580.5076 580.4066 580.3134 580.2314 580.1636 580.1101 580.0759 580.0198 579.954 579.8858 579.8167 579.746 579.6729 579.5967 579.5176 579.4357 579.3513 579.2657 579.1798 579.0952 579.0134 578.9347 578.8596 578.7884 578.7205 578.6557 578.5952 578.5403 578.493 578.4561 578.4316 578.4219 578.4291 578.4545 578.4951 578.5497 578.6174 578.6962 578.7844 578.8778 578.9728 579.069 579.1681 579.272 579.3804 579.4919 579.6049 579.7173 579.8265 579.9294 580.0234 580.11 580.2175 580.3567 580.5198 580.6956 580.8745 581.0498 581.2178 581.3767 581.5266 581.6677 581.8026 581.9352 582.0684 582.2043 582.3422 582.4813 582.6202 582.7606 582.8912 583.0037 583.089 583.1599 583.2189 583.2996 583.3901 583.4874 583.5852 583.6829 583.7827 583.8867 583.9917 584.0953 584.2001 584.3118 584.4313 584.5505 584.6616 584.767 584.8769 585.0023 585.1456 585.2979 585.4441 585.5728 585.6846 585.7882 585.8965 586.0266 586.2001 586.4358 586.726 587.0471 587.3848 587.7415 588.116 588.5024 588.8856 589.2474 589.572 589.908 590.2656 590.6356 591.0142 591.4617 592.036 592.4799 592.8516 592.9404 593.3087 594.0347 -9999 -9999 -9999 -9999 -9999 -9999 -9999 -9999 -9999 -9999 -9999 -9999 -9999 -9999 -9999 -9999 -9999 -9999 -9999 -9999 -9999 -9999 -9999 -9999 -9999 -9999 -9999 -9999 -9999 -9999 -9999 -9999 -9999
-9999 -9999 -9999 -9999 -9999 -9999 -9999 -9999 -9999 -9999 -9999 -9999 -9999 -9999 -9999 -9999 -9999 -9999 -9999 -9999 -9999 -9999 -9999 -9999 -9999 -9999 -9999 603.3478 604.0631 603.424 601.3997 598.6662 595.963 593.5535 591.5785 590.1302 589.1815 588.4924 587.9358 587.4164 586.8854 586.2781 585.5529 584.6057 583.7162 583.1296 582.8006 582.5669 582.3766 582.2234 582.0958 582.0046 581.9879 581.9558 581.8633 581.7075 581.4788 581.1882 580.884 580.6423 580.4779 580.3831 580.3425 580.2661 580.1506 580.0155 579.8837 579.7734 579.6832 579.6276 579.6412 579.7216 579.8405 579.967 580.0673 580.11 580.0573 579.93 579.7602 579.5759 579.3964 579.2317 579.084 578.9531 578.8387 578.7375 578.6456 578.5608 578.4839 578.4177 578.3672 578.3387 578.3382 578.3688 578.4312 578.5277 578.6605 578.8348 579.0511 579.3041 579.5781 579.8494 580.1091 580.4321 580.7875 581.152 581.5121 581.8612 582.2015 582.5383 582.8527 583.1185 583.2102 583.5458 583.9565 584.3218 584.5837 584.7919 584.9829 585.182 585.3782 585.5626 585.6526 585.6752 585.6707 585.6526 585.6277 585.6454 585.6429 585.6003 585.4846 585.2505 584.9958 584.7372 584.5508 584.3854 584.0867 583.6588 583.1935 582.8245 582.5974 582.372 582.1744 581.9547 581.7207 581.502 581.3209 581.1879 581.1055 581.0692 581.068 581.0878 581.1166 581.1539 581.1993 581.2508 581.303 581.3517 581.3932 581.4248 581.4451 581.4532 581.4483 581.4304 581.4003 581.3589 581.3066 581.2434 581.1692 581.0857 580.996 580.9025 580.8066 580.71 580.6132 580.5164 580.4222 580.3348 580.2566 580.191 580.1416 580.1099 580.0497 579.9863 579.923 579.8594 579.7939 579.7257 579.6537 579.5778 579.4983 579.4157 579.3308 579.2448 579.1591 579.075 578.9941 578.9172 578.8445 578.7759 578.7113 578.6508 578.5952 578.5463 578.5063 578.4773 578.4611 578.4606 578.4773 578.5101 578.5571 578.6183 578.6919 578.7755 578.8659 578.9594 579.0551 579.1536 579.2568 579.3644 579.475 579.5866 579.6973 579.8054 579.9095 580.0106 580.1094 580.1771 580.2927 580.4417 580.6082 580.7811 580.9534 581.121 581.2813 581.4334 581.5779 581.7159 581.8508 581.9858 582.123 582.2628 582.4041 582.5455 582.686 582.8179 582.9335 583.0273 583.1011 583.1604 583.2515 583.3457 583.4425 583.5409 583.6392 583.7388 583.8426 583.9486 584.053 584.1577 584.2692 584.39 584.5126 584.6273 584.7351 584.847 584.9751 585.1223 585.2793 585.4301 585.5629 585.6763 585.7802 585.8893 586.0225 586.2002 586.4393 586.7288 587.0497 587.3866 587.7375 588.108 588.4932 588.8789 589.2491 589.5947 589.9524 590.3433 590.7635 591.1914 591.6913 592.2944 592.876 593.2195 593.3864 593.6484 594.1313 -9999 -9999 -9999 -9999 -9999 -9999 -9999 -9999 -9999 -9999 -9999 -9999 -9999 -9999 -9999 -9999 -9999 -9999 -9999 -9999 -9999 -9999 -9999 -9999 -9999 -9999 -9999 -9999 -9999 -9999 -9999 -9999 -9999
-9999 -9999 -9999 -9999 -9999 -9999 -9999 -9999 -9999 -9999 -9999 -9999 -9999 -9999 -9999 -9999 -9999 -9999 -9999 -9999 -9999 -9999 -9999 -9999 -9999 -9999 -9999 605.8455 606.545 605.973 603.9377 600.9901 597.8133 594.9724 592.6252 590.8269 589.5367 588.7245 588.1123 587.5898 587.0898 586.5643 585.9571 585.0049 584.0537 583.3003 582.9969 582.7233 582.4951 582.3439 582.2395 582.1735 582.1854 582.186 582.11 581.9478 581.709 581.4117 581.1027 580.8344 580.6504 580.5411 580.4748 580.3752 580.2661 580.1433 580.0098 579.8804 579.7672 579.6912 579.6834 579.7464 579.856 579.9763 580.0731 580.11 580.0448 579.9136 579.7473 579.5703 579.3991 579.2421 579.1005 578.973 578.8593 578.7573 578.6631 578.5746 578.4939 578.4255 578.3757 578.3494 578.3507 578.3829 578.4477 578.5469 578.6837 578.863 579.0868 579.3505 579.6378 579.9148 580.138 580.535 580.9531 581.3593 581.7457 582.1163 582.4761 582.8336 583.1639 583.4377 583.6503 584.0032 584.4388 584.8409 585.1393 585.3538 585.5478 585.7559 585.9219 586.1455 586.1953 586.201 586.1992 586.1929 586.1852 586.1871 586.1929 586.1913 586.1344 585.8781 585.6617 585.3928 585.1705 584.978 584.6707 584.2465 583.7546 583.2996 583.0933 582.8141 582.6179 582.3499 582.0429 581.7559 581.5203 581.3468 581.2333 581.1742 581.1564 581.1624 581.1782 581.2019 581.2361 581.2773 581.3196 581.3577 581.3884 581.4103 581.4218 581.4224 581.4118 581.3898 581.3569 581.3146 581.2638 581.2039 581.1346 581.057 580.9735 580.8864 580.7971 580.7073 580.6174 580.5274 580.4396 580.3572 580.2815 580.2144 580.1575 580.11 580.0613 580.0099 579.9555 579.8987 579.8391 579.7758 579.7079 579.6354 579.5585 579.4779 579.3945 579.309 579.2231 579.1381 579.0557 578.9767 578.9023 578.8325 578.767 578.7064 578.6503 578.5999 578.5573 578.5246 578.5031 578.4957 578.5049 578.5301 578.5697 578.6237 578.6918 578.7706 578.8574 578.9487 579.0427 579.1404 579.2424 579.3494 579.4587 579.569 579.6774 579.7824 579.8825 579.9753 580.0552 580.1109 580.2239 580.3674 580.5291 580.6973 580.8658 581.0313 581.1914 581.3445 581.4913 581.6331 581.7715 581.9094 582.0487 582.1902 582.3333 582.4763 582.6173 582.7518 582.8752 582.9836 583.0781 583.16 583.2339 583.3158 583.4049 583.5004 583.5982 583.6969 583.7996 583.9058 584.011 584.1157 584.2263 584.3472 584.4725 584.592 584.7037 584.8184 584.949 585.0992 585.2603 585.4158 585.5533 585.6708 585.7765 585.8864 586.0203 586.2003 586.4448 586.7368 587.0557 587.3898 587.7365 588.1014 588.4839 588.8719 589.2504 589.6154 589.9919 590.4082 590.8647 591.2823 591.7461 592.2598 592.7779 593.4096 593.7184 593.9864 594.3612 -9999 -9999 -9999 -9999 -9999 -9999 -9999 -9999 -9999 -9999 -9999 -9999 -9999 -9999 -9999 -9999 -9999 -9999 -9999 -9999 -9999 -9999 -9999 -9999 -9999 -9999 -9999 -9999 -9999 -9999 -9999 -9999 -9999
-9999 -9999 -9999 -9999 -9999 -9999 -9999 -9999 -9999 -9999 -9999 -9999 -9999 -9999 -9999 -9999 -9999 -9999 -9999 -9999 -9999 -9999 -9999 -9999 -9999 -9999 -9999 608.6087 609.1653 608.4739 606.3564 603.1612 599.5457 596.2653 593.5961 591.573 590.103 589.1083 588.3663 587.7924 587.2828 586.7618 586.1523 585.3228 584.4177 583.6317 583.1371 582.7839 582.5542 582.4337 582.3661 582.3236 582.3484 582.3574 582.298 582.139 581.8923 581.5862 581.2728 581.0035 580.812 580.691 580.6086 580.5184 580.426 580.3309 580.2131 580.0802 579.9523 579.854 579.8136 579.8411 579.9193 580.0146 580.0903 580.11 580.033 579.8976 579.7343 579.5646 579.402 579.2527 579.1165 578.9911 578.8763 578.7717 578.6744 578.5823 578.4985 578.4297 578.3821 578.3602 578.3661 578.4016 578.4689 578.5704 578.7101 578.8937 579.1252 579.4053 579.7295 580.0832 580.3538 580.7505 581.1875 581.6172 582.0247 582.4139 582.791 583.1689 583.5295 583.8308 584.115 584.4913 584.9366 585.3617 585.671 585.8311 585.9709 586.1711 586.218 586.396 586.499 586.5529 586.5671 586.5454 586.5081 586.4708 586.4732 586.469 586.4032 586.2227 586.152 585.8972 585.7056 585.5802 585.3013 584.9265 584.4625 583.993 583.6236 583.2573 583.0955 582.7603 582.3657 582.0103 581.7245 581.5142 581.3744 581.2938 581.259 581.2515 581.2552 581.2677 581.2908 581.3213 581.3525 581.3792 581.3984 581.4096 581.4117 581.4045 581.3879 581.3617 581.3262 581.2823 581.2316 581.1738 581.1083 581.0355 580.9574 580.8758 580.7922 580.7083 580.6246 580.5408 580.4587 580.381 580.3071 580.2374 580.1721 580.1101 580.0746 580.0346 579.9886 579.938 579.8834 579.824 579.7596 579.6902 579.6161 579.5378 579.4562 579.372 579.2866 579.2015 579.1182 579.0378 578.9618 578.8905 578.8238 578.762 578.7052 578.6533 578.6085 578.5724 578.5466 578.5334 578.5358 578.5538 578.5867 578.6333 578.6951 578.7693 578.8522 578.9407 579.0327 579.1284 579.2294 579.3346 579.4431 579.5514 579.6572 579.7586 579.8544 579.9441 580.0281 580.1093 580.1774 580.3051 580.4612 580.6255 580.7897 580.9517 581.1092 581.2619 581.4095 581.5541 581.6965 581.8379 581.9796 582.1226 582.2668 582.4105 582.5525 582.6901 582.8211 582.9441 583.058 583.1595 583.2101 583.2831 583.3693 583.4626 583.5597 583.6576 583.7585 583.8639 583.97 584.075 584.1846 584.3044 584.4312 584.5552 584.6721 584.7902 584.9232 585.0757 585.24 585.4005 585.5433 585.6663 585.7759 585.8866 586.02 586.2003 586.4498 586.7458 587.0638 587.3931 587.735 588.0963 588.4768 588.8662 589.2499 589.6196 589.9919 590.3904 590.8154 591.2408 591.7148 592.2731 592.9301 593.8391 594.1472 594.3508 594.6206 -9999 -9999 -9999 -9999 -9999 -9999 -9999 -9999 -9999 -9999 -9999 -9999 -9999 -9999 -9999 -9999 -9999 -9999 -9999 -9999 -9999 -9999 -9999 -9999 -9999 -9999 -9999 -9999 -9999 -9999 -9999 -9999 -9999
-9999 -9999 -9999 -9999 -9999 -9999 -9999 -9999 -9999 -9999 -9999 -9999 -9999 -9999 -9999 -9999 -9999 -9999 -9999 -9999 -9999 -9999 -9999 -9999 -9999 -9999 -9999 -9999 611.3198 610.42 608.2075 604.8168 600.8552 597.1837 594.3457 592.2422 590.6831 589.5117 588.6986 588.0519 587.4919 586.9346 586.3033 585.6292 584.7755 583.9388 583.2581 582.8779 582.6411 582.546 582.5001 582.4612 582.4657 582.4653 582.4046 582.2551 582.0128 581.7085 581.3995 581.1399 580.9646 580.8569 580.7842 580.7171 580.6451 580.5654 580.4718 580.3488 580.212 580.0914 580.0138 579.9941 580.0243 580.0766 580.1166 580.1099 580.0205 579.8824 579.7229 579.5608 579.4067 579.264 579.1316 579.0067 578.8892 578.7805 578.6795 578.5851 578.5001 578.4325 578.3894 578.3741 578.3873 578.4286 578.4996 578.6035 578.7451 578.9305 579.1648 579.4467 579.7662 580.1102 580.5182 580.9961 581.4698 581.9238 582.3527 582.7622 583.1638 583.5726 583.9614 584.2914 584.5976 584.9807 585.4196 585.8411 586.1552 586.2009 586.2172 586.3672 586.4475 586.5652 586.6826 586.7736 586.8141 586.7859 586.7178 586.6514 586.6208 586.6049 586.5601 586.4575 586.3621 586.2161 586.1891 586.1444 585.8782 585.6012 585.1872 584.7141 584.2548 583.8203 583.4818 583.0966 582.6381 582.244 581.9254 581.6866 581.5236 581.4232 581.3717 581.3507 581.3452 581.3491 581.3629 581.3826 581.4013 581.4146 581.4208 581.4202 581.4124 581.3973 581.3749 581.3446 581.3068 581.2617 581.2104 581.1536 581.0906 581.0217 580.9482 580.8716 580.7927 580.7139 580.6355 580.5572 580.4803 580.4071 580.3363 580.2677 580.2036 580.1477 580.11 580.0699 580.0266 579.9797 579.9286 579.8719 579.8096 579.7424 579.6708 579.595 579.5156 579.4333 579.3492 579.2646 579.181 579.1001 579.0228 578.95 578.882 578.8185 578.7601 578.7068 578.6595 578.6206 578.5909 578.5725 578.5685 578.5801 578.6063 578.6469 578.7017 578.771 578.8501 578.9352 579.025 579.1187 579.2172 579.3209 579.4274 579.5341 579.6372 579.7347 579.8259 579.91 579.9863 580.0529 580.111 580.2489 580.4059 580.5664 580.7258 580.8833 581.0372 581.1872 581.3347 581.4806 581.626 581.7704 581.9146 582.059 582.2034 582.3472 582.4891 582.6288 582.7645 582.8937 583.0114 583.1058 583.1604 583.247 583.3362 583.4282 583.5238 583.621 583.7202 583.8237 583.9299 584.0359 584.1453 584.2638 584.3904 584.5178 584.6403 584.763 584.8982 585.0522 585.2188 585.3839 585.5338 585.6633 585.7782 585.8909 586.0223 586.2004 586.4532 586.7526 587.07 587.3948 587.7311 588.0889 588.469 588.8615 589.2488 589.6121 589.9689 590.3406 590.738 591.1731 591.7031 592.407 593.3595 594.4908 594.8688 594.8338 594.9881 -9999 -9999 -9999 -9999 -9999 -9999 -9999 -9999 -9999 -9999 -9999 -9999 -9999 -9999 -9999 -9999 -9999 -9999 -9999 -9999 -9999 -9999 -9999 -9999 -9999 -9999 -9999 -9999 -9999 -9999 -9999 -9999 -9999
-9999 -9999 -9999 -9999 -9999 -9999 -9999 -9999 -9999 -9999 -9999 -9999 -9999 -9999 -9999 -9999 -9999 -9999 -9999 -9999 -9999 -9999 -9999 -9999 -9999 -9999 -9999 -9999 612.7568 611.6172 609.3139 605.8019 601.6142 597.6384 594.837 592.8246 591.3086 590.102 589.1497 588.4025 587.7797 587.1997 586.6133 586.0087 585.1537 584.3116 583.6033 583.1173 582.8168 582.7117 582.6454 582.5612 582.5276 582.5045 582.4364 582.2924 582.0649 581.7765 581.4856 581.2521 581.1166 581.0446 580.999 580.9614 580.9158 580.8541 580.7661 580.6521 580.5124 580.3707 580.2555 580.1844 580.1575 580.1555 580.1497 580.1099 580.0073 579.8679 579.7136 579.5596 579.4135 579.2759 579.1449 579.0184 578.897 578.7837 578.6798 578.585 578.5018 578.4378 578.401 578.3943 578.4174 578.4679 578.5455 578.6535 578.798 578.9863 579.2262 579.5173 579.8446 580.1695 580.7081 581.2881 581.8022 582.2808 582.7324 583.1662 583.5979 584.022 584.4325 584.7854 585.0747 585.4319 585.8371 586.1926 586.4224 586.4798 586.4989 586.5789 586.6379 586.7042 586.8154 586.9231 586.9855 586.9664 586.8818 586.7925 586.7302 586.6998 586.6736 586.6221 586.5521 586.4869 586.4617 586.3961 586.2202 586.1367 585.8023 585.3593 584.8636 584.3447 583.824 583.2648 582.8444 582.4669 582.1315 581.8669 581.6813 581.5616 581.4926 581.4579 581.4445 581.4425 581.4488 581.4579 581.4634 581.4618 581.4532 581.4398 581.4218 581.3988 581.3705 581.3366 581.2969 581.251 581.1992 581.1424 581.0811 581.0156 580.9464 580.874 580.7993 580.7245 580.6506 580.5771 580.5048 580.4359 580.369 580.3033 580.2432 580.1912 580.1497 580.11 580.0679 580.0236 579.9752 579.9199 579.8584 579.7924 579.7226 579.6493 579.5727 579.4929 579.4108 579.3273 579.2441 579.163 579.0849 579.0107 578.9412 578.876 578.8156 578.7605 578.7108 578.6688 578.6357 578.6127 578.6029 578.6083 578.6284 578.663 578.7119 578.7751 578.8503 578.9323 579.019 579.1107 579.2065 579.3076 579.412 579.5164 579.6176 579.7125 579.8005 579.8826 579.9587 580.0306 580.1099 580.2306 580.3713 580.5204 580.6727 580.8251 580.975 581.1218 581.2673 581.4139 581.5607 581.7074 581.8534 581.9985 582.1425 582.285 582.4266 582.5664 582.7047 582.839 582.9647 583.0743 583.16 583.2336 583.3134 583.4001 583.4919 583.5874 583.6854 583.7868 583.8917 583.9987 584.1087 584.2266 584.3527 584.4821 584.6093 584.7368 584.8746 585.0297 585.1979 585.3672 585.525 585.6643 585.7864 585.9022 586.0298 586.2006 586.4579 586.7559 587.0704 587.3911 587.7224 588.0768 588.4565 588.8541 589.2484 589.6107 589.9573 590.3089 590.6856 591.1198 591.688 592.5099 593.7681 594.8118 595.2864 595.2036 595.3721 -9999 -9999 -9999 -9999 -9999 -9999 -9999 -9999 -9999 -9999 -9999 -9999 -9999 -9999 -9999 -9999 -9999 -9999 -9999 -9999 -9999 -9999 -9999 -9999 -9999 -9999 -9999 -9999 -9999 -9999 -9999 -9999 -9999
-9999 -9999 -9999 -9999 -9999 -9999 -9999 -9999 -9999 -9999 -9999 -9999 -9999 -9999 -9999 -9999 -9999 -9999 -9999 -9999 -9999 -9999 -9999 -9999 -9999 -9999 -9999 -9999 613.5288 612.0948 609.7967 606.2627 601.9849 597.9207 595.236 593.3592 591.9009 590.6554 589.5294 588.7574 588.0967 587.4744 586.845 586.1795 585.4174 584.6342 583.9082 583.2504 582.9774 582.8671 582.7088 582.5911 582.5328 582.4929 582.4167 582.2712 582.0661 581.808 581.5494 581.354 581.2833 581.2634 581.2553 581.2425 581.2197 581.174 581.0958 580.9777 580.8294 580.6656 580.5121 580.3896 580.3036 580.2428 580.1862 580.1099 579.9936 579.8534 579.705 579.559 579.4196 579.2855 579.1539 579.0244 578.8986 578.7815 578.6765 578.5843 578.5064 578.4491 578.4207 578.4248 578.4602 578.5238 578.613 578.7299 578.8811 579.076 579.328 579.6511 580.0571 580.4574 581.0156 581.6207 582.1823 582.693 583.1694 583.6302 584.0754 584.511 584.9242 585.275 585.5415 585.8357 586.1818 586.4494 586.6244 586.6985 586.73 586.7844 586.8299 586.8707 586.9482 587.05 587.1189 587.1185 587.0392 586.9384 586.8608 586.8157 586.7932 586.7666 586.7231 586.6831 586.6367 586.5557 586.4297 586.3353 586.1815 585.8542 585.4026 584.8667 584.2847 583.6866 583.1763 582.7541 582.3656 582.0616 581.8491 581.7102 581.6243 581.576 581.5529 581.545 581.5437 581.5422 581.5343 581.5177 581.4943 581.4674 581.439 581.4083 581.3743 581.3368 581.2951 581.2485 581.1965 581.1395 581.079 581.0168 580.9517 580.8833 580.8122 580.7405 580.6703 580.601 580.5325 580.4667 580.4037 580.3408 580.285 580.2355 580.192 580.1511 580.11 580.0679 580.0227 579.9675 579.9055 579.8398 579.7717 579.701 579.6274 579.5508 579.4711 579.3895 579.3074 579.2264 579.1477 579.0725 579.0013 578.9344 578.8719 578.8145 578.7625 578.7173 578.6805 578.6536 578.6387 578.6381 578.6524 578.681 578.7244 578.7818 578.8522 578.9313 579.0154 579.1039 579.1976 579.2954 579.3967 579.4987 579.5981 579.692 579.7798 579.863 579.9435 580.0236 580.1101 580.2214 580.3445 580.4803 580.6252 580.7736 580.9207 581.0647 581.2084 581.3539 581.5015 581.6489 581.7957 581.9409 582.0839 582.2249 582.3646 582.5043 582.6432 582.7805 582.9142 583.042 583.1589 583.2147 583.2896 583.3751 583.465 583.5581 583.6548 583.7547 583.858 583.9645 584.0753 584.1932 584.3195 584.4501 584.5808 584.7126 584.853 585.0087 585.1782 585.3517 585.5187 585.6704 585.8048 585.9273 586.0496 586.2007 586.4651 586.7548 587.0626 587.3788 587.7068 588.0577 588.4376 588.8415 589.2488 589.6287 589.9852 590.3363 590.7021 591.1215 591.6753 592.4944 593.7776 595.0527 595.8369 595.9435 595.97 -9999 -9999 -9999 -9999 -9999 -9999 -9999 -9999 -9999 -9999 -9999 -9999 -9999 -9999 -9999 -9999 -9999 -9999 -9999 -9999 -9999 -9999 -9999 -9999 -9999 -9999 -9999 -9999 -9999 -9999 -9999 -9999 -9999
-9999 -9999 -9999 -9999 -9999 -9999 -9999 -9999 -9999 -9999 -9999 -9999 -9999 -9999 -9999 -9999 -9999 -9999 -9999 -9999 -9999 -9999 -9999 -9999 -9999 -9999 -9999 -9999 613.9822 612.0505 609.8998 606.4371 602.1854 598.1606 595.5995 593.8243 592.3051 591.021 589.9363 589.1356 588.4343 587.7637 587.0701 586.3348 585.6633 584.9214 584.1793 583.5227 583.1359 582.8974 582.7109 582.5881 582.5178 582.4628 582.3776 582.2327 582.0425 581.8299 581.6296 581.5085 581.4874 581.5145 581.5449 581.5561 581.5448 581.5062 581.4288 581.3069 581.1427 580.9551 580.7652 580.5935 580.4502 580.3312 580.223 580.1099 579.9792 579.8377 579.6942 579.5549 579.4208 579.2881 579.1545 579.0211 578.8922 578.7739 578.671 578.5848 578.5161 578.4692 578.4518 578.4689 578.5197 578.601 578.709 578.8429 579.0082 579.2157 579.4766 579.8 580.1971 580.7686 581.4028 582.04 582.6326 583.1704 583.6714 584.138 584.5774 585.0031 585.4207 585.803 586.1135 586.2275 586.4569 586.6628 586.8094 586.8915 586.9351 586.9778 587.0199 587.0457 587.0898 587.1724 587.2413 587.2537 587.1985 587.1044 587.0275 586.9742 586.9415 586.9153 586.8773 586.8284 586.7545 586.6524 586.5282 586.4347 586.3346 586.1848 585.8468 585.3657 584.7919 584.1754 583.5903 583.0848 582.6117 582.266 582.0286 581.8709 581.7693 581.7083 581.6741 581.6567 581.6449 581.6307 581.609 581.5782 581.5412 581.5021 581.4639 581.426 581.3867 581.3454 581.3012 581.2537 581.2015 581.1445 581.0844 581.0255 580.9639 580.8989 580.8311 580.7623 580.6951 580.6289 580.5635 580.4996 580.4387 580.3806 580.3278 580.2797 580.2352 580.1925 580.1509 580.11 580.0695 580.0125 579.9495 579.8847 579.8187 579.7512 579.681 579.6076 579.5308 579.4513 579.3705 579.29 579.2111 579.135 579.0626 578.9937 578.9294 578.8693 578.8147 578.7662 578.7256 578.6946 578.6751 578.6693 578.6782 578.7012 578.7384 578.7907 578.8558 578.9312 579.0131 579.0991 579.1894 579.2844 579.382 579.481 579.5784 579.6722 579.7614 579.8478 579.9343 580.0218 580.1101 580.2008 580.3105 580.4392 580.58 580.7263 580.8718 581.0146 581.1565 581.3012 581.4484 581.5957 581.7421 581.8865 582.028 582.1672 582.3057 582.4436 582.5817 582.718 582.85 582.9725 583.0786 583.1606 583.2599 583.3533 583.4438 583.5349 583.6295 583.7281 583.8304 583.9361 584.0468 584.1648 584.2913 584.4233 584.5567 584.6917 584.8341 584.9902 585.1604 585.3378 585.5142 585.681 585.8336 585.9728 586.0974 586.2057 586.4592 586.7467 587.0453 587.3561 587.6824 588.0317 588.4111 588.8232 589.2505 589.6666 590.0616 590.4429 590.8221 591.2347 591.7597 592.5587 593.8839 595.2901 596.1076 596.412 596.4901 -9999 -9999 -9999 -9999 -9999 -9999 -9999 -9999 -9999 -9999 -9999 -9999 -9999 -9999 -9999 -9999 -9999 -9999 -9999 -9999 -9999 -9999 -9999 -9999 -9999 -9999 -9999 -9999 -9999 -9999 -9999 -9999 -9999
-9999 -9999 -9999 -9999 -9999 -9999 -9999 -9999 -9999 -9999 -9999 -9999 -9999 -9999 -9999 -9999 -9999 -9999 -9999 -9999 -9999 -9999 -9999 -9999 -9999 -9999 -9999 -9999 614.557 612.634 610.1211 606.5683 602.3708 598.4489 595.9504 594.1161 592.5841 591.2928 590.2245 589.3812 588.7545 588.0928 587.3906 586.6801 586.0229 585.2274 584.4484 583.7437 583.2073 582.9489 582.7498 582.6175 582.5314 582.4524 582.3514 582.2078 582.0334 581.8604 581.7207 581.6781 581.7082 581.7781 581.8445 581.8796 581.8748 581.8317 581.7459 581.6111 581.4308 581.2178 580.9947 580.7808 580.5872 580.4152 580.259 580.11 579.964 579.8191 579.6781 579.5432 579.4118 579.2784 579.1417 579.0049 578.8752 578.7599 578.6638 578.588 578.5325 578.4996 578.4959 578.528 578.5979 578.7031 578.8389 579.0022 579.1965 579.4364 579.74 580.1269 580.6298 581.2507 581.9114 582.5594 583.1628 583.7155 584.2156 584.6633 585.0699 585.4636 585.8447 586.1944 586.4605 586.5935 586.7439 586.8931 587.0129 587.0915 587.14 587.1748 587.2106 587.2321 587.2526 587.3057 587.3658 587.3846 587.3476 587.2734 587.2053 587.1584 587.1138 587.0698 587.024 586.943 586.839 586.7161 586.5843 586.4689 586.3712 586.345 586.1838 585.8117 585.2937 584.6723 583.9928 583.311 582.8364 582.4847 582.2307 582.0513 581.9309 581.855 581.8077 581.7772 581.7512 581.7209 581.6843 581.6406 581.5923 581.5433 581.4972 581.4532 581.4083 581.3628 581.3151 581.2661 581.2142 581.1582 581.1005 581.0428 580.9833 580.9208 580.8555 580.7893 580.7245 580.6613 580.5984 580.5363 580.4767 580.4213 580.371 580.3239 580.2784 580.2332 580.1888 580.1472 580.1098 580.0493 579.9879 579.9263 579.8641 579.8008 579.7346 579.6645 579.5905 579.5131 579.4337 579.3538 579.2749 579.1982 579.1246 579.0542 578.9875 578.9252 578.8674 578.8158 578.7716 578.7365 578.7123 578.7015 578.7053 578.7233 578.7551 578.8014 578.8616 578.9326 579.0114 579.0954 579.1827 579.2736 579.3677 579.463 579.5581 579.6514 579.7421 579.8313 579.9221 580.0156 580.1095 580.1688 580.2701 580.3976 580.538 580.6834 580.8282 580.9698 581.1112 581.2552 581.4025 581.549 581.6938 581.8369 581.9767 582.1147 582.2526 582.3896 582.5263 582.6615 582.7921 582.9127 583.0226 583.1592 583.2569 583.3451 583.4315 583.5194 583.6113 583.7083 583.8096 583.9149 584.0253 584.1432 584.2693 584.4023 584.538 584.6755 584.8192 584.9751 585.1452 585.3252 585.5092 585.6902 585.8632 586.0315 586.197 586.3046 586.5007 586.748 587.026 587.3248 587.6486 587.9987 588.38 588.8015 589.2531 589.7191 590.1755 590.6222 591.051 591.4817 591.9741 592.7422 594.0906 595.4684 596.2695 596.7422 596.9669 -9999 -9999 -9999 -9999 -9999 -9999 -9999 -9999 -9999 -9999 -9999 -9999 -9999 -9999 -9999 -9999 -9999 -9999 -9999 -9999 -9999 -9999 -9999 -9999 -9999 -9999 -9999 -9999 -9999 -9999 -9999 -9999 -9999
-9999 -9999 -9999 -9999 -9999 -9999 -9999 -9999 -9999 -9999 -9999 -9999 -9999 -9999 -9999 -9999 -9999 -9999 -9999 -9999 -9999 -9999 -9999 -9999 -9999 -9999 -9999 -9999 614.5837 612.6147 609.9859 606.4917 602.4839 598.8005 596.3623 594.4094 592.8142 591.5223 590.497 589.7146 589.1227 588.4471 587.7158 586.9527 586.2003 585.4526 584.7059 584.0084 583.4553 583.1322 582.8702 582.7063 582.5927 582.485 582.3597 582.2164 582.0601 581.9311 581.8584 581.8702 581.9429 582.0449 582.1387 582.1914 582.1898 582.1336 582.0271 581.8719 581.671 581.4363 581.1858 580.9379 580.7043 580.4889 580.2914 580.1101 579.9475 579.7961 579.6542 579.5204 579.3887 579.2524 579.1119 578.9733 578.8462 578.739 578.6553 578.5946 578.5557 578.5398 578.5524 578.6019 578.6947 578.8307 579.0052 579.2121 579.4508 579.7439 580.1221 580.6108 581.1964 581.8481 582.5114 583.1495 583.7432 584.2903 584.7736 585.1826 585.5227 585.864 586.1947 586.4768 586.7318 586.8982 587.0356 587.1575 587.2568 587.3239 587.3616 587.3867 587.4055 587.4233 587.4351 587.4621 587.5038 587.5148 587.4885 587.4286 587.3719 587.3228 587.2734 587.2123 587.1572 587.0348 586.9108 586.7733 586.6445 586.5398 586.4978 586.4873 586.4071 586.1836 585.772 585.2097 584.5352 583.8193 583.2142 582.7894 582.4859 582.2629 582.1099 582.0122 581.9493 581.9021 581.8588 581.8116 581.7599 581.704 581.6461 581.5898 581.5381 581.4894 581.4385 581.3884 581.3361 581.285 581.2334 581.1793 581.1236 581.0675 581.0095 580.9487 580.8849 580.8214 580.7587 580.6976 580.6372 580.5771 580.5197 580.4662 580.4171 580.3702 580.3229 580.2736 580.2219 580.1674 580.1102 580.0693 580.0205 579.9662 579.9097 579.8517 579.7899 579.723 579.6512 579.5753 579.4971 579.4177 579.3388 579.2616 579.1869 579.1151 579.0463 578.9817 578.9211 578.8661 578.8185 578.7797 578.751 578.7349 578.7337 578.7471 578.7742 578.8151 578.8693 578.9355 579.0107 579.0916 579.1765 579.2638 579.3533 579.4448 579.5365 579.6285 579.7195 579.8092 579.8981 579.9835 580.0573 580.1107 580.2272 580.3613 580.5029 580.6476 580.7905 580.9312 581.0718 581.2162 581.3646 581.5101 581.6533 581.7946 581.9333 582.0704 582.2098 582.347 582.484 582.6204 582.7563 582.8886 583.0204 583.1597 583.2579 583.3424 583.4254 583.5107 583.6005 583.6959 583.7965 583.9017 584.0126 584.1306 584.256 584.3882 584.5251 584.6648 584.8094 584.9645 585.1331 585.3134 585.5012 585.6896 585.8707 586.0417 586.2006 586.3453 586.5245 586.7453 586.9998 587.2874 587.6093 587.9611 588.3474 588.7787 589.256 589.7714 590.2999 590.841 591.3581 591.8419 592.2511 592.813 594.0222 595.3146 596.2347 596.9313 597.323 -9999 -9999 -9999 -9999 -9999 -9999 -9999 -9999 -9999 -9999 -9999 -9999 -9999 -9999 -9999 -9999 -9999 -9999 -9999 -9999 -9999 -9999 -9999 -9999 -9999 -9999 -9999 -9999 -9999 -9999 -9999 -9999 -9999
-9999 -9999 -9999 -9999 -9999 -9999 -9999 -9999 -9999 -9999 -9999 -9999 -9999 -9999 -9999 -9999 -9999 -9999 -9999 -9999 -9999 -9999 -9999 -9999 -9999 -9999 -9999 -9999 614.1784 612.1094 609.4578 606.1191 602.3642 598.9238 596.6409 594.5621 592.9303 591.6696 590.6963 589.9439 589.3265 588.757 588.0361 587.2189 586.3812 585.6996 584.9618 584.2576 583.6504 583.1956 582.9806 582.8206 582.6876 582.5536 582.4066 582.26 582.1227 582.0328 582.0159 582.0729 582.1799 582.3076 582.4184 582.4792 582.475 582.4014 582.2673 582.0834 581.8585 581.6031 581.3325 581.0605 580.7979 580.5497 580.3193 580.1102 579.9296 579.7677 579.6208 579.4841 579.3488 579.2079 579.0636 578.9257 578.8057 578.7123 578.6465 578.6058 578.5867 578.5896 578.6201 578.6887 578.8069 578.9796 579.204 579.4695 579.763 580.1219 580.594 581.1697 581.8213 582.4929 583.1415 583.7487 584.3228 584.8547 585.3179 585.6807 585.9149 586.197 586.4736 586.7178 586.9261 587.1407 587.3046 587.4307 587.5225 587.5811 587.6083 587.6137 587.6189 587.6191 587.6265 587.6389 587.6556 587.661 587.6285 587.5748 587.5247 587.4723 587.4082 587.3355 587.2484 587.1207 586.9882 586.8441 586.7258 586.6495 586.6255 586.6075 586.5615 586.4387 586.1815 585.74 585.1365 584.4262 583.7425 583.1849 582.7939 582.4988 582.2981 582.1718 582.0903 582.0261 581.9648 581.9008 581.8351 581.7686 581.7027 581.6396 581.5833 581.531 581.4719 581.4158 581.3617 581.3102 581.2595 581.2072 581.1532 581.0986 581.0423 580.9831 580.9196 580.8585 580.7977 580.7379 580.6794 580.6219 580.567 580.5162 580.4686 580.4216 580.3726 580.3201 580.2646 580.2076 580.153 580.1099 580.0616 580.0099 579.9576 579.906 579.8487 579.7843 579.7138 579.6389 579.5609 579.4816 579.4026 579.3248 579.2492 579.176 579.1058 579.0386 578.976 578.9177 578.8661 578.8237 578.7912 578.7701 578.7633 578.772 578.7951 578.8312 578.8802 578.9408 579.0114 579.0891 579.1707 579.2546 579.3397 579.4265 579.5145 579.6038 579.6942 579.7843 579.8729 579.9578 580.0353 580.1099 580.2137 580.3403 580.4775 580.6194 580.7591 580.8976 581.0376 581.1828 581.3348 581.48 581.6228 581.7637 581.9019 582.0383 582.1797 582.3195 582.4585 582.5978 582.7386 582.8799 583.0222 583.1598 583.2572 583.3413 583.4231 583.5078 583.5969 583.6917 583.792 583.8975 584.0092 584.1285 584.2524 584.3826 584.5187 584.6593 584.8048 584.9587 585.1249 585.3036 585.4917 585.6824 585.8668 586.0391 586.2001 586.3575 586.5288 586.7307 586.9712 587.2487 587.5695 587.9258 588.3173 588.7581 589.2574 589.8118 590.3969 591.0252 591.6749 592.299 592.6808 593.0077 594.1113 595.2795 596.2532 597.0698 -9999 -9999 -9999 -9999 -9999 -9999 -9999 -9999 -9999 -9999 -9999 -9999 -9999 -9999 -9999 -9999 -9999 -9999 -9999 -9999 -9999 -9999 -9999 -9999 -9999 -9999 -9999 -9999 -9999 -9999 -9999 -9999 -9999 -9999
-9999 -9999 -9999 -9999 -9999 -9999 -9999 -9999 -9999 -9999 -9999 -9999 -9999 -9999 -9999 -9999 -9999 -9999 -9999 -9999 -9999 -9999 -9999 -9999 -9999 -9999 -9999 -9999 -9999 611.4948 608.8027 605.5648 601.9828 598.6353 596.2167 594.3137 592.8514 591.7247 590.8512 590.1703 589.6202 589.1191 588.3962 587.5663 586.7411 586.0333 585.2375 584.5132 583.896 583.4176 583.1462 582.946 582.7901 582.639 582.476 582.3227 582.2043 582.1505 582.177 582.2729 582.4126 582.5623 582.682 582.7382 582.7267 582.6313 582.4673 582.2531 582.0026 581.7279 581.4413 581.1531 580.8704 580.5986 580.343 580.1103 579.9102 579.7343 579.5783 579.4345 579.2922 579.1456 578.9987 578.8646 578.7568 578.683 578.6409 578.6245 578.6279 578.6505 578.699 578.7864 578.9292 579.1395 579.421 579.7614 580.1132 580.5474 581.0912 581.7339 582.4399 583.1157 583.7303 584.3106 584.8634 585.3727 585.8132 586.1462 586.2368 586.4807 586.7307 586.9534 587.1473 587.3301 587.5164 587.6677 587.7734 587.8323 587.8529 587.847 587.8332 587.8282 587.8184 587.8239 587.8221 587.8115 587.7777 587.7252 587.6633 587.604 587.5212 587.4321 587.3207 587.187 587.0469 586.9202 586.8134 586.7504 586.7286 586.6962 586.6555 586.5898 586.4441 586.1713 585.6959 585.0146 584.2809 583.6169 583.1096 582.723 582.4752 582.3237 582.225 582.1469 582.0681 581.9881 581.9097 581.833 581.7598 581.6884 581.6252 581.5645 581.5046 581.4476 581.3938 581.3431 581.2933 581.2427 581.1898 581.1361 581.0809 581.023 580.9623 580.9019 580.842 580.783 580.7253 580.6701 580.6182 580.5701 580.5245 580.4782 580.4285 580.3746 580.3179 580.2609 580.2069 580.1589 580.11 580.0581 580.0082 579.9656 579.9124 579.8492 579.7789 579.7037 579.6252 579.5455 579.4659 579.3876 579.3113 579.2371 579.1655 579.0966 579.031 578.9705 578.9152 578.8686 578.8324 578.8075 578.7955 578.7988 578.8173 578.8492 578.8932 578.949 579.0145 579.088 579.1663 579.2465 579.3274 579.4093 579.4927 579.5787 579.6676 579.7581 579.8488 579.9381 580.0249 580.1101 580.2023 580.3218 580.4542 580.5947 580.7312 580.8687 581.0085 581.1531 581.3073 581.4576 581.6041 581.7476 581.8889 582.0292 582.1711 582.312 582.4519 582.5918 582.7343 582.8773 583.0211 583.1597 583.2547 583.3411 583.4247 583.5104 583.6003 583.6957 583.7966 583.9031 584.0159 584.1378 584.2587 584.3851 584.5195 584.6597 584.8053 584.9583 585.1218 585.2977 585.4839 585.6743 585.8602 586.035 586.2 586.3589 586.5241 586.715 586.9467 587.22 587.5397 587.8992 588.2963 588.7433 589.2568 589.8378 590.4558 591.1415 591.8792 592.6217 593.2607 593.6132 594.7723 595.9252 596.878 597.6308 -9999 -9999 -9999 -9999 -9999 -9999 -9999 -9999 -9999 -9999 -9999 -9999 -9999 -9999 -9999 -9999 -9999 -9999 -9999 -9999 -9999 -9999 -9999 -9999 -9999 -9999 -9999 -9999 -9999 -9999 -9999 -9999 -9999 -9999
-9999 -9999 -9999 -9999 -9999 -9999 -9999 -9999 -9999 -9999 -9999 -9999 -9999 -9999 -9999 -9999 -9999 -9999 -9999 -9999 -9999 -9999 -9999 -9999 -9999 -9999 -9999 -9999 -9999 610.8177 608.1348 604.9492 601.4676 598.1642 595.6683 593.9666 592.7303 591.7722 591.0055 590.3816 589.8463 589.3148 588.703 587.8773 586.998 586.1786 585.4189 584.7469 584.1445 583.6072 583.1921 583.0283 582.878 582.722 582.5565 582.4054 582.3037 582.2765 582.3342 582.4624 582.6319 582.8053 582.9308 582.9681 582.9509 582.83 582.6374 582.396 582.1222 581.8292 581.5286 581.2278 580.9307 580.6404 580.364 580.1102 579.8894 579.6967 579.5285 579.3744 579.2224 579.0698 578.9221 578.7959 578.7059 578.6575 578.6442 578.656 578.6846 578.7273 578.7926 578.897 579.0603 579.2999 579.6282 580.0508 580.4601 580.963 581.5613 582.2421 582.9829 583.634 584.2444 584.8109 585.344 585.814 586.1974 586.4642 586.5966 586.786 587.0059 587.2134 587.3951 587.5688 587.7343 587.8783 587.9866 588.0518 588.0753 588.066 588.043 588.0254 588.0156 587.9993 587.9896 587.9567 587.9194 587.864 587.7966 587.7233 587.6375 587.5179 587.3813 587.2388 587.1014 586.9836 586.8976 586.844 586.8138 586.769 586.7107 586.6558 586.5571 586.3807 586.1068 585.4932 584.7493 583.978 583.2879 582.891 582.626 582.4631 582.3555 582.2668 582.1713 582.0748 581.9836 581.8947 581.8141 581.7322 581.6611 581.598 581.5403 581.4861 581.4343 581.3849 581.3364 581.2866 581.2344 581.1804 581.1254 581.0688 581.0099 580.95 580.8905 580.8326 580.7765 580.7229 580.6733 580.6278 580.5844 580.5392 580.4897 580.4357 580.3789 580.3223 580.2679 580.2158 580.1631 580.1099 580.0592 580.0327 579.9812 579.9166 579.8455 579.7694 579.6899 579.6091 579.5287 579.4497 579.3728 579.2979 579.2252 579.1549 579.0872 579.0238 578.9659 578.9153 578.8748 578.8461 578.8299 578.8281 578.8415 578.8688 578.9084 578.959 579.02 579.089 579.1632 579.2398 579.3168 579.3939 579.4727 579.5546 579.6407 579.7307 579.8228 579.9163 580.0121 580.1094 580.1758 580.2933 580.4229 580.5626 580.7032 580.8446 580.9886 581.1378 581.2936 581.4482 581.5991 581.7469 581.8929 582.0381 582.1827 582.3254 582.4658 582.6041 582.7446 582.8812 583.0168 583.1597 583.2582 583.3454 583.431 583.5195 583.6115 583.7081 583.8104 583.9186 584.0342 584.1573 584.2718 584.3938 584.5256 584.6655 584.811 584.963 585.1241 585.297 585.4803 585.6687 585.8546 586.0317 586.1998 586.3588 586.5223 586.7094 586.9393 587.2114 587.5294 587.8898 588.2883 588.7374 589.2559 589.854 590.4906 591.1995 591.9703 592.7369 593.4038 594.328 595.7371 596.9058 597.7581 598.4587 -9999 -9999 -9999 -9999 -9999 -9999 -9999 -9999 -9999 -9999 -9999 -9999 -9999 -9999 -9999 -9999 -9999 -9999 -9999 -9999 -9999 -9999 -9999 -9999 -9999 -9999 -9999 -9999 -9999 -9999 -9999 -9999 -9999 -9999
