ncols         198
nrows         63
xllcorner     801250
yllcorner     5983400
cellsize      50
NODATA_value  -9999
-9999 -9999 -9999 -9999 -9999 -9999 -9999 -9999 -9999 -9999 -9999 -9999 -9999 -9999 -9999 -9999 -9999 -9999 -9999 -9999 -9999 -9999 -9999 -9999 -9999 -9999 -9999 -9999 -9999 -9999 -9999 -9999 -9999 -9999 -9999 -9999 -9999 -9999 -9999 -9999 -9999 -9999 574.8794 573.7573 572.2666 570.4621 568.2034 565.3386 562.1904 559.8215 558.8202 558.6721 558.8414 559.3002 560.5939 563.0775 566.5249 570.1484 573.6905 576.923 579.4743 580.9248 -9999 -9999 -9999 -9999 -9999 -9999 -9999 -9999 -9999 -9999 578.7756 577.2613 575.0483 572.7804 570.9026 569.6545 568.7377 567.8361 566.7751 565.9462 564.6479 562.7495 560.551 558.6316 557.0646 555.8984 555.1874 554.6295 554.1465 553.6831 553.1758 552.5083 551.2139 549.8997 549.0829 548.5925 548.2565 547.9183 547.5554 547.092 546.4794 545.6158 544.6797 543.7954 543.2151 542.6422 542.0747 541.5228 541.0081 540.5673 540.2333 540.0358 539.9275 539.8239 539.6729 539.4944 539.3571 539.3381 539.5237 539.9725 540.7398 541.9152 543.0261 543.7548 544.4181 545.0338 545.6469 546.3727 547.4398 549.0693 551.3499 554.2281 557.5229 561.3002 565.8197 571.3281 577.9774 585.4721 593.3356 601.074 608.273 614.6385 -9999 -9999 -9999 -9999 -9999 -9999 -9999 -9999 -9999 -9999 -9999 -9999 -9999 -9999 -9999 -9999 -9999 -9999 -9999 -9999 -9999 -9999 -9999 -9999 -9999 -9999 -9999 -9999 -9999 -9999 -9999 -9999 -9999 -9999 -9999 -9999 -9999 -9999 -9999 -9999 -9999 -9999 -9999 -9999 -9999 -9999 -9999 -9999 -9999 -9999 -9999 -9999 -9999 -9999
-9999 -9999 -9999 -9999 -9999 -9999 -9999 -9999 -9999 -9999 -9999 -9999 -9999 -9999 -9999 -9999 -9999 -9999 -9999 -9999 -9999 -9999 -9999 -9999 -9999 -9999 -9999 -9999 -9999 -9999 -9999 -9999 -9999 -9999 -9999 -9999 -9999 -9999 -9999 -9999 -9999 -9999 -9999 572.8059 571.6459 570.1846 568.2103 565.4677 562.3098 560.0091 558.7775 558.4702 558.7004 559.3685 560.8176 563.5443 566.9437 570.3715 573.7078 576.7974 579.2275 580.5015 -9999 -9999 -9999 -9999 -9999 -9999 -9999 -9999 -9999 579.0139 578.6835 577.0446 574.7908 572.5895 570.8665 569.9163 569.3398 568.8726 568.2331 567.4261 566.1276 564.4313 561.8312 559.3583 557.4377 556.0513 555.3313 554.7299 554.183 553.653 553.0807 552.331 551.0353 549.777 548.8516 548.2123 547.7598 547.4256 547.0759 546.6293 546.0197 545.2462 544.4178 543.6436 543.0593 542.5234 541.9982 541.4819 540.993 540.5638 540.2151 539.99 539.8831 539.826 539.7363 539.5914 539.4421 539.3579 539.4188 539.689 540.2068 541.0084 542.0956 543.1696 543.9711 544.6397 545.2917 546.0649 547.0386 548.1031 549.9908 552.5839 555.6827 559.3167 563.7135 569.0349 575.4968 582.92 590.7809 598.5688 605.8264 612.217 -9999 -9999 -9999 -9999 -9999 -9999 -9999 -9999 -9999 -9999 -9999 -9999 -9999 -9999 -9999 -9999 -9999 -9999 -9999 -9999 -9999 -9999 -9999 -9999 -9999 -9999 -9999 -9999 -9999 -9999 -9999 -9999 -9999 -9999 -9999 -9999 -9999 -9999 -9999 -9999 -9999 -9999 -9999 -9999 -9999 -9999 -9999 -9999 -9999 -9999 -9999 -9999 -9999 -9999
-9999 -9999 -9999 -9999 -9999 -9999 -9999 -9999 -9999 -9999 -9999 -9999 -9999 -9999 -9999 -9999 -9999 -9999 -9999 -9999 -9999 -9999 -9999 -9999 -9999 -9999 -9999 -9999 -9999 -9999 -9999 -9999 -9999 -9999 -9999 -9999 -9999 -9999 -9999 -9999 -9999 -9999 572.7861 572.1005 571.1059 569.8264 567.9579 565.2572 562.3047 559.9977 558.7098 558.3311 558.6022 559.4099 561.0198 563.7563 566.9697 570.073 573.0938 575.9426 578.1857 579.2714 -9999 -9999 -9999 -9999 -9999 -9999 -9999 578.342 578.9469 578.9498 578.1965 576.3624 574.0953 572.0139 570.4823 569.7006 569.2645 569.0195 568.8528 568.135 566.7452 565.2052 562.4888 559.815 557.7909 556.3311 555.6332 554.9741 554.2979 553.5884 552.8114 551.8475 550.6302 549.5289 548.5776 547.8648 547.3564 546.9978 546.6329 546.1656 545.5995 544.9409 544.2504 543.6036 543.0321 542.509 541.9991 541.4937 541.0066 540.5649 540.2305 539.9781 539.8298 539.7749 539.7322 539.6376 539.5049 539.3918 539.3661 539.4927 539.8136 540.356 541.1504 542.2833 543.3254 544.1172 544.8308 545.6325 546.5338 547.5231 548.9465 551.2573 554.2248 557.7908 562.0543 567.0388 573.1982 580.4199 588.2187 596.0384 603.3696 609.8144 -9999 -9999 -9999 -9999 -9999 -9999 -9999 -9999 -9999 -9999 -9999 -9999 -9999 -9999 -9999 -9999 -9999 -9999 -9999 -9999 -9999 -9999 -9999 -9999 -9999 -9999 -9999 -9999 -9999 -9999 -9999 -9999 -9999 -9999 -9999 -9999 -9999 -9999 -9999 -9999 -9999 -9999 -9999 -9999 -9999 -9999 -9999 -9999 -9999 -9999 -9999 -9999 -9999 -9999
-9999 -9999 -9999 -9999 -9999 -9999 -9999 -9999 -9999 -9999 -9999 -9999 -9999 -9999 -9999 -9999 -9999 -9999 -9999 -9999 -9999 -9999 -9999 -9999 -9999 -9999 -9999 -9999 -9999 -9999 -9999 -9999 -9999 -9999 -9999 -9999 -9999 -9999 -9999 -9999 -9999 -9999 572.6271 571.8885 570.763 569.3951 567.4612 564.7106 561.6509 559.6221 558.5974 558.3701 558.6927 559.6179 561.4492 564.0146 566.8661 569.524 572.1109 574.5408 576.5059 577.507 -9999 -9999 -9999 -9999 -9999 -9999 578.6309 578.9859 578.9028 578.3138 577.0344 575.1326 573.0415 571.2193 569.914 569.0739 568.4788 568.0569 567.9886 567.9917 566.9254 565.0851 562.3759 559.9124 558.1025 556.7796 555.937 555.288 554.4932 553.5815 552.5809 551.3455 550.0801 549.0793 548.215 547.514 546.9867 546.6318 546.2318 545.7881 545.2928 544.7421 544.1608 543.6021 543.0914 542.6019 542.1024 541.5892 541.0785 540.6062 540.3235 540.0305 539.8097 539.7052 539.6733 539.6241 539.5275 539.4182 539.3518 539.3871 539.5784 539.9602 540.5745 541.4858 542.5164 543.4576 544.2638 545.0897 546.001 546.9877 548.0569 550.1741 553.1086 556.5754 560.701 565.1829 570.9201 577.9158 585.6265 593.4658 600.8771 607.4062 612.7488 -9999 -9999 -9999 -9999 -9999 -9999 -9999 -9999 -9999 -9999 -9999 -9999 -9999 -9999 -9999 -9999 -9999 -9999 -9999 -9999 -9999 -9999 -9999 -9999 -9999 -9999 -9999 -9999 -9999 -9999 -9999 -9999 -9999 -9999 -9999 -9999 -9999 -9999 -9999 -9999 -9999 -9999 -9999 -9999 -9999 -9999 -9999 -9999 -9999 -9999 -9999 -9999 -9999
-9999 -9999 -9999 -9999 -9999 -9999 -9999 -9999 -9999 -9999 -9999 -9999 -9999 -9999 -9999 -9999 -9999 -9999 -9999 -9999 -9999 -9999 -9999 -9999 -9999 -9999 -9999 -9999 -9999 -9999 -9999 -9999 -9999 -9999 -9999 -9999 -9999 -9999 -9999 -9999 -9999 -9999 573.0737 572.048 570.7062 569.0562 566.8207 563.9196 560.9538 559.2078 558.5104 558.623 559.1379 560.2335 561.9005 564.1638 566.6408 569.0179 571.1472 573.068 574.6155 575.5018 -9999 -9999 -9999 -9999 576.6554 577.451 578.0508 578.2933 577.6732 576.6126 575.1078 573.3007 571.5253 570.0502 568.932 568.0237 567.1217 566.2209 565.8962 566.2043 565.4735 563.6677 561.3831 559.6337 558.2422 557.143 556.3195 555.6453 554.7488 553.5356 552.2693 550.8503 549.6611 548.7001 547.9012 547.2322 546.6898 546.3587 546.0054 545.6166 545.1892 544.7186 544.1995 543.6696 543.2578 542.8186 542.3308 541.8083 541.2915 540.8453 540.5363 540.1326 539.8168 539.6364 539.5792 539.5591 539.5048 539.4209 539.3494 539.3434 539.4529 539.7209 540.1647 540.8234 541.7463 542.6711 543.5306 544.348 545.2067 546.0422 547.1858 549.1685 552.063 555.2471 558.9932 563.2748 568.709 575.433 583.0171 590.8499 598.3415 604.9896 610.45 -9999 -9999 -9999 -9999 -9999 -9999 -9999 -9999 -9999 -9999 -9999 -9999 -9999 -9999 -9999 -9999 -9999 -9999 -9999 -9999 -9999 -9999 -9999 -9999 -9999 -9999 -9999 -9999 -9999 -9999 -9999 -9999 -9999 -9999 -9999 -9999 -9999 -9999 -9999 -9999 -9999 -9999 -9999 -9999 -9999 -9999 -9999 -9999 -9999 -9999 -9999 -9999 -9999
-9999 -9999 -9999 -9999 -9999 -9999 -9999 -9999 -9999 -9999 -9999 -9999 -9999 -9999 -9999 -9999 -9999 -9999 -9999 -9999 -9999 -9999 -9999 -9999 -9999 -9999 -9999 -9999 -9999 -9999 -9999 -9999 -9999 -9999 -9999 -9999 -9999 -9999 -9999 -9999 -9999 -9999 573.8683 572.5283 570.9427 569.02 566.5219 563.4128 560.5641 559.001 558.6043 559.1819 560.0317 561.0502 562.3672 564.3831 566.6118 568.7843 570.5144 571.9155 572.9747 573.6856 573.9932 574.0335 574.2275 574.8258 575.5115 576.1591 576.6298 576.4874 575.5399 574.2082 572.673 571.1063 569.7167 568.559 567.6205 566.6689 565.4056 564.1917 563.8142 563.7472 563.0858 561.7166 560.1424 559.0813 558.1118 557.2264 556.4244 555.6455 554.7902 553.2493 551.7289 550.262 549.2523 548.44 547.7378 547.1454 546.6732 546.4061 546.1849 545.8304 545.4055 544.9478 544.4727 544.0112 543.6114 543.1761 542.6792 542.121 541.5438 541.0139 540.5715 540.149 539.7991 539.5635 539.463 539.4509 539.4397 539.3936 539.3379 539.3247 539.3954 539.5983 539.9563 540.5056 541.1696 541.939 542.6979 543.4224 544.0522 544.9222 546.1633 548.0651 550.7797 553.8892 557.4198 561.5203 566.6428 573.0486 580.4354 588.2217 595.7919 602.6012 608.2585 -9999 -9999 -9999 -9999 -9999 -9999 -9999 -9999 -9999 -9999 -9999 -9999 -9999 -9999 -9999 -9999 -9999 -9999 -9999 -9999 -9999 -9999 -9999 -9999 -9999 -9999 -9999 -9999 -9999 -9999 -9999 -9999 -9999 -9999 -9999 -9999 -9999 -9999 -9999 -9999 -9999 -9999 -9999 -9999 -9999 -9999 -9999 -9999 -9999 -9999 -9999 -9999 -9999
-9999 -9999 -9999 -9999 -9999 -9999 -9999 -9999 -9999 -9999 -9999 -9999 -9999 -9999 -9999 -9999 -9999 -9999 -9999 -9999 -9999 -9999 -9999 -9999 -9999 -9999 -9999 -9999 -9999 -9999 -9999 -9999 -9999 -9999 -9999 -9999 -9999 -9999 -9999 -9999 -9999 575.9847 574.6612 573.0559 571.2646 569.188 566.636 563.5403 560.7507 559.1052 558.7245 559.8954 560.7316 561.6554 562.6738 564.5986 566.8074 568.8416 570.1885 571.1414 571.8282 572.2888 572.7396 573.0525 573.4621 573.8933 574.1913 574.4586 574.5094 574.0465 572.9798 571.62 570.1347 568.8098 567.73 566.8529 566.0305 565.0763 563.8525 562.6377 562 561.5529 560.8586 559.8619 558.9381 558.2142 557.542 556.8832 556.2014 555.4219 554.2867 552.7799 551.2332 549.9143 549.0455 548.3608 547.7725 547.2776 546.9009 546.6793 546.5999 546.2432 545.8012 545.339 544.884 544.4536 544.0515 543.6205 543.1161 542.509 541.8269 541.1579 540.5756 540.1306 539.7684 539.4963 539.344 539.3116 539.3315 539.3323 539.3081 539.299 539.3587 539.5149 539.7946 540.207 540.703 541.3382 541.9803 542.6051 543.216 543.9995 545.2495 547.1613 549.7736 552.8105 556.1727 560.0206 564.7506 570.7607 577.9193 585.6168 593.2435 600.2434 606.1826 610.8669 -9999 -9999 -9999 -9999 -9999 -9999 -9999 -9999 -9999 -9999 -9999 -9999 -9999 -9999 -9999 -9999 -9999 -9999 -9999 -9999 -9999 -9999 -9999 -9999 -9999 -9999 -9999 -9999 -9999 -9999 -9999 -9999 -9999 -9999 -9999 -9999 -9999 -9999 -9999 -9999 -9999 -9999 -9999 -9999 -9999 -9999 -9999 -9999 -9999 -9999 -9999 -9999
-9999 -9999 -9999 -9999 -9999 -9999 -9999 -9999 -9999 -9999 -9999 -9999 -9999 -9999 -9999 -9999 -9999 -9999 -9999 -9999 -9999 -9999 -9999 -9999 -9999 -9999 -9999 -9999 -9999 -9999 -9999 -9999 -9999 -9999 -9999 -9999 -9999 -9999 -9999 -9999 -9999 576.8986 575.3516 573.48 571.5422 569.5296 567.197 564.3682 561.6371 559.6367 558.8455 559.1485 559.9811 561.1494 562.5414 564.6485 567.0203 569.0588 570.1265 570.717 571.0155 571.17 571.5233 571.9975 572.5441 572.7664 572.6975 572.5447 572.2181 571.5519 570.5857 569.5321 568.184 566.9303 565.9396 565.2916 564.6266 563.7914 562.7264 561.617 560.687 559.9507 559.2361 558.5709 557.9398 557.3717 556.827 556.2795 555.6195 554.7155 553.5591 552.1903 550.7407 549.7324 549.0237 548.4485 547.9492 547.5461 547.2473 547.0542 546.9216 546.644 546.2372 545.7908 545.3503 544.9324 544.5299 544.1021 543.6017 542.9603 542.1621 541.3363 540.6012 540.1364 539.7588 539.4543 539.2477 539.1678 539.1864 539.2314 539.2507 539.2606 539.3104 539.4441 539.6775 540.0361 540.5058 540.9595 541.4574 542.0479 542.6989 543.4713 544.5286 546.3857 548.9031 551.882 555.1135 558.7158 563.1021 568.7187 575.5579 583.079 590.6984 597.8708 604.1342 609.2354 -9999 -9999 -9999 -9999 -9999 -9999 -9999 -9999 -9999 -9999 -9999 -9999 -9999 -9999 -9999 -9999 -9999 -9999 -9999 -9999 -9999 -9999 -9999 -9999 -9999 -9999 -9999 -9999 -9999 -9999 -9999 -9999 -9999 -9999 -9999 -9999 -9999 -9999 -9999 -9999 -9999 -9999 -9999 -9999 -9999 -9999 -9999 -9999 -9999 -9999 -9999 -9999
-9999 -9999 -9999 -9999 -9999 -9999 -9999 -9999 -9999 -9999 -9999 -9999 -9999 -9999 -9999 -9999 -9999 -9999 -9999 -9999 -9999 -9999 -9999 -9999 -9999 -9999 -9999 -9999 -9999 -9999 -9999 -9999 -9999 -9999 -9999 -9999 -9999 -9999 -9999 -9999 -9999 -9999 575.7357 573.6671 571.7345 570.0217 568.1086 565.6366 562.9584 560.7191 559.3145 558.9587 559.3722 560.6488 562.2461 564.3932 566.8198 568.8356 569.8093 570.2373 570.2856 570.1175 570.2408 570.6586 571.1548 571.264 571.0009 570.6316 570.1557 569.5356 568.824 567.876 566.7046 565.577 564.807 564.2352 563.66 562.9443 562.0005 560.8955 559.8438 559.0186 558.3848 557.8342 557.2891 556.746 556.1938 555.6272 554.8579 553.9376 552.8361 551.5218 550.2034 549.6163 549.0899 548.6184 548.1957 547.8683 547.6227 547.4303 547.2514 546.9982 546.6514 546.2404 545.8179 545.4061 545.0018 544.5662 544.0589 543.4324 542.5587 541.6215 540.7454 540.2416 539.8118 539.4551 539.1965 539.0543 539.0374 539.0933 539.1592 539.2003 539.2482 539.3516 539.5405 539.8253 540.1952 540.5634 541.0216 541.6034 542.329 543.1346 544.0132 545.6575 548.0548 550.917 554.0587 557.5008 561.6163 566.8603 573.3811 580.5941 588.1233 595.415 601.9814 607.514 -9999 -9999 -9999 -9999 -9999 -9999 -9999 -9999 -9999 -9999 -9999 -9999 -9999 -9999 -9999 -9999 -9999 -9999 -9999 -9999 -9999 -9999 -9999 -9999 -9999 -9999 -9999 -9999 -9999 -9999 -9999 -9999 -9999 -9999 -9999 -9999 -9999 -9999 -9999 -9999 -9999 -9999 -9999 -9999 -9999 -9999 -9999 -9999 -9999 -9999 -9999 -9999
-9999 -9999 -9999 -9999 -9999 -9999 -9999 -9999 -9999 -9999 -9999 -9999 -9999 -9999 -9999 -9999 -9999 -9999 -9999 -9999 -9999 -9999 -9999 -9999 -9999 -9999 -9999 -9999 -9999 -9999 -9999 -9999 -9999 -9999 -9999 -9999 -9999 -9999 -9999 -9999 -9999 -9999 575.7629 573.6401 571.8549 570.5913 569.2438 567.2021 564.6643 562.2691 560.5474 559.6815 559.8556 560.7246 561.9971 563.7789 565.967 567.9084 568.9957 569.4604 569.3875 568.911 568.8584 569.1207 569.4775 569.5402 569.2468 568.8998 568.7394 568.4828 567.7698 566.8253 565.7797 564.8658 564.1647 563.6237 563.1185 562.531 561.7356 560.5755 559.4636 558.7707 558.1569 557.6548 557.124 556.5405 555.8956 555.1829 554.3948 553.5239 552.5617 551.3185 550.084 549.4941 549.0778 548.7395 548.4525 548.2029 547.9898 547.8009 547.5964 547.3392 547.0198 546.6536 546.2561 545.8502 545.449 544.9943 544.4446 543.7586 542.9893 542.0798 541.1685 540.4929 539.9298 539.5038 539.1978 539.0052 538.9293 538.9603 539.0378 539.1136 539.1693 539.2462 539.3857 539.6041 539.8969 540.2086 540.58 541.1298 541.8453 542.5238 543.3737 544.8091 547.1086 549.9222 552.993 556.3118 560.169 564.9679 571.0083 578.0181 585.4694 592.8428 599.6613 605.5922 610.5638 -9999 -9999 -9999 -9999 -9999 -9999 -9999 -9999 -9999 -9999 -9999 -9999 -9999 -9999 -9999 -9999 -9999 -9999 -9999 -9999 -9999 -9999 -9999 -9999 -9999 -9999 -9999 -9999 -9999 -9999 -9999 -9999 -9999 -9999 -9999 -9999 -9999 -9999 -9999 -9999 -9999 -9999 -9999 -9999 -9999 -9999 -9999 -9999 -9999 -9999 -9999
-9999 -9999 -9999 -9999 -9999 -9999 -9999 -9999 -9999 -9999 -9999 -9999 -9999 -9999 -9999 -9999 -9999 -9999 -9999 -9999 -9999 -9999 -9999 -9999 -9999 -9999 -9999 -9999 -9999 -9999 -9999 -9999 -9999 -9999 -9999 -9999 -9999 -9999 -9999 -9999 -9999 -9999 575.6259 573.6246 572.0963 571.1106 570.2303 568.6216 566.3257 563.9791 562.2393 561.2785 560.963 561.2167 561.84 562.9763 564.8371 566.5963 567.7774 568.2775 567.9595 567.3094 567.2339 567.3638 567.5901 567.7474 567.7039 567.6232 567.6251 567.5309 566.993 566.1221 565.1509 564.3541 563.7316 563.2544 562.8335 562.3661 561.6959 560.5279 559.3423 558.8243 558.3604 558.0272 557.6332 557.0743 556.4296 555.6931 554.8263 553.8843 552.8633 551.734 550.6087 549.8032 549.2961 548.9794 548.7765 548.5675 548.3574 548.1602 547.9324 547.6621 547.3508 547.0112 546.6501 546.257 545.8825 545.429 544.8866 544.2529 543.5401 542.6374 541.5927 540.6536 540.0339 539.5905 539.2615 539.0351 538.9093 538.8837 538.9371 539.0136 539.0805 539.1376 539.2379 539.4061 539.6541 539.9452 540.2533 540.6584 541.2328 541.8441 542.6702 544.0151 546.1703 548.9139 551.9158 555.119 558.7444 563.1915 568.8121 575.5295 582.8502 590.2593 597.2885 603.5859 609.0168 -9999 -9999 -9999 -9999 -9999 -9999 -9999 -9999 -9999 -9999 -9999 -9999 -9999 -9999 -9999 -9999 -9999 -9999 -9999 -9999 -9999 -9999 -9999 -9999 -9999 -9999 -9999 -9999 -9999 -9999 -9999 -9999 -9999 -9999 -9999 -9999 -9999 -9999 -9999 -9999 -9999 -9999 -9999 -9999 -9999 -9999 -9999 -9999 -9999 -9999 -9999
-9999 -9999 -9999 -9999 -9999 -9999 -9999 -9999 -9999 -9999 -9999 -9999 -9999 -9999 -9999 -9999 -9999 -9999 -9999 -9999 -9999 -9999 -9999 -9999 -9999 -9999 -9999 -9999 -9999 -9999 -9999 -9999 -9999 -9999 -9999 -9999 -9999 -9999 -9999 -9999 -9999 -9999 -9999 573.665 572.2347 571.3967 570.6484 569.3909 567.3693 565.3164 563.8226 562.7898 562.112 561.8193 561.8009 562.3839 563.8317 565.3 566.3427 566.7695 566.521 565.9609 565.5932 565.5773 565.777 566.1191 566.3667 566.5125 566.6256 566.6316 566.34 565.5938 564.7613 563.9547 563.3562 562.9542 562.6434 562.3016 561.7827 560.8287 559.8225 559.1609 558.924 558.8113 558.5667 558.0172 557.3984 556.6276 555.7316 554.7397 553.6982 552.6165 551.5069 550.5348 549.7885 549.3615 549.1746 548.9568 548.7207 548.4877 548.236 547.954 547.6433 547.3168 546.9882 546.6544 546.2998 545.8433 545.3096 544.7132 544.0443 543.232 542.0963 540.9695 540.2635 539.7783 539.4214 539.1611 538.9901 538.91 538.9067 538.9514 539.002 539.0473 539.1095 539.2517 539.4718 539.7716 540.1181 540.5164 540.8571 541.2804 542.0092 543.2378 545.1401 547.7899 550.724 553.8548 557.351 561.561 566.8291 573.2086 580.3831 587.8206 595.0526 601.697 607.5408 -9999 -9999 -9999 -9999 -9999 -9999 -9999 -9999 -9999 -9999 -9999 -9999 -9999 -9999 -9999 -9999 -9999 -9999 -9999 -9999 -9999 -9999 -9999 -9999 -9999 -9999 -9999 -9999 -9999 -9999 -9999 -9999 -9999 -9999 -9999 -9999 -9999 -9999 -9999 -9999 -9999 -9999 -9999 -9999 -9999 -9999 -9999 -9999 -9999 -9999 -9999
-9999 -9999 -9999 -9999 -9999 -9999 -9999 -9999 -9999 -9999 -9999 -9999 -9999 -9999 -9999 -9999 -9999 -9999 -9999 -9999 -9999 -9999 -9999 -9999 -9999 -9999 -9999 -9999 -9999 -9999 -9999 -9999 -9999 -9999 -9999 -9999 -9999 -9999 -9999 -9999 -9999 -9999 -9999 -9999 572.5025 571.5692 570.7358 569.5322 567.8663 566.104 564.9413 563.9059 562.9793 562.0165 561.7191 562.043 563.1234 564.2762 565.1245 565.5084 565.3889 565.0252 564.7647 564.7593 564.9219 565.1133 565.4279 565.6147 565.7322 565.7638 565.5686 564.959 564.1952 563.4567 562.9209 562.621 562.4499 562.2549 561.9062 561.3138 560.6151 560.1267 559.9265 559.7993 559.5244 559.0355 558.5175 557.7318 556.8103 555.8044 554.7519 553.6689 552.5599 551.457 550.4902 549.7999 549.4756 549.3188 549.0878 548.791 548.5045 548.2109 547.8977 547.5671 547.2466 546.9362 546.6199 546.1744 545.6534 545.0716 544.4192 543.6505 542.7084 541.6533 540.7504 540.1378 539.7048 539.3929 539.1735 539.0369 538.9789 538.968 538.9772 538.9906 539.0306 539.1331 539.3379 539.6157 539.9355 540.2658 540.5495 540.8721 541.4609 542.5496 544.2799 546.7451 549.613 552.7105 556.0899 560.0817 565.0447 571.0825 578.1133 585.5748 592.9969 599.9644 606.1859 -9999 -9999 -9999 -9999 -9999 -9999 -9999 -9999 -9999 -9999 -9999 -9999 -9999 -9999 -9999 -9999 -9999 -9999 -9999 -9999 -9999 -9999 -9999 -9999 -9999 -9999 -9999 -9999 -9999 -9999 -9999 -9999 -9999 -9999 -9999 -9999 -9999 -9999 -9999 -9999 -9999 -9999 -9999 -9999 -9999 -9999 -9999 -9999 -9999 -9999 -9999
-9999 -9999 -9999 -9999 -9999 -9999 -9999 -9999 -9999 -9999 -9999 -9999 -9999 -9999 -9999 -9999 -9999 -9999 -9999 -9999 -9999 -9999 -9999 -9999 -9999 -9999 -9999 -9999 -9999 -9999 -9999 -9999 -9999 -9999 -9999 -9999 -9999 -9999 -9999 -9999 -9999 -9999 -9999 -9999 573.2133 571.83 570.5666 569.3104 568.0161 566.5936 565.2134 564.0649 562.9805 561.9832 561.6686 561.9183 562.7151 563.5909 564.259 564.6027 564.6062 564.4213 564.323 564.4137 564.6144 564.7198 564.9089 564.9644 564.9954 565.0086 564.8709 564.3241 563.6021 562.903 562.4283 562.2555 562.2474 562.2277 562.0959 561.8354 561.3993 561.1226 560.9968 560.8585 560.5275 560.0506 559.5027 558.7795 557.8853 556.8873 555.824 554.7134 553.5352 552.349 551.2355 550.3783 549.8187 549.6599 549.3333 549.0155 548.7328 548.4447 548.1334 547.783 547.4423 547.0859 546.7005 546.3802 545.9132 545.3503 544.728 544.0677 543.3917 542.4821 541.5052 540.6835 540.1172 539.7227 539.4445 539.2515 539.136 539.075 539.0314 538.9991 539.0025 539.0803 539.2514 539.4902 539.7532 540.0002 540.2378 540.5356 541.0088 541.9501 543.5436 545.8009 548.5799 551.6387 554.8979 558.7007 563.4245 569.2281 576.0682 583.4772 591.0239 598.2664 604.8423 610.5422 -9999 -9999 -9999 -9999 -9999 -9999 -9999 -9999 -9999 -9999 -9999 -9999 -9999 -9999 -9999 -9999 -9999 -9999 -9999 -9999 -9999 -9999 -9999 -9999 -9999 -9999 -9999 -9999 -9999 -9999 -9999 -9999 -9999 -9999 -9999 -9999 -9999 -9999 -9999 -9999 -9999 -9999 -9999 -9999 -9999 -9999 -9999 -9999 -9999 -9999
-9999 -9999 -9999 -9999 -9999 -9999 -9999 -9999 -9999 -9999 -9999 -9999 -9999 -9999 -9999 -9999 -9999 -9999 -9999 -9999 -9999 -9999 -9999 -9999 -9999 -9999 -9999 -9999 -9999 -9999 -9999 -9999 -9999 -9999 -9999 -9999 -9999 -9999 -9999 -9999 -9999 -9999 -9999 -9999 574.3576 572.4182 570.7117 569.3862 568.2813 567.0137 565.3518 564.0344 562.903 561.9881 561.7137 561.9111 562.5166 563.1858 563.7059 564.0068 564.0914 564.0276 564.0255 564.1584 564.2923 564.3806 564.47 564.4983 564.5096 564.4872 564.2647 563.7496 563.0599 562.3734 561.9401 561.9025 562.0547 562.1679 562.1663 562.0781 561.9124 561.8724 561.8616 561.7647 561.3792 560.896 560.3494 559.6797 558.8478 557.8722 556.7914 555.632 554.326 552.9313 551.8468 550.9799 550.2965 549.7892 549.4736 549.1992 548.9471 548.6827 548.3768 548.0272 547.6633 547.2899 546.9276 546.6182 546.149 545.5883 544.975 544.3713 543.8806 543.2409 542.2863 541.3752 540.6396 540.134 539.7805 539.5246 539.3538 539.2457 539.1619 539.0833 539.0437 539.0929 539.2347 539.4352 539.6233 539.7786 539.9202 540.1337 540.5458 541.3652 542.8276 544.9246 547.6577 550.6298 553.8233 557.5297 562.0706 567.6252 574.161 581.3937 588.9727 596.4224 603.3209 609.3785 -9999 -9999 -9999 -9999 -9999 -9999 -9999 -9999 -9999 -9999 -9999 -9999 -9999 -9999 -9999 -9999 -9999 -9999 -9999 -9999 -9999 -9999 -9999 -9999 -9999 -9999 -9999 -9999 -9999 -9999 -9999 -9999 -9999 -9999 -9999 -9999 -9999 -9999 -9999 -9999 -9999 -9999 -9999 -9999 -9999 -9999 -9999 -9999 -9999 -9999
-9999 -9999 -9999 -9999 -9999 -9999 -9999 -9999 -9999 -9999 -9999 -9999 -9999 -9999 -9999 -9999 -9999 -9999 -9999 -9999 -9999 -9999 -9999 -9999 -9999 -9999 -9999 -9999 -9999 -9999 -9999 -9999 -9999 -9999 -9999 -9999 -9999 -9999 -9999 -9999 -9999 -9999 -9999 -9999 576.0765 573.7173 571.5457 569.9459 568.679 567.2563 565.4357 564.043 562.9634 562.1927 561.8992 562.02 562.4581 562.9712 563.3703 563.6184 563.7287 563.74 563.7548 563.8629 563.9668 564.037 564.0853 564.0969 564.0835 564.0152 563.7818 563.3064 562.6598 561.9859 561.6284 561.6275 561.8812 562.0669 562.1145 562.1537 562.1714 562.2291 562.2652 562.1866 561.9001 561.4963 561.0219 560.4426 559.6622 558.6901 557.5625 556.3187 554.9396 553.3179 552.3246 551.5169 550.8112 550.1619 549.7226 549.4401 549.1952 548.9459 548.6508 548.2985 547.9099 547.5036 547.096 546.698 546.3374 545.8282 545.2562 544.7495 544.2753 543.6764 542.9098 542.0393 541.2356 540.5992 540.1553 539.8204 539.595 539.4508 539.3372 539.2317 539.1589 539.1727 539.2952 539.4585 539.5923 539.6531 539.6846 539.7878 540.1018 540.8171 542.2255 544.2706 546.9042 549.7937 552.9108 556.5112 560.8762 566.1447 572.1729 579.1666 586.6941 594.2794 601.4664 607.9017 -9999 -9999 -9999 -9999 -9999 -9999 -9999 -9999 -9999 -9999 -9999 -9999 -9999 -9999 -9999 -9999 -9999 -9999 -9999 -9999 -9999 -9999 -9999 -9999 -9999 -9999 -9999 -9999 -9999 -9999 -9999 -9999 -9999 -9999 -9999 -9999 -9999 -9999 -9999 -9999 -9999 -9999 -9999 -9999 -9999 -9999 -9999 -9999 -9999 -9999
-9999 -9999 -9999 -9999 -9999 -9999 -9999 -9999 -9999 -9999 -9999 -9999 -9999 -9999 -9999 -9999 -9999 -9999 -9999 -9999 -9999 -9999 -9999 -9999 -9999 -9999 -9999 -9999 -9999 -9999 -9999 -9999 -9999 -9999 -9999 -9999 -9999 -9999 -9999 -9999 -9999 -9999 -9999 -9999 578.0331 575.3964 572.7444 570.5947 568.9431 567.3328 565.4573 564.0793 563.0818 562.4081 562.0976 562.1407 562.4474 562.843 563.1547 563.3393 563.4377 563.4745 563.4935 563.5729 563.642 563.6917 563.7169 563.7129 563.6807 563.599 563.4047 562.9998 562.4691 561.8765 561.3464 561.278 561.5394 561.8518 561.9126 562.0698 562.2037 562.3312 562.4113 562.3842 562.2048 561.9073 561.5452 561.1111 560.3615 559.2992 558.1309 556.7518 555.2096 553.4888 552.6073 551.8108 551.045 550.4118 549.9774 549.705 549.4679 549.2245 548.9396 548.5892 548.1843 547.7536 547.3245 546.9352 546.6033 546.1173 545.6121 545.1335 544.6514 544.1006 543.4468 542.623 541.7881 541.057 540.5123 540.0967 539.8248 539.6553 539.5318 539.4155 539.3267 539.3249 539.4211 539.5643 539.6513 539.6434 539.5783 539.5785 539.8143 540.4872 541.7823 543.8101 546.3329 549.0651 552.0167 555.4653 559.6359 564.6277 570.1376 576.7752 584.1552 591.8054 599.2425 606.0531 611.9354 -9999 -9999 -9999 -9999 -9999 -9999 -9999 -9999 -9999 -9999 -9999 -9999 -9999 -9999 -9999 -9999 -9999 -9999 -9999 -9999 -9999 -9999 -9999 -9999 -9999 -9999 -9999 -9999 -9999 -9999 -9999 -9999 -9999 -9999 -9999 -9999 -9999 -9999 -9999 -9999 -9999 -9999 -9999 -9999 -9999 -9999 -9999 -9999 -9999
-9999 -9999 -9999 -9999 -9999 -9999 -9999 -9999 -9999 -9999 -9999 -9999 -9999 -9999 -9999 -9999 -9999 -9999 -9999 -9999 -9999 -9999 -9999 -9999 -9999 -9999 -9999 -9999 -9999 -9999 -9999 -9999 -9999 -9999 -9999 -9999 -9999 -9999 -9999 -9999 -9999 -9999 -9999 -9999 579.8345 577.0303 573.9377 571.202 569.0636 567.2604 565.3952 564.085 563.1804 562.5808 562.262 562.2334 562.4346 562.7243 562.9661 563.0936 563.1582 563.196 563.218 563.2725 563.3192 563.3454 563.3475 563.3253 563.2744 563.1803 563.0093 562.7241 562.3525 561.8641 561.2308 560.9127 561.0828 561.3967 561.6367 561.8952 562.0942 562.2844 562.423 562.4746 562.412 562.2427 561.9891 561.7755 561.0977 560.0125 558.6506 557.0362 555.2839 553.4404 552.4067 551.6332 550.9728 550.4501 550.0939 549.8741 549.7058 549.4896 549.2184 548.8755 548.4675 548.0248 547.5634 547.129 546.7073 546.3481 545.9396 545.4807 544.9799 544.4077 543.7444 543.0571 542.2292 541.3968 540.6834 540.298 540.0182 539.842 539.7197 539.6103 539.5247 539.5159 539.6096 539.7342 539.7906 539.7251 539.5807 539.4817 539.6094 540.1644 541.338 543.3861 545.7538 548.2729 551.0435 554.2996 558.1226 562.6275 567.8862 574.2365 581.4392 589.0928 596.7244 603.8732 610.1732 -9999 -9999 -9999 -9999 -9999 -9999 -9999 -9999 -9999 -9999 -9999 -9999 -9999 -9999 -9999 -9999 -9999 -9999 -9999 -9999 -9999 -9999 -9999 -9999 -9999 -9999 -9999 -9999 -9999 -9999 -9999 -9999 -9999 -9999 -9999 -9999 -9999 -9999 -9999 -9999 -9999 -9999 -9999 -9999 -9999 -9999 -9999 -9999 -9999
-9999 -9999 -9999 -9999 -9999 -9999 -9999 -9999 -9999 -9999 -9999 -9999 -9999 -9999 -9999 -9999 -9999 -9999 -9999 -9999 -9999 -9999 -9999 -9999 -9999 -9999 -9999 -9999 -9999 -9999 -9999 -9999 -9999 -9999 -9999 -9999 -9999 -9999 -9999 -9999 -9999 -9999 -9999 582.513 580.8318 577.9524 574.5768 571.4161 568.877 566.9477 565.2044 564.0039 563.1923 562.6547 562.3434 562.2678 562.3798 562.567 562.7317 562.8127 562.848 562.8995 562.9409 562.9972 563.0271 563.0203 562.9849 562.9377 562.8672 562.7607 562.6182 562.4006 562.1691 561.7518 561.0354 560.5677 560.6388 560.9393 561.29 561.6426 561.9182 562.178 562.3799 562.5204 562.5891 562.587 562.5145 562.3435 561.7706 560.6426 559.0308 557.2109 555.285 553.3372 552.1436 551.3408 550.7546 550.3397 550.0775 549.9332 549.8359 549.707 549.4797 549.1545 548.7531 548.3248 547.8546 547.4302 547.0246 546.6632 546.2799 545.807 545.28 544.7084 544.0999 543.4716 542.6016 541.7329 540.9978 540.5352 540.1914 540.0021 539.8936 539.8018 539.727 539.7248 539.8196 539.9466 539.986 539.8773 539.6629 539.4697 539.4824 539.9101 540.9675 542.8931 545.0189 547.4244 550.079 553.0992 556.6043 560.7502 565.7183 571.7615 578.7266 586.3038 594.0419 601.4539 608.1218 -9999 -9999 -9999 -9999 -9999 -9999 -9999 -9999 -9999 -9999 -9999 -9999 -9999 -9999 -9999 -9999 -9999 -9999 -9999 -9999 -9999 -9999 -9999 -9999 -9999 -9999 -9999 -9999 -9999 -9999 -9999 -9999 -9999 -9999 -9999 -9999 -9999 -9999 -9999 -9999 -9999 -9999 -9999 -9999 -9999 -9999 -9999 -9999 -9999
-9999 -9999 -9999 -9999 -9999 -9999 -9999 -9999 -9999 -9999 -9999 -9999 -9999 -9999 -9999 -9999 -9999 -9999 -9999 -9999 -9999 -9999 -9999 -9999 -9999 -9999 -9999 -9999 -9999 -9999 -9999 -9999 -9999 -9999 -9999 -9999 -9999 -9999 -9999 -9999 -9999 581.2636 582.1235 581.9871 580.4095 577.6068 574.2369 570.9766 568.2774 566.2723 564.8549 563.8195 563.0846 562.5758 562.2618 562.1807 562.224 562.3148 562.3898 562.4294 562.4611 562.5592 562.6282 562.6868 562.7318 562.7134 562.6371 562.5669 562.4771 562.339 562.2112 561.9603 561.789 561.2826 560.6339 560.1877 560.2166 560.5084 560.9359 561.4163 561.8601 562.0947 562.3314 562.5461 562.726 562.8632 562.924 562.8056 562.2888 561.1995 559.3654 557.3538 555.2807 553.2469 551.9237 551.0664 550.5063 550.1637 549.983 549.9143 549.8919 549.8428 549.7057 549.4299 549.0493 548.6628 548.2355 547.8107 547.3955 546.9998 546.6009 546.0859 545.5172 544.9059 544.2781 543.6124 542.7859 541.9283 541.1626 540.5829 540.2592 540.1144 540.0488 539.9879 539.9299 539.9259 540.0226 540.1575 540.2007 540.0702 539.8018 539.5208 539.4091 539.6652 540.4695 541.9488 544.0942 546.5435 549.1359 551.9641 555.239 559.1251 563.7894 569.5005 576.2246 583.6427 591.3762 598.9456 605.8931 611.8719 -9999 -9999 -9999 -9999 -9999 -9999 -9999 -9999 -9999 -9999 -9999 -9999 -9999 -9999 -9999 -9999 -9999 -9999 -9999 -9999 -9999 -9999 -9999 -9999 -9999 -9999 -9999 -9999 -9999 -9999 -9999 -9999 -9999 -9999 -9999 -9999 -9999 -9999 -9999 -9999 -9999 -9999 -9999 -9999 -9999 -9999 -9999 -9999
-9999 -9999 -9999 -9999 -9999 -9999 -9999 -9999 -9999 -9999 -9999 -9999 -9999 -9999 -9999 -9999 -9999 -9999 -9999 -9999 -9999 -9999 -9999 -9999 -9999 -9999 -9999 -9999 -9999 -9999 -9999 -9999 -9999 -9999 -9999 -9999 -9999 -9999 -9999 -9999 579.7166 580.1669 580.4473 580.0375 578.5004 575.9313 572.899 569.9162 567.4204 565.7843 564.5321 563.5703 562.8467 562.3099 561.9379 561.8649 561.8615 561.8698 561.8802 561.8971 561.9608 562.1801 562.2766 562.3357 562.424 562.4102 562.2822 562.2162 562.1317 561.9367 561.8506 561.5325 561.1799 560.6617 560.1143 559.7697 559.7918 560.0657 560.5315 561.0856 561.5948 561.9262 562.2661 562.5533 562.8151 563.0505 563.2067 563.1465 562.6672 561.5778 559.7011 557.5233 555.3156 553.2019 551.7782 550.8593 550.2941 549.985 549.8662 549.8625 549.9072 549.9318 549.8772 549.7039 549.3987 549.0435 548.6465 548.2195 547.7661 547.2825 546.7532 546.2921 545.671 544.9791 544.2916 543.6156 542.8113 541.9905 541.2269 540.5914 540.2969 540.2064 540.1985 540.1823 540.1372 540.1189 540.1946 540.3312 540.3907 540.264 539.9679 539.6228 539.4047 539.5055 540.1 541.3356 543.4206 545.7845 548.2357 550.9517 554.1157 557.8295 562.2792 567.6994 574.1349 581.3098 588.9271 596.5402 603.6719 609.9449 -9999 -9999 -9999 -9999 -9999 -9999 -9999 -9999 -9999 -9999 -9999 -9999 -9999 -9999 -9999 -9999 -9999 -9999 -9999 -9999 -9999 -9999 -9999 -9999 -9999 -9999 -9999 -9999 -9999 -9999 -9999 -9999 -9999 -9999 -9999 -9999 -9999 -9999 -9999 -9999 -9999 -9999 -9999 -9999 -9999 -9999 -9999 -9999
-9999 -9999 -9999 -9999 -9999 -9999 -9999 -9999 -9999 -9999 -9999 -9999 -9999 -9999 -9999 -9999 -9999 -9999 -9999 -9999 -9999 -9999 -9999 -9999 -9999 -9999 -9999 -9999 -9999 -9999 -9999 -9999 -9999 -9999 -9999 -9999 -9999 -9999 -9999 579.2495 578.9826 578.6259 578.1511 577.2712 575.7142 573.5042 570.9904 568.5909 566.6783 565.3436 564.1462 563.1929 562.4332 561.8271 561.358 561.1538 561.0842 561.0692 561.0972 561.1997 561.4272 561.7716 561.8862 561.9413 562.1302 562.1336 561.9288 561.9026 561.876 561.6469 561.4034 561.0175 560.5518 560.0141 559.5383 559.3097 559.3316 559.562 560.0604 560.7053 561.3578 561.8918 562.2505 562.5486 562.8522 563.1555 563.3861 563.3942 562.9807 561.9602 560.2087 557.8151 555.4572 553.2444 551.7325 550.7456 550.149 549.8519 549.7683 549.8162 549.9158 549.9998 550.0137 549.9199 549.7073 549.4045 549.0461 548.6337 548.16 547.6419 547.0941 546.5536 545.7637 544.926 544.1399 543.4854 542.6901 541.9213 541.2259 540.5963 540.3445 540.3031 540.3506 540.385 540.358 540.3026 540.3328 540.4475 540.5213 540.4201 540.1277 539.7529 539.4677 539.4651 539.9282 541.0275 542.9744 545.127 547.4719 550.1915 553.3201 556.9127 561.1802 566.3499 572.5031 579.3987 586.8359 594.4142 601.6635 608.1849 -9999 -9999 -9999 -9999 -9999 -9999 -9999 -9999 -9999 -9999 -9999 -9999 -9999 -9999 -9999 -9999 -9999 -9999 -9999 -9999 -9999 -9999 -9999 -9999 -9999 -9999 -9999 -9999 -9999 -9999 -9999 -9999 -9999 -9999 -9999 -9999 -9999 -9999 -9999 -9999 -9999 -9999 -9999 -9999 -9999 -9999 -9999 -9999
-9999 -9999 -9999 -9999 -9999 -9999 -9999 -9999 -9999 -9999 -9999 -9999 -9999 -9999 -9999 -9999 -9999 -9999 -9999 -9999 -9999 -9999 -9999 -9999 -9999 -9999 -9999 -9999 -9999 -9999 -9999 -9999 -9999 -9999 -9999 -9999 -9999 -9999 579.7729 579.0018 577.9705 576.8028 575.5963 574.2625 572.7161 570.9042 569.0108 567.1934 565.6763 564.4976 563.4661 562.5564 561.7365 560.9908 560.4181 560.1311 560.0308 560.026 560.0861 560.2617 560.6094 561.0048 561.3102 561.5775 561.8599 561.8815 561.7032 561.6011 561.5014 561.2762 560.9576 560.5139 559.9803 559.4086 558.9407 558.8032 558.793 558.9318 559.4692 560.2123 561.0223 561.7623 562.1597 562.4699 562.8121 563.1749 563.4743 563.5596 563.2473 562.3669 560.7936 558.3904 555.8 553.4336 551.8192 550.743 550.0835 549.7781 549.7198 549.7993 549.9374 550.0643 550.1294 550.0994 549.9574 549.7141 549.4059 549.0249 548.5344 547.9636 547.332 546.6318 545.7312 544.7596 543.8155 543.1196 542.3856 541.6722 541.0501 540.5799 540.3981 540.4019 540.4885 540.5691 540.5671 540.4669 540.4358 540.5082 540.5814 540.5115 540.2478 539.876 539.5621 539.5 539.8771 540.8627 542.6276 544.5917 546.8561 549.5663 552.6818 556.1767 560.3168 565.3118 571.248 577.9233 585.1953 592.7211 600.0461 606.754 -9999 -9999 -9999 -9999 -9999 -9999 -9999 -9999 -9999 -9999 -9999 -9999 -9999 -9999 -9999 -9999 -9999 -9999 -9999 -9999 -9999 -9999 -9999 -9999 -9999 -9999 -9999 -9999 -9999 -9999 -9999 -9999 -9999 -9999 -9999 -9999 -9999 -9999 -9999 -9999 -9999 -9999 -9999 -9999 -9999 -9999 -9999 -9999
-9999 -9999 -9999 -9999 -9999 -9999 -9999 -9999 -9999 -9999 -9999 -9999 -9999 -9999 -9999 -9999 -9999 -9999 -9999 -9999 -9999 -9999 -9999 -9999 -9999 -9999 -9999 -9999 -9999 -9999 -9999 -9999 -9999 -9999 -9999 580.7242 580.9781 580.85 579.9745 578.5196 576.7324 574.856 573.0336 571.3925 569.9825 568.5493 567.1033 565.7148 564.4833 563.4465 562.5475 561.6386 560.6849 559.8577 559.1816 558.8629 558.7716 558.8187 558.9319 559.1625 559.6343 560.0978 560.5708 560.9978 561.3159 561.4006 561.3127 561.209 561.0876 560.8756 560.5435 560.0845 559.532 558.944 558.4585 558.1617 558.0474 558.1518 558.7138 559.5211 560.421 561.2563 561.8555 562.2634 562.6803 563.1046 563.4596 563.613 563.3995 562.6543 561.222 558.9016 556.2591 553.7872 552.0707 550.8598 550.0824 549.7549 549.7177 549.8116 549.9706 550.1206 550.2191 550.2423 550.166 549.9861 549.718 549.3739 548.8707 548.2281 547.4851 546.6475 545.6938 544.664 543.6686 542.8553 542.0896 541.3903 540.8427 540.5646 540.446 540.4741 540.5694 540.6417 540.6461 540.5697 540.5062 540.5283 540.5834 540.5368 540.3086 539.9567 539.6372 539.538 539.8405 540.6899 542.18 544.0241 546.1595 548.8137 551.9384 555.3641 559.4785 564.4293 570.2824 576.8517 584.0425 591.5558 598.9463 605.7695 -9999 -9999 -9999 -9999 -9999 -9999 -9999 -9999 -9999 -9999 -9999 -9999 -9999 -9999 -9999 -9999 -9999 -9999 -9999 -9999 -9999 -9999 -9999 -9999 -9999 -9999 -9999 -9999 -9999 -9999 -9999 -9999 -9999 -9999 -9999 -9999 -9999 -9999 -9999 -9999 -9999 -9999 -9999 -9999 -9999 -9999 -9999 -9999
-9999 -9999 -9999 -9999 -9999 -9999 -9999 -9999 -9999 -9999 -9999 -9999 -9999 -9999 -9999 -9999 -9999 -9999 -9999 -9999 -9999 -9999 -9999 -9999 -9999 -9999 -9999 -9999 -9999 -9999 -9999 -9999 578.956 579.4996 580.0648 580.8239 581.0569 580.6858 579.5283 577.5612 575.2014 572.7798 570.5405 568.8755 567.5787 566.4233 565.307 564.2287 563.1989 562.2557 561.4477 560.4498 559.3997 558.5604 557.8339 557.431 557.3232 557.4908 557.7567 558.1251 558.6456 559.1245 559.7489 560.3099 560.6826 560.8169 560.7917 560.7246 560.6352 560.4728 560.1741 559.7445 559.2297 558.7217 558.0673 557.5411 557.2592 557.1753 557.7106 558.6263 559.6268 560.5876 561.3767 561.9616 562.4858 562.9519 563.326 563.5151 563.3845 562.7769 561.5179 559.405 556.8953 554.366 552.522 551.1003 550.099 549.7469 549.7338 549.8133 549.9806 550.1312 550.2426 550.3165 550.3085 550.1949 549.9788 549.6661 549.1473 548.4602 547.6166 546.669 545.6834 544.65 543.6234 542.7086 541.8763 541.1479 540.6062 540.4512 540.439 540.5057 540.5709 540.6649 540.6919 540.6415 540.5699 540.54 540.5582 540.5168 540.3112 539.9767 539.6541 539.5229 539.753 540.4755 541.7175 543.4653 545.2512 547.7541 550.8301 554.3666 558.5635 563.6068 569.534 576.1249 583.3566 590.937 598.3987 605.2587 -9999 -9999 -9999 -9999 -9999 -9999 -9999 -9999 -9999 -9999 -9999 -9999 -9999 -9999 -9999 -9999 -9999 -9999 -9999 -9999 -9999 -9999 -9999 -9999 -9999 -9999 -9999 -9999 -9999 -9999 -9999 -9999 -9999 -9999 -9999 -9999 -9999 -9999 -9999 -9999 -9999 -9999 -9999 -9999 -9999 -9999 -9999 -9999
-9999 -9999 -9999 -9999 -9999 -9999 -9999 -9999 -9999 -9999 -9999 -9999 -9999 -9999 -9999 -9999 -9999 -9999 -9999 -9999 -9999 -9999 -9999 -9999 -9999 -9999 -9999 -9999 -9999 576.4469 576.7554 577.2833 577.9133 578.5801 579.1991 579.8406 580.0743 579.4911 578.0403 575.8306 573.2191 570.5792 568.2542 566.6666 565.4857 564.5305 563.6489 562.8037 561.92 561.0644 560.2041 559.1843 558.0811 557.0815 556.2716 555.8169 555.7225 556.0238 556.4087 556.8734 557.4771 558.1529 558.9188 559.6116 560.0302 560.1783 560.1842 560.1718 560.156 560.0758 559.8488 559.4619 558.926 558.3719 557.6765 557.0327 556.5858 556.1943 556.6694 557.5958 558.722 559.8479 560.8764 561.7258 562.2719 562.7155 563.0485 563.2256 563.1598 562.7087 561.6769 559.8503 557.5961 555.1497 553.1526 551.4596 550.0795 549.704 549.7008 549.7149 549.8953 550.0204 550.122 550.2622 550.3384 550.2964 550.1087 549.7598 549.3569 548.6794 547.7711 546.7393 545.7546 544.6956 543.6274 542.6454 541.7646 541.035 540.5746 540.4244 540.4543 540.5692 540.6411 540.7089 540.734 540.7016 540.6349 540.5702 540.5442 540.4917 540.2739 539.933 539.599 539.4288 539.5651 540.104 541.0883 542.6739 544.4266 546.844 549.8607 553.4563 557.7184 562.8597 568.9431 575.6529 583.043 590.7759 598.3342 605.1848 611.0261 -9999 -9999 -9999 -9999 -9999 -9999 -9999 -9999 -9999 -9999 -9999 -9999 -9999 -9999 -9999 -9999 -9999 -9999 -9999 -9999 -9999 -9999 -9999 -9999 -9999 -9999 -9999 -9999 -9999 -9999 -9999 -9999 -9999 -9999 -9999 -9999 -9999 -9999 -9999 -9999 -9999 -9999 -9999 -9999 -9999 -9999 -9999
-9999 -9999 -9999 -9999 -9999 -9999 -9999 -9999 -9999 -9999 -9999 -9999 -9999 -9999 -9999 -9999 -9999 -9999 -9999 -9999 -9999 -9999 -9999 -9999 -9999 -9999 -9999 -9999 574.6699 574.9012 575.0526 575.5362 576.1377 576.7221 577.2653 577.6856 577.7492 577.0374 575.5287 573.3416 570.8552 568.448 566.3815 564.8418 563.7141 562.8826 562.1326 561.4565 560.6417 559.8561 558.9758 557.9594 556.6711 555.449 554.4938 554.0002 553.9526 554.3085 554.7126 555.2388 556.0158 556.975 558.0321 558.9313 559.3754 559.4904 559.5091 559.5777 559.6763 559.7183 559.5999 559.3157 558.8474 558.1818 557.3831 556.593 555.9664 555.8934 555.9665 556.6868 557.7934 559.0464 560.2438 561.2175 561.8849 562.3335 562.5828 562.7064 562.6879 562.4145 561.6514 560.1315 558.1385 555.9008 553.802 551.9106 550.2022 549.5498 549.3828 549.404 549.5985 549.6597 549.743 550.0049 550.2072 550.2932 550.2313 550.0057 549.643 548.9565 547.9896 546.8905 545.9231 544.7999 543.6602 542.621 541.6908 540.9274 540.5529 540.3865 540.4314 540.5709 540.6784 540.7316 540.7473 540.7318 540.6979 540.6416 540.571 540.5035 540.2211 539.8375 539.4861 539.2962 539.3835 539.8322 540.7 542.1001 543.8406 546.1471 549.0667 552.6828 556.937 562.0898 568.2617 575.3044 582.9977 590.9507 598.6252 605.4501 611.1193 -9999 -9999 -9999 -9999 -9999 -9999 -9999 -9999 -9999 -9999 -9999 -9999 -9999 -9999 -9999 -9999 -9999 -9999 -9999 -9999 -9999 -9999 -9999 -9999 -9999 -9999 -9999 -9999 -9999 -9999 -9999 -9999 -9999 -9999 -9999 -9999 -9999 -9999 -9999 -9999 -9999 -9999 -9999 -9999 -9999 -9999 -9999
-9999 -9999 -9999 -9999 -9999 -9999 -9999 -9999 -9999 -9999 -9999 -9999 -9999 -9999 -9999 -9999 -9999 -9999 -9999 -9999 -9999 -9999 -9999 -9999 -9999 -9999 -9999 572.9618 573.2524 573.1667 573.1498 573.4614 573.8234 574.1496 574.4537 574.6523 574.5647 573.7963 572.367 570.4276 568.3834 566.3688 564.6367 563.2575 562.2007 561.479 560.7903 560.1118 559.3467 558.643 557.6929 556.5052 555.0735 553.6163 552.532 551.8832 551.7453 551.9605 552.3112 552.9476 554.0723 555.4219 556.9438 558.2683 558.699 558.7417 558.7863 558.9917 559.2337 559.3961 559.399 559.224 558.8329 558.1046 557.2523 556.4366 555.819 555.6187 555.5549 555.9559 556.9426 558.2897 559.5649 560.6145 561.3466 561.7963 561.9138 561.9499 561.9626 561.8727 561.384 560.2578 558.579 556.4955 554.1156 551.836 550.2677 549.4113 548.9946 548.8134 548.7917 548.8198 549.0117 549.4494 549.8191 550.0934 550.2202 550.1328 549.7839 549.2257 548.2369 547.1028 546.1117 544.8651 543.6672 542.5783 541.5933 540.7013 540.335 540.2302 540.3381 540.5627 540.6793 540.7019 540.7004 540.6965 540.7217 540.713 540.6564 540.5452 540.1352 539.6951 539.3381 539.162 539.2577 539.7012 540.5476 541.8267 543.5059 545.6736 548.5013 552.1223 556.3129 561.5107 567.8672 575.2469 583.2483 591.4053 599.151 605.9153 611.3922 -9999 -9999 -9999 -9999 -9999 -9999 -9999 -9999 -9999 -9999 -9999 -9999 -9999 -9999 -9999 -9999 -9999 -9999 -9999 -9999 -9999 -9999 -9999 -9999 -9999 -9999 -9999 -9999 -9999 -9999 -9999 -9999 -9999 -9999 -9999 -9999 -9999 -9999 -9999 -9999 -9999 -9999 -9999 -9999 -9999 -9999 -9999
-9999 -9999 -9999 -9999 -9999 -9999 -9999 -9999 -9999 -9999 -9999 -9999 -9999 -9999 -9999 -9999 -9999 -9999 -9999 -9999 -9999 -9999 -9999 -9999 -9999 -9999 -9999 571.8082 571.8174 571.5073 571.3618 571.3892 571.3628 571.3419 571.3511 571.3716 571.2687 570.4875 569.1498 567.4891 565.8894 564.3428 563.0121 561.8666 560.9157 560.2016 559.615 558.9696 558.2732 557.4839 556.4238 555.049 553.4217 551.8906 550.6406 549.8243 549.6752 549.6378 549.7621 550.3455 551.6264 553.3772 555.4388 557.2488 557.8858 557.9698 558.1429 558.5577 558.9298 559.163 559.2231 559.0995 558.764 558.0227 557.1895 556.4121 555.8047 555.4706 555.274 555.4027 556.1124 557.3822 558.8064 559.9307 560.6586 561.0098 561.0569 561.0512 561.0841 561.1187 560.9811 560.3005 558.9917 557.1777 554.9129 552.395 550.6161 549.4652 548.7141 548.2025 547.8771 547.7437 547.8912 548.3429 549.0103 549.5828 550.0006 550.1744 550.0322 549.5221 548.3676 547.0216 545.8768 544.678 543.556 542.4399 541.4277 540.5908 540.1609 540.0341 540.1357 540.3604 540.5572 540.5689 540.5681 540.572 540.668 540.6835 540.5651 540.3126 539.9105 539.5005 539.1868 539.0601 539.2001 539.6718 540.5214 541.7457 543.3389 545.3804 548.1993 551.9187 555.9911 561.2855 567.8727 575.5561 583.8069 592.094 599.8307 606.4612 611.6881 -9999 -9999 -9999 -9999 -9999 -9999 -9999 -9999 -9999 -9999 -9999 -9999 -9999 -9999 -9999 -9999 -9999 -9999 -9999 -9999 -9999 -9999 -9999 -9999 -9999 -9999 -9999 -9999 -9999 -9999 -9999 -9999 -9999 -9999 -9999 -9999 -9999 -9999 -9999 -9999 -9999 -9999 -9999 -9999 -9999 -9999 -9999
-9999 -9999 -9999 -9999 -9999 -9999 -9999 -9999 -9999 -9999 -9999 -9999 -9999 -9999 -9999 -9999 -9999 -9999 -9999 -9999 -9999 -9999 -9999 -9999 -9999 -9999 570.2117 570.6458 570.5364 570.2082 569.9348 569.5695 569.0485 568.6574 568.3965 568.3556 568.2933 567.5227 566.3514 565.0686 563.7864 562.5894 561.6348 560.6902 559.8365 559.1461 558.6754 558.0455 557.3172 556.4192 555.2181 553.6338 551.9849 550.4083 549.0754 548.2528 548.7873 548.4612 547.907 548.1762 549.4009 551.3142 553.6779 555.913 557.1225 557.4962 558.1106 558.5842 558.887 559.0387 559.0417 558.853 558.4573 557.8293 557.1178 556.4368 555.8553 555.4885 555.1005 554.9622 555.4692 556.538 558.0639 559.2317 559.9336 560.1652 560.0781 560.0049 560.0232 560.1145 560.2285 560.1745 559.3241 557.9623 556.0574 553.5535 551.3516 549.8243 548.6869 547.787 547.1157 546.7532 546.7561 547.0446 547.6831 548.6711 549.4312 549.9257 549.9937 549.5031 548.3049 546.8753 545.5731 544.3512 543.3425 542.2697 541.3066 540.5429 540.0687 539.8949 539.9495 540.1107 540.2601 540.3143 540.3562 540.4312 540.5663 540.5588 540.3306 540.0309 539.682 539.3477 539.1061 539.0483 539.2456 539.7456 540.5884 541.8162 543.2889 545.1833 547.9027 551.4048 555.7797 561.3794 568.2643 576.2292 584.6671 593.0026 600.6416 607.0489 611.9521 -9999 -9999 -9999 -9999 -9999 -9999 -9999 -9999 -9999 -9999 -9999 -9999 -9999 -9999 -9999 -9999 -9999 -9999 -9999 -9999 -9999 -9999 -9999 -9999 -9999 -9999 -9999 -9999 -9999 -9999 -9999 -9999 -9999 -9999 -9999 -9999 -9999 -9999 -9999 -9999 -9999 -9999 -9999 -9999 -9999 -9999 -9999
-9999 -9999 -9999 -9999 -9999 -9999 -9999 -9999 -9999 -9999 -9999 -9999 -9999 -9999 -9999 -9999 -9999 -9999 -9999 -9999 -9999 -9999 -9999 -9999 -9999 -9999 569.2372 569.6573 569.567 569.3488 568.8986 568.0865 567.1091 566.423 565.947 565.7635 565.6102 565.0969 564.2662 563.2764 562.2687 561.3871 560.6071 559.8291 559.0625 558.436 557.8684 557.1938 556.3906 555.378 554.0367 552.4715 550.7993 549.2101 547.822 547.124 547.683 547.8544 547.2241 547.1046 547.877 549.7634 552.1663 554.6743 556.7745 558.0198 558.6008 558.9022 559.0011 558.9651 558.8438 558.5424 558.1371 557.6313 557.0755 556.5413 556.085 555.7106 555.0945 554.7141 554.9758 555.8628 557.2098 558.4876 559.2255 559.373 559.1034 558.9675 558.9506 559.027 559.2481 559.6585 559.3553 558.5684 557.149 554.828 552.4383 550.4867 548.968 547.701 546.742 546.309 546.2504 546.4313 546.8281 547.4274 548.339 549.2676 549.5615 549.0816 548.0302 546.6893 545.2932 543.9733 543.0475 542.1436 541.2994 540.5974 540.1486 539.9656 539.9976 540.098 540.186 540.2328 540.2743 540.3324 540.3846 540.3034 540.0946 539.8522 539.6002 539.3614 539.1929 539.2072 539.4695 539.9965 540.8234 542.118 543.5321 545.4186 548.0371 551.4911 556.0688 561.9292 569.0734 577.2681 585.8328 594.1308 601.5701 607.6553 -9999 -9999 -9999 -9999 -9999 -9999 -9999 -9999 -9999 -9999 -9999 -9999 -9999 -9999 -9999 -9999 -9999 -9999 -9999 -9999 -9999 -9999 -9999 -9999 -9999 -9999 -9999 -9999 -9999 -9999 -9999 -9999 -9999 -9999 -9999 -9999 -9999 -9999 -9999 -9999 -9999 -9999 -9999 -9999 -9999 -9999 -9999 -9999
-9999 -9999 -9999 -9999 -9999 -9999 -9999 -9999 -9999 -9999 -9999 -9999 -9999 -9999 -9999 -9999 -9999 -9999 -9999 -9999 -9999 -9999 -9999 -9999 -9999 -9999 568.8817 569.0074 568.9979 568.9873 568.4041 567.1794 565.8781 565.0989 564.5887 564.2621 563.9806 563.5509 562.9306 562.1713 561.4221 560.6792 559.9841 559.3184 558.6837 557.9326 557.179 556.3553 555.4088 554.2318 552.8851 551.4055 549.8094 548.2516 547.0069 546.6301 547.0278 547.2642 546.75 546.5409 547.1027 548.7942 550.9858 553.4852 555.8013 557.5793 558.7255 559.1089 559.0901 558.8635 558.5722 558.2513 557.8973 557.5079 557.0792 556.641 556.222 555.7679 555.0791 554.4672 554.4944 555.1807 556.3118 557.5894 558.4962 558.7088 558.4467 558.2438 558.1824 558.2596 558.5148 558.9125 559.0381 558.7253 557.634 555.5314 553.1921 551.219 549.4344 547.926 546.8161 546.3391 546.2646 546.3498 546.5148 546.7728 547.311 548.2493 548.6932 548.4569 547.6791 546.5615 545.2345 543.9551 543.1022 542.332 541.6361 541.0557 540.6384 540.4676 540.5356 540.6066 540.6398 540.6454 540.6415 540.6278 540.5709 540.3698 540.1538 539.984 539.8342 539.6764 539.5442 539.6227 539.9639 540.5182 541.3019 542.4641 543.9378 545.9824 548.6964 552.3018 556.996 563.0357 570.373 578.7036 587.2901 595.4465 602.5784 608.2471 -9999 -9999 -9999 -9999 -9999 -9999 -9999 -9999 -9999 -9999 -9999 -9999 -9999 -9999 -9999 -9999 -9999 -9999 -9999 -9999 -9999 -9999 -9999 -9999 -9999 -9999 -9999 -9999 -9999 -9999 -9999 -9999 -9999 -9999 -9999 -9999 -9999 -9999 -9999 -9999 -9999 -9999 -9999 -9999 -9999 -9999 -9999 -9999
-9999 -9999 -9999 -9999 -9999 -9999 -9999 -9999 -9999 -9999 -9999 -9999 -9999 -9999 -9999 -9999 -9999 -9999 -9999 -9999 -9999 -9999 -9999 -9999 -9999 -9999 569.1136 569.2426 569.3342 569.3187 568.787 567.5122 566.0615 564.9851 564.2167 563.6603 563.2114 562.7621 562.2665 561.7331 561.0283 560.2885 559.6013 558.9326 558.2432 557.4175 556.491 555.4568 554.2977 553.1099 551.8851 550.5386 549.0935 547.598 546.6177 546.3169 546.5663 546.5846 546.2938 546.2443 546.8564 548.4397 550.4081 552.7634 555.0104 557.0449 558.6219 559.1793 559.1514 558.8575 558.5364 558.2153 557.8864 557.539 557.1642 556.763 556.3394 555.8515 555.223 554.4496 554.0891 554.5457 555.527 556.615 557.4537 557.7657 557.6689 557.504 557.447 557.5071 557.7599 558.1832 558.5483 558.3832 557.343 555.5568 553.3871 551.4537 549.7056 548.2592 547.2206 546.6964 546.6336 546.6455 546.6523 546.672 547.0732 547.7008 548.0626 547.9565 547.415 546.5569 545.4566 544.382 543.5775 542.9276 542.4569 542.0906 541.8099 541.6462 541.8014 541.9149 541.942 541.9134 541.8459 541.7177 541.4721 541.0691 540.7762 540.6276 540.5292 540.4034 540.2364 540.376 540.8267 541.3469 542.0599 543.1599 544.7374 547.0091 549.95 553.7159 558.5668 564.7198 572.1508 580.4827 588.9513 596.8501 603.5745 608.7558 -9999 -9999 -9999 -9999 -9999 -9999 -9999 -9999 -9999 -9999 -9999 -9999 -9999 -9999 -9999 -9999 -9999 -9999 -9999 -9999 -9999 -9999 -9999 -9999 -9999 -9999 -9999 -9999 -9999 -9999 -9999 -9999 -9999 -9999 -9999 -9999 -9999 -9999 -9999 -9999 -9999 -9999 -9999 -9999 -9999 -9999 -9999 -9999
-9999 -9999 -9999 -9999 -9999 -9999 -9999 -9999 -9999 -9999 -9999 -9999 -9999 -9999 -9999 -9999 -9999 -9999 -9999 -9999 -9999 -9999 -9999 -9999 -9999 -9999 569.9451 569.9638 569.9955 569.9393 569.3994 568.0513 566.6467 565.4426 564.4605 563.6746 563.0353 562.4724 561.9243 561.3622 560.6882 559.9842 559.3242 558.6988 557.8799 556.9341 555.8192 554.5001 553.2731 552.2468 551.1296 549.8573 548.4661 547.0352 546.2472 545.9879 546.1389 546.0762 545.9459 546.0951 546.8555 548.4862 550.2891 552.5916 554.946 557.0146 558.6251 559.2316 559.2103 558.886 558.6263 558.3346 558.0151 557.6778 557.3198 556.9322 556.5168 556.1056 555.5447 554.5322 553.7896 553.9028 554.6057 555.5502 556.3415 556.721 556.7552 556.6719 556.6275 556.6686 556.851 557.1377 557.3607 557.2329 556.4976 555.1139 553.2208 551.4297 549.8228 548.5586 547.6652 547.1718 547.0073 546.9476 546.9112 546.9349 547.1848 547.5518 547.7742 547.7015 547.3181 546.6809 545.8838 545.0524 544.4154 543.9877 543.8632 543.817 543.8168 543.8616 544.0081 544.0838 544.0499 543.9494 543.7998 543.5667 543.2038 542.7393 542.2646 541.9688 541.7395 541.5234 541.3367 541.5793 542.2698 542.6162 543.217 544.331 546.1058 548.5471 551.7094 555.6723 560.6249 566.8006 574.2076 582.3837 590.6338 598.1964 604.4527 609.1291 -9999 -9999 -9999 -9999 -9999 -9999 -9999 -9999 -9999 -9999 -9999 -9999 -9999 -9999 -9999 -9999 -9999 -9999 -9999 -9999 -9999 -9999 -9999 -9999 -9999 -9999 -9999 -9999 -9999 -9999 -9999 -9999 -9999 -9999 -9999 -9999 -9999 -9999 -9999 -9999 -9999 -9999 -9999 -9999 -9999 -9999 -9999 -9999
-9999 -9999 -9999 -9999 -9999 -9999 -9999 -9999 -9999 -9999 -9999 -9999 -9999 -9999 -9999 -9999 -9999 -9999 -9999 -9999 -9999 -9999 -9999 -9999 -9999 -9999 570.6858 570.571 570.4972 570.3055 569.6963 568.5164 567.3214 566.1191 565.0048 564.0283 563.2057 562.5034 561.8617 561.1652 560.4365 559.7025 558.9796 558.3147 557.4948 556.5198 555.3173 553.7375 552.6078 551.6817 550.6457 549.4865 548.1141 546.8295 545.9778 545.6718 545.649 545.6541 545.6812 545.9801 546.8033 548.3447 550.1891 552.4915 554.8656 556.9408 558.5714 559.2408 559.3143 559.1067 558.8605 558.5773 558.2333 557.8782 557.5114 557.1168 556.6907 556.2463 555.6481 554.5643 553.6568 553.3303 553.6561 554.3518 555.1495 555.5457 555.6573 555.6707 555.6962 555.7408 555.8444 555.9966 556.0606 555.9252 555.4162 554.3271 552.8118 551.2181 549.8174 548.7631 548.0326 547.6038 547.4053 547.3126 547.2679 547.2925 547.4435 547.6485 547.7637 547.6986 547.4407 547.0292 546.5312 545.9602 545.642 545.6232 545.9228 546.2144 546.5361 546.8149 547.027 547.0557 546.9014 546.6687 546.3892 546.0012 545.4419 544.8602 544.3066 543.9133 543.5285 543.2702 543.1896 543.4102 543.8663 544.2145 544.8234 546.0684 547.9851 550.6025 553.8976 557.9527 562.9451 568.9708 576.1792 584.1384 592.1274 599.3118 605.08 609.3494 -9999 -9999 -9999 -9999 -9999 -9999 -9999 -9999 -9999 -9999 -9999 -9999 -9999 -9999 -9999 -9999 -9999 -9999 -9999 -9999 -9999 -9999 -9999 -9999 -9999 -9999 -9999 -9999 -9999 -9999 -9999 -9999 -9999 -9999 -9999 -9999 -9999 -9999 -9999 -9999 -9999 -9999 -9999 -9999 -9999 -9999 -9999 -9999
-9999 -9999 -9999 -9999 -9999 -9999 -9999 -9999 -9999 -9999 -9999 -9999 -9999 -9999 -9999 -9999 -9999 -9999 -9999 -9999 -9999 -9999 -9999 -9999 -9999 -9999 -9999 570.8975 570.8158 570.6282 570.1261 569.2001 568.1007 566.8571 565.627 564.4973 563.5052 562.6462 561.8652 561.0472 560.2517 559.5137 558.8273 558.0353 557.1621 556.1664 554.9382 553.314 552.1476 551.1937 550.2271 549.163 547.8516 546.7507 545.9983 545.5202 545.3573 545.3654 545.5211 545.9309 546.7935 548.3002 550.0943 552.2901 554.5543 556.6207 558.2938 559.1061 559.334 559.2683 559.0841 558.8311 558.467 558.0873 557.6917 557.2476 556.7427 556.1768 555.5104 554.4197 553.484 552.9651 552.8486 553.1557 553.7583 554.1073 554.2628 554.3723 554.5408 554.6721 554.7898 554.9535 554.9864 554.7802 554.2714 553.4332 552.2271 550.8115 549.675 548.8352 548.2731 547.9401 547.7661 547.6781 547.6392 547.6552 547.7441 547.8625 547.9239 547.8778 547.7281 547.509 547.2604 547.0299 547.1266 547.5054 548.2028 548.9211 549.6132 550.157 550.4969 550.4783 550.1506 549.754 549.3603 548.8774 548.2222 547.6011 547.0054 546.463 545.7457 545.3384 545.3132 545.5885 546.0569 546.4828 547.1166 548.3323 550.3296 552.9867 556.2971 560.3707 565.293 571.0479 577.925 585.6037 593.3115 600.1113 605.383 -9999 -9999 -9999 -9999 -9999 -9999 -9999 -9999 -9999 -9999 -9999 -9999 -9999 -9999 -9999 -9999 -9999 -9999 -9999 -9999 -9999 -9999 -9999 -9999 -9999 -9999 -9999 -9999 -9999 -9999 -9999 -9999 -9999 -9999 -9999 -9999 -9999 -9999 -9999 -9999 -9999 -9999 -9999 -9999 -9999 -9999 -9999 -9999 -9999
-9999 -9999 -9999 -9999 -9999 -9999 -9999 -9999 -9999 -9999 -9999 -9999 -9999 -9999 -9999 -9999 -9999 -9999 -9999 -9999 -9999 -9999 -9999 -9999 -9999 -9999 -9999 570.9825 570.9791 570.9107 570.6205 569.9512 568.8307 567.4861 566.1547 564.9172 563.795 562.7903 561.8688 560.9433 560.0699 559.3036 558.683 557.8399 556.9021 555.8162 554.468 552.9736 551.7759 550.7525 549.7532 548.6318 547.4576 546.6243 546.0392 545.608 545.3575 545.3173 545.5145 545.9963 546.8629 548.3726 550.0378 552.0975 554.2231 556.1271 557.7299 558.8321 559.2546 559.3159 559.1796 558.888 558.6292 558.266 557.833 557.3146 556.6815 555.9172 555.0669 554.0387 553.1991 552.7158 552.4525 552.4801 552.7288 552.8861 552.9889 553.1282 553.4468 553.6379 553.7637 553.8896 554.0016 553.8038 553.3324 552.5366 551.4018 550.1788 549.3486 548.7533 548.3653 548.1451 548.0333 547.9772 547.9547 547.9682 548.0239 548.1013 548.1517 548.1494 548.1167 548.1078 548.1838 548.4211 548.9621 549.6719 550.6654 551.7574 552.7275 553.4891 553.9077 553.8411 553.3979 552.9075 552.5421 552.1789 551.7046 551.1072 550.2936 549.2878 548.2584 547.6953 547.6929 548.01 548.5546 549.1154 549.8174 551.0072 552.9517 555.4985 558.6965 562.6428 567.4775 572.819 579.3687 586.8109 594.3123 600.8353 605.6439 -9999 -9999 -9999 -9999 -9999 -9999 -9999 -9999 -9999 -9999 -9999 -9999 -9999 -9999 -9999 -9999 -9999 -9999 -9999 -9999 -9999 -9999 -9999 -9999 -9999 -9999 -9999 -9999 -9999 -9999 -9999 -9999 -9999 -9999 -9999 -9999 -9999 -9999 -9999 -9999 -9999 -9999 -9999 -9999 -9999 -9999 -9999 -9999 -9999
-9999 -9999 -9999 -9999 -9999 -9999 -9999 -9999 -9999 -9999 -9999 -9999 -9999 -9999 -9999 -9999 -9999 -9999 -9999 -9999 -9999 -9999 -9999 -9999 -9999 -9999 -9999 570.9644 571.0162 571.071 570.9732 570.4883 569.1994 567.8138 566.4795 565.2048 564.0109 562.8992 561.8638 560.851 559.8843 559.002 558.3597 557.5713 556.6276 555.5019 554.031 552.6269 551.4016 550.3318 549.3165 548.1191 546.9819 546.337 545.9593 545.6783 545.4894 545.4684 545.6893 546.194 546.9854 548.351 549.9645 551.9501 553.9802 555.6989 557.2416 558.6274 559.1757 559.3342 559.2904 559.0948 558.8381 558.4176 557.9275 557.3442 556.6314 555.7491 554.6641 553.559 552.7806 552.3408 552.1108 551.9915 552.033 552.125 552.2614 552.3788 552.6264 552.7423 552.8094 552.9174 553.0543 552.8528 552.4258 551.603 550.6161 549.7 549.0441 548.6032 548.3406 548.2144 548.17 548.1627 548.171 548.1953 548.2419 548.3055 548.3658 548.4171 548.4965 548.6784 549.0438 549.6453 550.514 551.584 552.8758 554.2407 555.4563 556.3456 556.7748 556.666 556.2132 555.8442 555.7679 555.8322 555.8751 555.4222 554.3563 552.8633 551.4108 550.5335 550.314 550.5364 551.0789 551.8114 552.6135 553.7883 555.6121 557.9525 560.8619 564.4304 568.8195 574.1105 580.5671 587.9334 595.4484 602.1743 607.4009 -9999 -9999 -9999 -9999 -9999 -9999 -9999 -9999 -9999 -9999 -9999 -9999 -9999 -9999 -9999 -9999 -9999 -9999 -9999 -9999 -9999 -9999 -9999 -9999 -9999 -9999 -9999 -9999 -9999 -9999 -9999 -9999 -9999 -9999 -9999 -9999 -9999 -9999 -9999 -9999 -9999 -9999 -9999 -9999 -9999 -9999 -9999 -9999 -9999
-9999 -9999 -9999 -9999 -9999 -9999 -9999 -9999 -9999 -9999 -9999 -9999 -9999 -9999 -9999 -9999 -9999 -9999 -9999 -9999 -9999 -9999 -9999 -9999 -9999 -9999 -9999 -9999 570.9591 571.0427 570.989 570.41 569.0129 567.8317 566.6199 565.386 564.1624 562.9886 561.8796 560.8429 559.8507 558.9248 558.2043 557.3506 556.3136 555.0956 553.4866 552.1356 550.9327 549.8396 548.7672 547.6685 546.7233 546.1249 545.7822 545.6229 545.561 545.6348 545.9384 546.5347 547.3075 548.4816 549.963 551.8852 553.9144 555.6755 557.2372 558.5761 559.1133 559.3191 559.3357 559.1791 558.8727 558.4673 557.9624 557.3452 556.5899 555.6359 554.3545 553.0972 552.3945 551.9766 551.7191 551.5583 551.5034 551.5259 551.6021 551.666 551.7898 551.8827 551.9675 552.0907 552.2175 551.8772 551.3774 550.6461 549.8558 549.2225 548.7469 548.4241 548.2419 548.1747 548.1801 548.2173 548.2658 548.3187 548.3782 548.4459 548.5187 548.6078 548.7623 549.0718 549.6396 550.5021 551.684 553.0563 554.632 556.2159 557.5845 558.6595 559.1802 559.0492 558.5511 558.3866 558.8388 559.6841 560.474 560.2256 558.8723 556.9084 555.0475 553.7726 553.2033 553.2014 553.6345 554.4211 555.2809 556.4421 558.109 560.2106 562.7953 566.0258 570.1172 575.3407 581.7495 589.0771 596.6286 603.5072 -9999 -9999 -9999 -9999 -9999 -9999 -9999 -9999 -9999 -9999 -9999 -9999 -9999 -9999 -9999 -9999 -9999 -9999 -9999 -9999 -9999 -9999 -9999 -9999 -9999 -9999 -9999 -9999 -9999 -9999 -9999 -9999 -9999 -9999 -9999 -9999 -9999 -9999 -9999 -9999 -9999 -9999 -9999 -9999 -9999 -9999 -9999 -9999 -9999 -9999
-9999 -9999 -9999 -9999 -9999 -9999 -9999 -9999 -9999 -9999 -9999 -9999 -9999 -9999 -9999 -9999 -9999 -9999 -9999 -9999 -9999 -9999 -9999 -9999 -9999 -9999 -9999 -9999 570.9463 570.9358 570.8816 570.4776 569.1428 567.96 566.7685 565.5476 564.3167 563.1039 561.9612 560.9772 560.0098 559.0625 558.2758 557.2474 555.9956 554.6096 553.0383 551.6608 550.4567 549.4055 548.299 547.2704 546.5355 545.9464 545.6051 545.4719 545.496 545.6682 546.0415 546.6682 547.5367 548.6385 549.9807 551.8041 553.7999 555.6058 557.0997 558.3419 558.9567 559.2358 559.3073 559.1798 558.8738 558.4601 557.9421 557.3184 556.5612 555.5994 554.2543 552.9583 552.2383 551.7766 551.4484 551.2174 551.0781 551.0177 551.0066 550.9742 551.0044 551.0522 551.098 551.1102 551.0249 550.7676 550.3912 549.8228 549.2938 548.8481 548.5006 548.2622 548.1279 548.0839 548.1073 548.1696 548.2509 548.34 548.429 548.514 548.5969 548.6967 548.8666 549.199 549.8115 550.8815 552.3532 553.9779 555.7727 557.5634 558.8358 560.2832 561.0582 560.9413 560.3154 560.3181 561.2986 563.0062 564.3154 564.3331 563.0692 561.0214 558.8913 557.2429 556.3141 556.0374 556.2501 556.8462 557.6694 558.8438 560.3687 562.2423 564.6062 567.6423 571.6321 576.7679 583.0775 590.2914 597.7644 604.6215 -9999 -9999 -9999 -9999 -9999 -9999 -9999 -9999 -9999 -9999 -9999 -9999 -9999 -9999 -9999 -9999 -9999 -9999 -9999 -9999 -9999 -9999 -9999 -9999 -9999 -9999 -9999 -9999 -9999 -9999 -9999 -9999 -9999 -9999 -9999 -9999 -9999 -9999 -9999 -9999 -9999 -9999 -9999 -9999 -9999 -9999 -9999 -9999 -9999 -9999
-9999 -9999 -9999 -9999 -9999 -9999 -9999 -9999 -9999 -9999 -9999 -9999 -9999 -9999 -9999 -9999 -9999 -9999 -9999 -9999 -9999 -9999 -9999 -9999 -9999 -9999 -9999 -9999 571.1762 570.8848 570.6584 570.3204 569.5475 568.2011 566.9606 565.7374 564.5133 563.3094 562.1747 561.2886 560.3704 559.4545 558.5583 557.2791 555.8193 554.2565 552.6794 551.2025 549.9302 548.8628 547.8148 546.8537 546.209 545.7192 545.4133 545.3002 545.3632 545.5972 546.0306 546.7117 547.6966 548.7854 549.9874 551.6632 553.5173 555.394 556.7037 557.7143 558.6602 559.0754 559.2103 559.0969 558.8212 558.3574 557.8345 557.236 556.5237 555.6271 554.3386 553.0782 552.3394 551.7801 551.3405 550.9965 550.7462 550.5833 550.4687 550.3273 550.2899 550.311 550.3063 550.22 549.9625 549.8041 549.6409 549.2738 548.9055 548.5858 548.3281 548.1456 548.0425 548.0054 548.0205 548.0795 548.1734 548.2902 548.4118 548.5212 548.612 548.7031 548.8481 549.1436 549.7205 550.7546 552.3056 554.0631 556.0643 558.1057 559.6979 561.2051 561.8849 561.8924 561.6995 561.8218 562.7343 564.762 566.6577 567.079 566.1172 564.3676 562.4329 560.6024 559.4084 558.8884 558.86 559.1851 559.8306 560.9456 562.319 564.0903 566.3877 569.4053 573.3285 578.3768 584.5477 591.5593 598.8029 605.431 -9999 -9999 -9999 -9999 -9999 -9999 -9999 -9999 -9999 -9999 -9999 -9999 -9999 -9999 -9999 -9999 -9999 -9999 -9999 -9999 -9999 -9999 -9999 -9999 -9999 -9999 -9999 -9999 -9999 -9999 -9999 -9999 -9999 -9999 -9999 -9999 -9999 -9999 -9999 -9999 -9999 -9999 -9999 -9999 -9999 -9999 -9999 -9999 -9999 -9999
-9999 -9999 -9999 -9999 -9999 -9999 -9999 -9999 -9999 -9999 -9999 -9999 -9999 -9999 -9999 -9999 -9999 -9999 -9999 -9999 -9999 -9999 -9999 -9999 -9999 -9999 -9999 -9999 571.8604 571.0761 570.4537 570.0178 569.3873 568.2587 567.1111 565.9297 564.7466 563.6082 562.5737 561.6986 560.7143 559.7242 558.6622 557.2081 555.5999 553.8759 552.2686 550.7357 549.5099 548.4418 547.5005 546.691 546.0812 545.5793 545.2599 545.1439 545.2211 545.4908 545.9719 546.6987 547.714 548.8152 549.9796 551.5477 553.3084 555.1687 556.3817 557.3887 558.3065 558.8499 559.038 558.8588 558.4974 558.0903 557.6325 557.0848 556.4502 555.683 554.5513 553.4355 552.6325 551.9337 551.3638 550.8959 550.5217 550.2304 549.9825 549.7513 549.7133 549.7129 549.7128 549.6547 549.4154 549.2449 549.099 548.8734 548.6323 548.4095 548.2222 548.0856 548.0062 547.9744 547.9761 548.0145 548.0975 548.2219 548.3655 548.4964 548.5934 548.666 548.76 548.9659 549.3998 550.213 551.6652 553.4407 555.5443 557.6704 559.4099 560.8624 561.7169 561.9272 562.1145 562.5015 563.468 565.2128 567.4568 568.5464 568.027 566.7075 565.0258 563.3869 562.1769 561.5054 561.2885 561.4032 561.8348 562.7216 564.0283 565.8279 568.2118 571.2397 575.1362 580.0643 586.0309 592.7477 599.6369 -9999 -9999 -9999 -9999 -9999 -9999 -9999 -9999 -9999 -9999 -9999 -9999 -9999 -9999 -9999 -9999 -9999 -9999 -9999 -9999 -9999 -9999 -9999 -9999 -9999 -9999 -9999 -9999 -9999 -9999 -9999 -9999 -9999 -9999 -9999 -9999 -9999 -9999 -9999 -9999 -9999 -9999 -9999 -9999 -9999 -9999 -9999 -9999 -9999 -9999 -9999
-9999 -9999 -9999 -9999 -9999 -9999 -9999 -9999 -9999 -9999 -9999 -9999 -9999 -9999 -9999 -9999 -9999 -9999 -9999 -9999 -9999 -9999 -9999 -9999 -9999 -9999 -9999 -9999 572.8688 571.5573 570.4408 569.9265 569.4141 568.4382 567.2788 566.0911 564.9296 563.8317 562.8195 561.8754 560.8553 559.7787 558.5847 556.9546 555.228 553.3587 551.6988 550.1749 549.0416 548.0789 547.2787 546.6471 546.0576 545.5599 545.2122 545.0613 545.1228 545.4034 545.9211 546.7068 547.8036 548.9758 550.0983 551.5446 553.1718 554.9368 556.1001 557.0775 557.9615 558.5698 558.8321 558.5983 558.2904 557.9163 557.469 556.9269 556.3534 555.7172 554.7256 553.6807 552.788 552.0884 551.4561 550.8855 550.4021 550.0206 549.723 549.4846 549.3602 549.2997 549.251 549.1709 549.0089 548.8668 548.7439 548.6001 548.4496 548.3029 548.1704 548.0724 548.0199 547.9995 547.9948 548.0112 548.072 548.1864 548.3356 548.4783 548.5776 548.6311 548.6729 548.7839 549.0796 549.7134 550.8628 552.4658 554.3743 556.3619 558.1982 559.6746 560.6672 561.2576 561.7753 562.377 563.4048 565.1177 567.219 568.553 568.7747 568.187 567.1023 565.8538 564.515 563.6364 563.2383 563.2097 563.5089 564.2635 565.5851 567.5311 570.0333 573.1193 576.9378 581.674 587.3522 593.7012 600.1678 -9999 -9999 -9999 -9999 -9999 -9999 -9999 -9999 -9999 -9999 -9999 -9999 -9999 -9999 -9999 -9999 -9999 -9999 -9999 -9999 -9999 -9999 -9999 -9999 -9999 -9999 -9999 -9999 -9999 -9999 -9999 -9999 -9999 -9999 -9999 -9999 -9999 -9999 -9999 -9999 -9999 -9999 -9999 -9999 -9999 -9999 -9999 -9999 -9999 -9999 -9999
-9999 -9999 -9999 -9999 -9999 -9999 -9999 -9999 -9999 -9999 -9999 -9999 -9999 -9999 -9999 -9999 -9999 -9999 -9999 -9999 -9999 -9999 -9999 -9999 -9999 -9999 -9999 -9999 573.8996 572.3309 570.9789 570.1599 569.6451 568.5789 567.343 566.1265 564.9793 563.9139 562.9117 561.9205 560.8649 559.6975 558.4075 556.5841 554.79 552.9556 551.3019 549.853 548.7369 547.8038 547.0626 546.5741 546.0107 545.5333 545.1972 545.0415 545.0901 545.3674 545.9056 546.7481 547.969 549.2911 550.3774 551.6329 553.0466 554.6053 555.8118 556.7465 557.5687 558.1639 558.4216 558.3101 558.0919 557.772 557.371 556.8977 556.3768 555.7634 554.8663 553.8798 552.9568 552.3014 551.6116 550.9396 550.3551 549.9189 549.6789 549.3575 549.1403 549.0081 548.9144 548.8173 548.699 548.5937 548.5047 548.4185 548.333 548.2458 548.1598 548.0932 548.0646 548.0645 548.067 548.0712 548.1085 548.2045 548.3486 548.4951 548.5955 548.6333 548.632 548.655 548.8033 549.208 549.9922 551.2815 552.9405 554.7329 556.4628 558.009 559.1234 559.9864 560.7039 561.4965 562.4872 564.1079 566.0517 567.758 568.6968 568.8756 568.3882 567.4629 566.1788 565.254 564.788 564.7106 564.9343 565.6323 567.0557 569.1109 571.7254 574.845 578.5639 583.0433 588.3524 594.2825 -9999 -9999 -9999 -9999 -9999 -9999 -9999 -9999 -9999 -9999 -9999 -9999 -9999 -9999 -9999 -9999 -9999 -9999 -9999 -9999 -9999 -9999 -9999 -9999 -9999 -9999 -9999 -9999 -9999 -9999 -9999 -9999 -9999 -9999 -9999 -9999 -9999 -9999 -9999 -9999 -9999 -9999 -9999 -9999 -9999 -9999 -9999 -9999 -9999 -9999 -9999 -9999
-9999 -9999 -9999 -9999 -9999 -9999 -9999 -9999 -9999 -9999 -9999 -9999 -9999 -9999 -9999 -9999 -9999 -9999 -9999 -9999 -9999 -9999 -9999 -9999 -9999 -9999 -9999 -9999 574.6619 573.0085 571.5038 570.4752 569.5837 568.4815 567.1547 565.9373 564.8381 563.8433 562.8999 561.9397 560.9173 559.7454 558.337 556.3929 554.531 552.7193 551.0724 549.7148 548.5941 547.6078 546.7802 546.3057 545.845 545.4392 545.1497 545.0219 545.0845 545.3663 545.9098 546.7715 548.0393 549.4063 550.483 551.6583 552.9509 554.4068 555.6461 556.4946 557.203 557.7388 558.0051 558.0026 557.8652 557.6067 557.2639 556.8527 556.3813 555.7958 554.999 554.1241 553.299 552.6179 551.8035 551.0157 550.3121 549.7484 549.4594 549.1777 548.9496 548.786 548.6658 548.5633 548.468 548.3909 548.3336 548.2904 548.256 548.2178 548.171 548.1325 548.1239 548.1437 548.1628 548.1697 548.1918 548.2668 548.4002 548.5484 548.6536 548.6873 548.6615 548.623 548.6561 548.8789 549.3915 550.2742 551.6559 553.1661 554.708 556.1566 557.4019 558.437 559.2367 560.1045 561.1199 562.6226 564.5565 566.4857 568.0134 568.8902 568.9773 568.4494 567.4987 566.5536 565.9759 565.9048 566.1832 566.9524 568.3577 570.3965 573.0361 576.1891 579.8122 584.0116 588.9178 594.4048 -9999 -9999 -9999 -9999 -9999 -9999 -9999 -9999 -9999 -9999 -9999 -9999 -9999 -9999 -9999 -9999 -9999 -9999 -9999 -9999 -9999 -9999 -9999 -9999 -9999 -9999 -9999 -9999 -9999 -9999 -9999 -9999 -9999 -9999 -9999 -9999 -9999 -9999 -9999 -9999 -9999 -9999 -9999 -9999 -9999 -9999 -9999 -9999 -9999 -9999 -9999 -9999
-9999 -9999 -9999 -9999 -9999 -9999 -9999 -9999 -9999 -9999 -9999 -9999 -9999 -9999 -9999 -9999 -9999 -9999 -9999 -9999 -9999 -9999 -9999 -9999 -9999 -9999 -9999 -9999 575.3243 573.6473 572.0577 570.7044 569.3203 567.9177 566.5835 565.4498 564.4852 563.627 562.8029 561.9346 560.9517 559.7809 558.3239 556.3302 554.4141 552.5664 550.8798 549.6475 548.5778 547.5658 546.7047 546.1495 545.7018 545.3329 545.0798 544.9841 545.0734 545.3706 545.9124 546.753 547.9702 549.2905 550.3505 551.5432 552.8306 554.1527 555.4057 556.2288 556.8696 557.3464 557.6071 557.6609 557.5756 557.3878 557.1083 556.7509 556.3395 555.8085 555.089 554.2929 553.4994 552.7399 551.9044 551.08 550.3289 549.7159 549.3314 549.0339 548.7966 548.616 548.4808 548.3771 548.2959 548.2386 548.2045 548.1921 548.1949 548.1979 548.1873 548.1735 548.1816 548.2179 548.2559 548.2734 548.2906 548.3484 548.4672 548.6169 548.735 548.7806 548.7561 548.6943 548.6672 548.7857 549.1432 549.7941 550.8195 551.9943 553.2228 554.5107 555.7543 556.8632 557.7815 558.6614 559.6056 561.0251 562.8502 564.9036 566.7591 568.1418 568.9181 568.8859 568.1902 567.4779 567.0508 566.9985 567.2809 568.0801 569.4442 571.3163 573.8891 577.0442 580.5711 584.504 589.029 -9999 -9999 -9999 -9999 -9999 -9999 -9999 -9999 -9999 -9999 -9999 -9999 -9999 -9999 -9999 -9999 -9999 -9999 -9999 -9999 -9999 -9999 -9999 -9999 -9999 -9999 -9999 -9999 -9999 -9999 -9999 -9999 -9999 -9999 -9999 -9999 -9999 -9999 -9999 -9999 -9999 -9999 -9999 -9999 -9999 -9999 -9999 -9999 -9999 -9999 -9999 -9999 -9999
-9999 -9999 -9999 -9999 -9999 -9999 -9999 -9999 -9999 -9999 -9999 -9999 -9999 -9999 -9999 -9999 -9999 -9999 -9999 -9999 -9999 -9999 -9999 -9999 -9999 -9999 -9999 -9999 575.9598 574.2163 572.4221 570.6866 568.8668 567.1245 565.7938 564.7934 563.9988 563.3035 562.6239 561.8796 560.9073 559.7363 558.301 556.331 554.3914 552.4373 550.6063 549.529 548.556 547.5455 546.6801 546.0494 545.5828 545.2378 545.0155 544.9465 545.0583 545.3712 545.908 546.7021 547.7865 548.952 550.0411 551.3519 552.6761 553.8487 554.9116 555.8785 556.559 556.9924 557.2277 557.3066 557.2609 557.125 556.9042 556.589 556.2517 555.8024 555.1243 554.3744 553.5836 552.7742 551.9457 551.126 550.3647 549.7173 549.2678 548.9374 548.6836 548.4897 548.3448 548.2385 548.1659 548.1222 548.1045 548.1113 548.1399 548.1744 548.196 548.2058 548.2281 548.276 548.3308 548.3622 548.3806 548.425 548.5264 548.6732 548.8096 548.8835 548.8845 548.8358 548.7982 548.876 549.1606 549.683 550.3904 551.2566 552.2104 553.2172 554.3495 555.5074 556.4965 557.3979 558.3558 559.6146 561.3224 563.3534 565.3633 567.0771 568.2931 568.9555 568.6498 568.1793 568.0234 568.0104 568.221 568.9983 570.1907 571.8906 574.3727 577.4869 580.9104 584.6122 -9999 -9999 -9999 -9999 -9999 -9999 -9999 -9999 -9999 -9999 -9999 -9999 -9999 -9999 -9999 -9999 -9999 -9999 -9999 -9999 -9999 -9999 -9999 -9999 -9999 -9999 -9999 -9999 -9999 -9999 -9999 -9999 -9999 -9999 -9999 -9999 -9999 -9999 -9999 -9999 -9999 -9999 -9999 -9999 -9999 -9999 -9999 -9999 -9999 -9999 -9999 -9999 -9999 -9999
-9999 -9999 -9999 -9999 -9999 -9999 -9999 -9999 -9999 -9999 -9999 -9999 -9999 -9999 -9999 -9999 -9999 -9999 -9999 -9999 -9999 -9999 -9999 -9999 -9999 -9999 -9999 -9999 576.5732 574.6119 572.5507 570.4921 568.3301 566.2671 565.0045 564.1503 563.5054 562.9336 562.3482 561.7021 560.7076 559.5386 558.1999 556.374 554.498 552.4328 550.45 549.2251 548.2317 547.3351 546.5494 545.8934 545.4381 545.134 544.9574 544.9208 545.0531 545.3772 545.9106 546.6695 547.6554 548.7434 549.8854 551.2667 552.6293 553.746 554.7428 555.6503 556.223 556.6075 556.8278 556.933 556.9248 556.8277 556.6523 556.3934 556.1031 555.7512 555.1183 554.3927 553.6073 552.7811 551.96 551.1527 550.3987 549.7272 549.2367 548.8724 548.5997 548.3945 548.2435 548.1364 548.0671 548.0325 548.0258 548.0452 548.0897 548.1465 548.1941 548.2256 548.2603 548.3173 548.3842 548.4318 548.4536 548.4879 548.5694 548.7043 548.8539 548.9634 549.0065 548.9945 548.9766 549.0428 549.2744 549.6908 550.2034 550.8638 551.6271 552.4352 553.2917 554.3756 555.4407 556.3947 557.4088 558.6423 560.127 562.1163 564.1162 566.0049 567.5015 568.4806 568.7549 568.7903 568.8953 568.9225 569.0745 569.7578 570.7735 572.2609 574.5603 577.5205 580.8017 -9999 -9999 -9999 -9999 -9999 -9999 -9999 -9999 -9999 -9999 -9999 -9999 -9999 -9999 -9999 -9999 -9999 -9999 -9999 -9999 -9999 -9999 -9999 -9999 -9999 -9999 -9999 -9999 -9999 -9999 -9999 -9999 -9999 -9999 -9999 -9999 -9999 -9999 -9999 -9999 -9999 -9999 -9999 -9999 -9999 -9999 -9999 -9999 -9999 -9999 -9999 -9999 -9999 -9999 -9999
-9999 -9999 -9999 -9999 -9999 -9999 -9999 -9999 -9999 -9999 -9999 -9999 -9999 -9999 -9999 -9999 -9999 -9999 -9999 -9999 -9999 -9999 -9999 -9999 -9999 -9999 -9999 -9999 577.0406 574.8317 572.5453 570.2601 567.9277 565.7842 564.5295 563.7341 563.1538 562.6147 561.9944 561.3002 560.3265 559.1718 557.9609 556.4492 554.7451 552.5736 550.4645 549.0465 547.8875 546.8716 546.174 545.6318 545.2546 545.0183 544.9008 544.9053 545.0586 545.3916 545.9237 546.6657 547.614 548.6758 549.8461 551.2561 552.6244 553.6687 554.5415 555.2894 555.819 556.1969 556.4337 556.5439 556.556 556.4996 556.3666 556.119 555.8239 555.4932 554.975 554.3313 553.5912 552.7762 551.9418 551.1293 550.3942 549.7292 549.2112 548.818 548.5292 548.3182 548.1652 548.0587 547.9928 547.9634 547.9644 547.9915 548.0458 548.1184 548.1866 548.2369 548.2815 548.3438 548.4209 548.484 548.5166 548.5421 548.6035 548.7184 548.8682 549.0056 549.0939 549.1281 549.1417 549.2061 549.3859 549.7041 550.1317 550.696 551.362 552.058 552.7279 553.5348 554.4982 555.5666 556.6956 558.0447 559.449 561.323 563.2229 565.1051 566.7023 567.8966 568.5765 569.0001 569.2507 569.3701 569.5417 570.0246 570.8926 572.1958 574.2636 576.9766 -9999 -9999 -9999 -9999 -9999 -9999 -9999 -9999 -9999 -9999 -9999 -9999 -9999 -9999 -9999 -9999 -9999 -9999 -9999 -9999 -9999 -9999 -9999 -9999 -9999 -9999 -9999 -9999 -9999 -9999 -9999 -9999 -9999 -9999 -9999 -9999 -9999 -9999 -9999 -9999 -9999 -9999 -9999 -9999 -9999 -9999 -9999 -9999 -9999 -9999 -9999 -9999 -9999 -9999 -9999 -9999
-9999 -9999 -9999 -9999 -9999 -9999 -9999 -9999 -9999 -9999 -9999 -9999 -9999 -9999 -9999 -9999 -9999 -9999 -9999 -9999 -9999 -9999 -9999 -9999 -9999 -9999 -9999 -9999 577.4678 575.0375 572.5811 570.203 567.8822 565.7456 564.4736 563.6548 563.0548 562.5049 561.8622 561.0074 559.9896 558.9105 557.7654 556.444 554.9143 552.773 550.6605 549.1161 547.8016 546.6893 545.9448 545.4426 545.1196 544.9315 544.8575 544.8978 545.0705 545.4095 545.9408 546.6788 547.6348 548.6913 549.8591 551.2716 552.6127 553.5558 554.3118 554.9519 555.4547 555.8209 556.0756 556.162 556.177 556.1528 556.0645 555.8199 555.5461 555.2234 554.7842 554.2274 553.553 552.7596 551.8696 550.9785 550.2018 549.6484 549.1364 548.7454 548.4581 548.2508 548.1027 548 547.9357 547.9095 547.916 547.9484 548.0079 548.0914 548.1775 548.2457 548.2993 548.3624 548.4448 548.5233 548.5725 548.5995 548.6429 548.7337 548.8708 549.0207 549.1434 549.2217 549.2705 549.3398 549.4765 549.7098 550.1124 550.6296 551.2393 551.8544 552.2949 552.8562 553.6992 554.8303 556.0804 557.5255 559.0251 560.7628 562.5404 564.4026 565.9662 567.2633 568.2291 568.95 569.3239 569.5249 569.7026 570.0317 570.6939 571.7829 573.5718 -9999 -9999 -9999 -9999 -9999 -9999 -9999 -9999 -9999 -9999 -9999 -9999 -9999 -9999 -9999 -9999 -9999 -9999 -9999 -9999 -9999 -9999 -9999 -9999 -9999 -9999 -9999 -9999 -9999 -9999 -9999 -9999 -9999 -9999 -9999 -9999 -9999 -9999 -9999 -9999 -9999 -9999 -9999 -9999 -9999 -9999 -9999 -9999 -9999 -9999 -9999 -9999 -9999 -9999 -9999 -9999 -9999
-9999 -9999 -9999 -9999 -9999 -9999 -9999 -9999 -9999 -9999 -9999 -9999 -9999 -9999 -9999 -9999 -9999 -9999 -9999 -9999 -9999 -9999 -9999 -9999 -9999 -9999 -9999 -9999 578.0468 575.4136 572.7974 570.3804 568.1711 566.1449 564.8235 563.8922 563.1818 562.5403 561.8024 560.7626 559.6493 558.6594 557.5669 556.3587 555.0259 553.0144 551.0411 549.4011 547.9371 546.6946 545.8954 545.3945 545.0842 544.9081 544.8447 544.8972 545.0801 545.4229 545.9535 546.6861 547.6385 548.6977 549.8747 551.2861 552.5844 553.3995 554.0677 554.6633 555.1698 555.5499 555.799 555.8187 555.8171 555.817 555.7899 555.5498 555.2687 554.9571 554.5755 554.0995 553.5011 552.7368 551.7686 550.7612 549.8777 549.3794 548.9658 548.6337 548.3801 548.191 548.0536 547.9579 547.8962 547.8683 547.8766 547.913 547.9749 548.0637 548.1649 548.2528 548.319 548.3814 548.4616 548.55 548.6199 548.6605 548.6968 548.7669 548.8845 549.0316 549.172 549.2828 549.3672 549.4548 549.5726 549.7248 550.1151 550.5605 551.0664 551.5135 551.899 552.3848 553.131 554.3932 555.7946 557.2944 558.848 560.4858 562.1376 563.8207 565.3104 566.6906 567.9404 568.6851 569.1789 569.4846 569.7044 569.9802 570.4169 571.2767 -9999 -9999 -9999 -9999 -9999 -9999 -9999 -9999 -9999 -9999 -9999 -9999 -9999 -9999 -9999 -9999 -9999 -9999 -9999 -9999 -9999 -9999 -9999 -9999 -9999 -9999 -9999 -9999 -9999 -9999 -9999 -9999 -9999 -9999 -9999 -9999 -9999 -9999 -9999 -9999 -9999 -9999 -9999 -9999 -9999 -9999 -9999 -9999 -9999 -9999 -9999 -9999 -9999 -9999 -9999 -9999 -9999 -9999
-9999 -9999 -9999 -9999 -9999 -9999 -9999 -9999 -9999 -9999 -9999 -9999 -9999 -9999 -9999 -9999 -9999 -9999 -9999 -9999 -9999 -9999 -9999 -9999 -9999 -9999 -9999 -9999 578.8088 576.0547 573.3243 570.8811 568.8052 566.9739 565.4664 564.3214 563.43 562.636 561.7479 560.5171 559.2418 558.3098 557.3776 556.3563 555.1397 553.2335 551.3557 549.6454 548.1461 546.7953 545.9922 545.4879 545.1566 544.9502 544.8611 544.8981 545.0763 545.4199 545.9565 546.6991 547.6624 548.7238 549.8961 551.3004 552.559 553.2524 553.879 554.4788 554.9652 555.3221 555.5431 555.5837 555.5714 555.5341 555.4486 555.2335 554.9683 554.6799 554.3473 553.9404 553.4237 552.7068 551.6705 550.6053 549.748 549.2078 548.8179 548.5249 548.3055 548.1412 548.0188 547.9315 547.8738 547.8436 547.8467 547.8829 547.9453 548.0344 548.1443 548.252 548.3379 548.4058 548.4797 548.5685 548.654 548.7166 548.7607 548.8201 548.921 549.0566 549.1989 549.3262 549.438 549.5555 549.7064 549.833 550.0846 550.4219 550.8173 551.2039 551.6041 552.1242 552.934 554.2482 555.7131 557.2272 558.8016 560.3754 561.9348 563.438 564.8206 566.0887 567.3029 568.1855 568.8615 569.2914 569.5546 569.769 570.1096 570.87 -9999 -9999 -9999 -9999 -9999 -9999 -9999 -9999 -9999 -9999 -9999 -9999 -9999 -9999 -9999 -9999 -9999 -9999 -9999 -9999 -9999 -9999 -9999 -9999 -9999 -9999 -9999 -9999 -9999 -9999 -9999 -9999 -9999 -9999 -9999 -9999 -9999 -9999 -9999 -9999 -9999 -9999 -9999 -9999 -9999 -9999 -9999 -9999 -9999 -9999 -9999 -9999 -9999 -9999 -9999 -9999 -9999 -9999
-9999 -9999 -9999 -9999 -9999 -9999 -9999 -9999 -9999 -9999 -9999 -9999 -9999 -9999 -9999 -9999 -9999 -9999 -9999 -9999 -9999 -9999 -9999 -9999 -9999 -9999 -9999 -9999 579.5923 576.767 573.9418 571.4698 569.4658 567.6655 566.0331 564.717 563.6663 562.7333 561.7218 560.389 559.0557 558.1126 557.2521 556.336 555.2561 553.4859 551.6633 549.8442 548.281 546.9644 546.2102 545.6875 545.3073 545.0384 544.8912 544.8857 545.0395 545.3754 545.9191 546.6844 547.6525 548.7222 549.9038 551.319 552.5973 553.35 553.9279 554.4306 554.8358 555.1315 555.3117 555.3665 555.3489 555.2787 555.1505 554.9357 554.6777 554.4037 554.0981 553.7317 553.2881 552.6265 551.5118 550.3974 549.6315 549.0732 548.6959 548.4319 548.2419 548.1017 547.9955 547.917 547.8644 547.8343 547.8304 547.8604 547.9202 548.0056 548.1157 548.2367 548.3455 548.4308 548.5044 548.5875 548.6782 548.7596 548.8223 548.8838 548.9757 549.1009 549.2357 549.3608 549.4747 549.5855 549.7109 549.8732 550.0789 550.3394 550.6559 551.009 551.4181 551.9699 552.8147 554.1295 555.5764 557.087 558.6951 560.2401 561.7547 563.0899 564.3127 565.4407 566.6669 567.7244 568.4689 568.9884 569.314 569.528 569.9241 570.4577 571.2081 -9999 -9999 -9999 -9999 -9999 -9999 -9999 -9999 -9999 -9999 -9999 -9999 -9999 -9999 -9999 -9999 -9999 -9999 -9999 -9999 -9999 -9999 -9999 -9999 -9999 -9999 -9999 -9999 -9999 -9999 -9999 -9999 -9999 -9999 -9999 -9999 -9999 -9999 -9999 -9999 -9999 -9999 -9999 -9999 -9999 -9999 -9999 -9999 -9999 -9999 -9999 -9999 -9999 -9999 -9999 -9999 -9999
-9999 -9999 -9999 -9999 -9999 -9999 -9999 -9999 -9999 -9999 -9999 -9999 -9999 -9999 -9999 -9999 -9999 -9999 -9999 -9999 -9999 -9999 -9999 -9999 -9999 -9999 -9999 -9999 580.1422 577.2888 574.4329 571.897 569.8226 568.0058 566.3123 564.9241 563.7996 562.7981 561.7355 560.3973 559.057 558.1122 557.2594 556.3594 555.4435 553.906 552.1094 550.1732 548.6061 547.3618 546.5465 545.9274 545.473 545.1318 544.9126 544.8465 544.9545 545.2578 545.7783 546.5239 547.3907 548.528 549.8368 551.302 552.6243 553.4417 553.9962 554.4144 554.7316 554.9592 555.1017 555.1558 555.1384 555.056 554.9097 554.694 554.4364 554.1642 553.8591 553.4808 553.0642 552.4225 551.2308 550.0343 549.3522 548.8888 548.5726 548.352 548.1917 548.0724 547.9814 547.9111 547.8618 547.8334 547.8259 547.8473 547.9015 547.9816 548.0854 548.2088 548.3347 548.4442 548.5323 548.6139 548.7028 548.7933 548.8735 548.9467 549.037 549.1569 549.285 549.4018 549.5063 549.6036 549.71 549.8782 550.0859 550.3374 550.6191 550.9437 551.323 551.8181 552.516 553.5287 555.0562 556.6376 558.3246 559.8861 561.4211 562.6829 563.8452 564.92 565.9819 566.9815 567.8244 568.4735 568.9033 569.0867 569.5078 570.0328 570.7251 571.3721 -9999 -9999 -9999 -9999 -9999 -9999 -9999 -9999 -9999 -9999 -9999 -9999 -9999 -9999 -9999 -9999 -9999 -9999 -9999 -9999 -9999 -9999 -9999 -9999 -9999 -9999 -9999 -9999 -9999 -9999 -9999 -9999 -9999 -9999 -9999 -9999 -9999 -9999 -9999 -9999 -9999 -9999 -9999 -9999 -9999 -9999 -9999 -9999 -9999 -9999 -9999 -9999 -9999 -9999 -9999 -9999
-9999 -9999 -9999 -9999 -9999 -9999 -9999 -9999 -9999 -9999 -9999 -9999 -9999 -9999 -9999 -9999 -9999 -9999 -9999 -9999 -9999 -9999 -9999 -9999 -9999 -9999 -9999 -9999 580.4889 577.6177 574.7293 572.0687 569.8149 567.8936 566.2292 564.8938 563.8087 562.8354 561.8115 560.5795 559.2776 558.3494 557.5083 556.6749 555.7586 554.3958 552.6095 550.6732 549.0911 547.7758 546.7493 546.0891 545.5925 545.1942 544.9092 544.7775 544.8267 545.0715 545.5187 546.1624 546.9942 548.2816 549.7424 551.2572 552.628 553.4843 554.0165 554.367 554.6082 554.7766 554.8935 554.9454 554.9348 554.8597 554.7213 554.5185 554.2672 554.0008 553.7059 553.3278 552.8104 552.063 550.9491 549.8357 549.1781 548.759 548.4825 548.2944 548.1586 548.0544 547.9738 547.9113 547.864 547.8357 547.8264 547.8411 547.8873 547.9628 548.0603 548.1782 548.3104 548.4399 548.5524 548.6462 548.7358 548.8282 548.9185 549.0038 549.098 549.2152 549.3412 549.455 549.5521 549.6371 549.7118 549.884 550.097 550.3505 550.6321 550.9532 551.3173 551.7459 552.2976 553.0524 554.2881 555.8976 557.6108 559.2496 560.813 562.1577 563.3387 564.3342 565.1961 566.0217 566.7851 567.5934 568.1774 568.6102 569.0901 569.574 570.1092 570.7009 -9999 -9999 -9999 -9999 -9999 -9999 -9999 -9999 -9999 -9999 -9999 -9999 -9999 -9999 -9999 -9999 -9999 -9999 -9999 -9999 -9999 -9999 -9999 -9999 -9999 -9999 -9999 -9999 -9999 -9999 -9999 -9999 -9999 -9999 -9999 -9999 -9999 -9999 -9999 -9999 -9999 -9999 -9999 -9999 -9999 -9999 -9999 -9999 -9999 -9999 -9999 -9999 -9999 -9999 -9999 -9999
-9999 -9999 -9999 -9999 -9999 -9999 -9999 -9999 -9999 -9999 -9999 -9999 -9999 -9999 -9999 -9999 -9999 -9999 -9999 -9999 -9999 -9999 -9999 -9999 -9999 -9999 -9999 -9999 580.7419 577.7823 574.7899 571.9695 569.4953 567.3926 565.8668 564.6902 563.7396 562.8842 561.9889 560.9796 559.7736 558.7423 557.8588 557.0573 556.1902 555.017 553.2774 551.4704 549.8032 548.342 547.072 546.2913 545.708 545.2393 544.8914 544.6996 544.694 544.8895 545.293 545.9149 546.804 548.1531 549.6965 551.2483 552.6315 553.4858 553.9775 554.2645 554.4424 554.5627 554.6683 554.728 554.7307 554.6767 554.565 554.3953 554.1638 553.9061 553.6253 553.2662 552.7336 551.877 550.7971 549.7671 549.1185 548.7104 548.446 548.2681 548.1429 548.0483 547.973 547.9141 547.8696 547.8403 547.8293 547.8391 547.8768 547.9462 548.0398 548.1527 548.2834 548.4244 548.5587 548.6762 548.7766 548.8732 548.9672 549.0594 549.1576 549.2727 549.3973 549.5126 549.6136 549.709 549.7861 549.9355 550.1351 550.3799 550.6475 550.9535 551.3311 551.7664 552.2677 552.8523 553.5956 555.1657 556.8806 558.6223 560.232 561.699 562.8505 563.7583 564.4765 564.9725 565.447 566.1545 567.1494 567.9903 568.83 569.1801 569.6323 570.0532 570.4488 -9999 -9999 -9999 -9999 -9999 -9999 -9999 -9999 -9999 -9999 -9999 -9999 -9999 -9999 -9999 -9999 -9999 -9999 -9999 -9999 -9999 -9999 -9999 -9999 -9999 -9999 -9999 -9999 -9999 -9999 -9999 -9999 -9999 -9999 -9999 -9999 -9999 -9999 -9999 -9999 -9999 -9999 -9999 -9999 -9999 -9999 -9999 -9999 -9999 -9999 -9999 -9999 -9999 -9999 -9999
-9999 -9999 -9999 -9999 -9999 -9999 -9999 -9999 -9999 -9999 -9999 -9999 -9999 -9999 -9999 -9999 -9999 -9999 -9999 -9999 -9999 -9999 -9999 -9999 -9999 -9999 -9999 -9999 581.0429 577.9178 574.7491 571.7739 569.1713 566.9828 565.5013 564.4564 563.662 562.9731 562.2786 561.467 560.2109 559.0162 558.1544 557.3938 556.5753 555.5179 554.009 552.3428 550.6512 549.1039 547.6795 546.6347 545.8849 545.3101 544.89 544.6436 544.5951 544.7618 545.1547 545.7961 546.7428 548.1116 549.6763 551.2238 552.6241 553.4481 553.8796 554.1011 554.2342 554.3333 554.4257 554.4966 554.5201 554.4949 554.4179 554.2896 554.096 553.8456 553.5631 553.2141 552.6984 551.7804 550.7186 549.7555 549.1211 548.713 548.4482 548.2698 548.1429 548.0494 547.9771 547.9196 547.8757 547.846 547.8333 547.8403 547.8712 547.932 548.0214 548.132 548.2611 548.4064 548.5573 548.6971 548.8199 548.9261 549.0265 549.1212 549.2194 549.3304 549.4493 549.5607 549.6514 549.7108 549.8265 549.9816 550.1783 550.4131 550.6647 550.9504 551.3325 551.7917 552.3072 552.8439 553.1779 554.4718 556.1519 557.9492 559.5641 561.1282 562.2729 563.078 563.6112 563.9701 564.3694 564.9893 565.8955 567.095 568.3284 568.6668 569.2828 569.8031 570.1536 570.8846 571.4863 -9999 -9999 -9999 -9999 -9999 -9999 -9999 -9999 -9999 -9999 -9999 -9999 -9999 -9999 -9999 -9999 -9999 -9999 -9999 -9999 -9999 -9999 -9999 -9999 -9999 -9999 -9999 -9999 -9999 -9999 -9999 -9999 -9999 -9999 -9999 -9999 -9999 -9999 -9999 -9999 -9999 -9999 -9999 -9999 -9999 -9999 -9999 -9999 -9999 -9999 -9999 -9999 -9999
-9999 -9999 -9999 -9999 -9999 -9999 -9999 -9999 -9999 -9999 -9999 -9999 -9999 -9999 -9999 -9999 -9999 -9999 -9999 -9999 -9999 -9999 -9999 -9999 -9999 -9999 -9999 -9999 581.4668 578.1208 574.7574 571.624 568.9134 566.6793 565.2087 564.2623 563.5912 563.0211 562.4359 561.6998 560.495 559.2604 558.4359 557.6948 556.9075 555.9266 554.6564 553.0891 551.4247 549.7557 548.2529 547.0147 546.1393 545.4404 544.9349 544.6359 544.5541 544.7047 545.1005 545.7609 546.7324 548.0929 549.6569 551.2175 552.6121 553.3707 553.7209 553.8733 553.9803 554.0721 554.1647 554.2491 554.3024 554.3046 554.2634 554.1713 554.0215 553.7797 553.4667 553.0786 552.5724 551.6338 550.6251 549.7483 549.1477 548.7368 548.4636 548.2805 548.1514 548.0551 547.9821 547.9256 547.882 547.8513 547.8367 547.8427 547.8702 547.9241 548.0074 548.116 548.2451 548.3932 548.5538 548.7136 548.8579 548.9836 549.0922 549.1921 549.2882 549.3914 549.502 549.6101 549.7094 549.7715 549.8825 550.0216 550.2051 550.4249 550.6633 550.931 551.2948 551.7204 552.158 552.491 552.8396 553.8845 555.523 557.3716 558.9221 560.3158 561.5732 562.3497 562.7437 563.0061 563.3989 564.0084 564.9534 566.2462 567.5974 568.3362 569.0962 569.8371 570.2806 570.8874 571.2076 571.6942 -9999 -9999 -9999 -9999 -9999 -9999 -9999 -9999 -9999 -9999 -9999 -9999 -9999 -9999 -9999 -9999 -9999 -9999 -9999 -9999 -9999 -9999 -9999 -9999 -9999 -9999 -9999 -9999 -9999 -9999 -9999 -9999 -9999 -9999 -9999 -9999 -9999 -9999 -9999 -9999 -9999 -9999 -9999 -9999 -9999 -9999 -9999 -9999 -9999 -9999 -9999 -9999
-9999 -9999 -9999 -9999 -9999 -9999 -9999 -9999 -9999 -9999 -9999 -9999 -9999 -9999 -9999 -9999 -9999 -9999 -9999 -9999 -9999 -9999 -9999 -9999 -9999 -9999 -9999 -9999 582.0772 578.4798 574.8903 571.5601 568.7083 566.4307 564.9988 564.153 563.5612 563.0349 562.4805 561.7969 560.7388 559.6305 558.759 557.9918 557.2545 556.4066 555.3428 553.8831 552.2434 550.4724 548.9507 547.6446 546.5298 545.6473 545.0406 544.6879 544.5777 544.7147 545.1096 545.771 546.7251 548.0229 549.5286 551.0588 552.5165 553.225 553.4872 553.5897 553.6897 553.7917 553.8969 553.9986 554.0771 554.1141 554.0995 554.0367 553.9087 553.6915 553.3315 552.8236 552.2126 551.3441 550.4489 549.7203 549.1553 548.7502 548.4716 548.2842 548.1554 548.0615 547.9888 547.9315 547.8876 547.8557 547.8391 547.8431 547.8715 547.9233 548.0022 548.1088 548.2389 548.3898 548.5573 548.7301 548.8943 549.0383 549.1614 549.267 549.3636 549.4583 549.5544 549.6417 549.7106 549.8015 549.9102 550.0536 550.2123 550.4031 550.6274 550.889 551.2039 551.5193 551.8451 552.1303 552.4841 553.2498 554.7173 556.4805 558.1988 559.5878 560.7701 561.6014 561.9113 562.0929 562.5081 563.0494 563.9442 565.1519 566.4647 567.5718 568.5211 569.3895 570.0087 570.5685 570.988 571.3508 -9999 -9999 -9999 -9999 -9999 -9999 -9999 -9999 -9999 -9999 -9999 -9999 -9999 -9999 -9999 -9999 -9999 -9999 -9999 -9999 -9999 -9999 -9999 -9999 -9999 -9999 -9999 -9999 -9999 -9999 -9999 -9999 -9999 -9999 -9999 -9999 -9999 -9999 -9999 -9999 -9999 -9999 -9999 -9999 -9999 -9999 -9999 -9999 -9999 -9999 -9999 -9999
-9999 -9999 -9999 -9999 -9999 -9999 -9999 -9999 -9999 -9999 -9999 -9999 -9999 -9999 -9999 -9999 -9999 -9999 -9999 -9999 -9999 -9999 -9999 -9999 -9999 -9999 -9999 -9999 582.8498 579.0267 575.2054 571.6729 568.6418 566.2638 564.9136 564.1877 563.629 563.0734 562.4903 561.8458 560.9321 559.8883 558.9293 558.2197 557.5673 556.8223 555.8672 554.5987 553.0228 551.3381 549.7198 548.3041 546.8641 545.8551 545.1826 544.7914 544.6564 544.7761 545.1577 545.7997 546.6993 547.8632 549.2193 550.6703 552.2772 552.9847 553.179 553.283 553.3784 553.5057 553.6377 553.7574 553.855 553.9182 553.9342 553.8972 553.7952 553.5968 553.2594 552.7289 551.9493 551.0425 550.1937 549.6358 549.1149 548.7263 548.4578 548.2764 548.1526 548.0641 547.9961 547.9398 547.8932 547.859 547.8399 547.8423 547.8715 547.927 548.0067 548.1136 548.2468 548.4022 548.575 548.7569 548.9338 549.0941 549.2303 549.3447 549.4436 549.5359 549.6258 549.7099 549.7805 549.8572 549.9415 550.0549 550.1894 550.3487 550.5532 550.8018 551.0547 551.3159 551.6154 551.9054 552.2667 552.8842 554.033 555.6918 557.3461 558.7661 559.9037 560.7411 561.1799 561.4532 561.8091 562.1511 562.9087 563.9135 565.0841 566.2922 567.4794 568.6037 569.441 570.1021 570.7585 571.193 571.937 -9999 -9999 -9999 -9999 -9999 -9999 -9999 -9999 -9999 -9999 -9999 -9999 -9999 -9999 -9999 -9999 -9999 -9999 -9999 -9999 -9999 -9999 -9999 -9999 -9999 -9999 -9999 -9999 -9999 -9999 -9999 -9999 -9999 -9999 -9999 -9999 -9999 -9999 -9999 -9999 -9999 -9999 -9999 -9999 -9999 -9999 -9999 -9999 -9999 -9999 -9999
-9999 -9999 -9999 -9999 -9999 -9999 -9999 -9999 -9999 -9999 -9999 -9999 -9999 -9999 -9999 -9999 -9999 -9999 -9999 -9999 -9999 -9999 -9999 -9999 -9999 -9999 -9999 -9999 583.7068 579.706 575.6819 571.9676 568.8403 566.4806 565.0531 564.3956 563.8073 563.2004 562.608 561.9669 561.2061 560.2008 559.1721 558.4973 557.9059 557.2391 556.4066 555.3292 553.8549 552.2006 550.4246 548.8032 547.2221 546.1289 545.3907 544.9561 544.786 544.8721 545.2175 545.819 546.6499 547.6478 548.8708 550.2878 551.9033 552.6737 552.821 552.9699 553.0598 553.2173 553.3885 553.534 553.64 553.7172 553.7603 553.7535 553.6826 553.5191 553.2125 552.6884 551.797 550.8134 549.8759 549.4008 548.9968 548.6686 548.4269 548.2614 548.1495 548.0697 548.0062 547.951 547.9017 547.8621 547.8396 547.8401 547.8707 547.9324 548.02 548.132 548.2704 548.4331 548.6132 548.8022 548.9879 549.1572 549.3033 549.4249 549.5276 549.6203 549.71 549.7953 549.8737 549.9476 550.0147 550.091 550.1998 550.3308 550.4996 550.7303 550.9683 551.2334 551.5265 551.8544 552.2386 552.7552 553.4574 555.0123 556.5651 557.9789 559.1532 560.0693 560.6093 560.9372 561.2332 561.5578 562.0309 562.7908 563.65 564.7778 566.009 567.4224 568.649 569.5117 570.2377 571.0548 572.0325 -9999 -9999 -9999 -9999 -9999 -9999 -9999 -9999 -9999 -9999 -9999 -9999 -9999 -9999 -9999 -9999 -9999 -9999 -9999 -9999 -9999 -9999 -9999 -9999 -9999 -9999 -9999 -9999 -9999 -9999 -9999 -9999 -9999 -9999 -9999 -9999 -9999 -9999 -9999 -9999 -9999 -9999 -9999 -9999 -9999 -9999 -9999 -9999 -9999 -9999 -9999
-9999 -9999 -9999 -9999 -9999 -9999 -9999 -9999 -9999 -9999 -9999 -9999 -9999 -9999 -9999 -9999 -9999 -9999 -9999 -9999 -9999 -9999 -9999 -9999 -9999 -9999 -9999 -9999 584.532 580.4006 576.2056 572.3363 569.1493 566.8124 565.2836 564.4974 563.8875 563.3259 562.8004 562.2657 561.6537 560.7084 559.7266 558.9388 558.3152 557.6508 556.8694 555.8821 554.6012 553.0248 551.3066 549.5553 547.8831 546.5875 545.7178 545.2054 544.9756 544.9971 545.2672 545.7852 546.5202 547.3242 548.4191 549.7557 551.2124 552.3182 552.7034 552.7589 552.7739 552.9606 553.1625 553.326 553.4333 553.5068 553.5676 553.5945 553.5634 553.4442 553.1863 552.7124 551.8936 550.886 549.9047 549.3923 548.9744 548.6478 548.4164 548.2622 548.1609 548.0891 548.0287 547.9705 547.9146 547.8673 547.8392 547.8387 547.8708 547.9395 548.0397 548.1644 548.3124 548.4839 548.6732 548.8704 549.0625 549.2373 549.3868 549.5111 549.6158 549.7101 549.8022 549.8925 549.9782 550.0573 550.1199 550.1733 550.2469 550.3612 550.4957 550.6827 550.9119 551.1783 551.5248 551.8907 552.3122 552.7983 553.1458 554.4425 555.9698 557.4527 558.7897 559.7133 560.2615 560.5899 560.8547 561.154 561.5481 561.9733 562.4855 563.4862 564.7212 566.1663 567.7823 569.0384 570.1125 571.2645 572.5269 573.6584 -9999 -9999 -9999 -9999 -9999 -9999 -9999 -9999 -9999 -9999 -9999 -9999 -9999 -9999 -9999 -9999 -9999 -9999 -9999 -9999 -9999 -9999 -9999 -9999 -9999 -9999 -9999 -9999 -9999 -9999 -9999 -9999 -9999 -9999 -9999 -9999 -9999 -9999 -9999 -9999 -9999 -9999 -9999 -9999 -9999 -9999 -9999 -9999 -9999 -9999
-9999 -9999 -9999 -9999 -9999 -9999 -9999 -9999 -9999 -9999 -9999 -9999 -9999 -9999 -9999 -9999 -9999 -9999 -9999 -9999 -9999 -9999 -9999 -9999 -9999 -9999 -9999 -9999 585.2775 581.0652 576.7612 572.7957 569.5977 567.35 565.8188 564.8278 564.0875 563.5039 563.0059 562.5165 561.9436 561.1977 560.3033 559.4705 558.7573 558.0494 557.3039 556.4354 555.3621 553.9321 552.3011 550.4666 548.6836 547.1664 546.1743 545.5618 545.2403 545.16 545.3051 545.6655 546.2036 546.8642 547.8612 549.0754 550.332 551.4899 552.1276 552.4011 552.556 552.759 552.9658 553.1346 553.2217 553.2832 553.3546 553.4116 553.428 553.3679 553.1797 552.7916 552.1724 551.2336 550.2815 549.6198 549.0669 548.6901 548.4502 548.3021 548.2073 548.1373 548.0732 548.0055 547.9367 547.8775 547.8409 547.8383 547.8748 547.9514 548.0657 548.2089 548.3735 548.5573 548.7563 548.9612 549.1589 549.3362 549.4852 549.6069 549.7101 549.8069 549.9004 549.9966 550.092 550.1768 550.2401 550.2813 550.3182 550.4088 550.5277 550.6861 550.8789 551.1274 551.4615 551.8074 552.192 552.5093 552.9365 554.144 555.7183 557.2819 558.6944 559.5684 560.0646 560.3662 560.6079 560.9055 561.2882 561.6989 561.938 562.6387 563.7784 565.3157 567.1489 568.7621 570.2211 571.7147 573.1505 574.126 -9999 -9999 -9999 -9999 -9999 -9999 -9999 -9999 -9999 -9999 -9999 -9999 -9999 -9999 -9999 -9999 -9999 -9999 -9999 -9999 -9999 -9999 -9999 -9999 -9999 -9999 -9999 -9999 -9999 -9999 -9999 -9999 -9999 -9999 -9999 -9999 -9999 -9999 -9999 -9999 -9999 -9999 -9999 -9999 -9999 -9999 -9999 -9999 -9999 -9999
