ncols         208
nrows         58
xllcorner     241200
yllcorner     6127050
cellsize      50
NODATA_value  -9999
-9999 -9999 -9999 -9999 -9999 -9999 -9999 -9999 -9999 -9999 -9999 -9999 -9999 -9999 -9999 -9999 -9999 -9999 -9999 -9999 -9999 -9999 665.6472 664.9386 664.1633 663.4796 662.7816 661.9597 661.4193 661.0658 660.8447 660.6984 660.5845 660.4872 660.4005 660.3284 660.2788 660.1909 660.0762 659.9364 659.7794 659.6107 659.4357 659.2589 659.085 658.918 658.7616 658.619 658.491 658.3784 658.2803 658.1927 658.115 658.0519 658.0012 657.9612 657.9314 657.9139 657.9066 657.9062 657.9091 657.9121 657.9124 657.9104 657.906 657.8995 657.892 657.8856 657.8806 657.8766 657.8732 657.8711 657.8689 657.8661 657.8682 657.8802 657.8909 657.9104 657.943 657.985 658.0382 658.1046 658.1791 658.2556 658.3367 658.4363 658.5555 658.6897 658.8329 658.9752 659.1097 659.228 659.314 659.3626 659.3754 659.361 659.3259 659.2747 659.2242 659.1859 659.1486 659.1068 659.0728 659.0806 659.1385 659.2548 659.4554 659.7679 660.2008 660.6777 661.2046 661.5812 661.8885 662.1454 662.3904 662.6682 662.9057 662.9338 663.2211 664.0252 665.3969 666.8396 668.0768 669.1083 670.178 671.3766 -9999 -9999 -9999 -9999 -9999 -9999 -9999 -9999 -9999 -9999 -9999 -9999 -9999 -9999 -9999 -9999 -9999 -9999 -9999 -9999 -9999 -9999 -9999 -9999 -9999 -9999 -9999 -9999 -9999 -9999 -9999 -9999 -9999 -9999 -9999 -9999 -9999 -9999 -9999 -9999 -9999 -9999 -9999 -9999 -9999 -9999 -9999 -9999 -9999 -9999 -9999 -9999 -9999 -9999 -9999 -9999 -9999 -9999 -9999 -9999 -9999 -9999 -9999 -9999 -9999 -9999 -9999 -9999 -9999 -9999 -9999 -9999 -9999 -9999 -9999 -9999 -9999 -9999 -9999 -9999 -9999 -9999
-9999 -9999 -9999 -9999 -9999 -9999 -9999 -9999 -9999 -9999 -9999 -9999 -9999 -9999 -9999 -9999 -9999 -9999 -9999 -9999 -9999 -9999 -9999 665.3926 664.4611 663.6561 662.8416 661.985 661.4446 661.0929 660.8903 660.7549 660.6378 660.5324 660.4338 660.3508 660.2809 660.2281 660.1295 659.9967 659.8406 659.6699 659.4905 659.3074 659.1235 658.9459 658.7803 658.6293 658.4933 658.3724 658.2666 658.1717 658.0862 658.0128 657.9518 657.9003 657.8558 657.8271 657.8105 657.8022 657.7991 657.7977 657.796 657.7927 657.7883 657.7822 657.775 657.7682 657.7634 657.7601 657.7576 657.7561 657.7556 657.7531 657.7529 657.7616 657.7811 657.8044 657.8375 657.8785 657.9319 658.0027 658.0874 658.1798 658.2761 658.3804 658.502 658.6359 658.7771 658.9187 659.0546 659.1787 659.2795 659.3426 659.3658 659.3572 659.3239 659.2792 659.2184 659.1613 659.1105 659.0609 659.0238 659.0027 659.0061 659.0345 659.1172 659.2928 659.5668 659.8981 660.2633 660.5724 660.921 661.2516 661.5649 661.8924 662.1567 662.2829 662.6127 663.3473 664.5463 666.0667 667.4836 668.6954 669.7986 670.8871 671.9719 -9999 -9999 -9999 -9999 -9999 -9999 -9999 -9999 -9999 -9999 -9999 -9999 -9999 -9999 -9999 -9999 -9999 -9999 -9999 -9999 -9999 -9999 -9999 -9999 -9999 -9999 -9999 -9999 -9999 -9999 -9999 -9999 -9999 -9999 -9999 -9999 -9999 -9999 -9999 -9999 -9999 -9999 -9999 -9999 -9999 -9999 -9999 -9999 -9999 -9999 -9999 -9999 -9999 -9999 -9999 -9999 -9999 -9999 -9999 -9999 -9999 -9999 -9999 -9999 -9999 -9999 -9999 -9999 -9999 -9999 -9999 -9999 -9999 -9999 -9999 -9999 -9999 -9999 -9999 -9999 -9999
-9999 -9999 -9999 -9999 -9999 -9999 -9999 -9999 -9999 -9999 -9999 -9999 -9999 -9999 -9999 -9999 -9999 -9999 -9999 -9999 -9999 -9999 -9999 665.8422 664.8126 663.8431 662.9007 662.0295 661.4906 661.1201 660.9368 660.7924 660.6659 660.5527 660.4535 660.3751 660.3188 660.279 660.1807 660.051 659.8964 659.7242 659.5419 659.3545 659.1643 658.9789 658.8066 658.65 658.5087 658.3807 658.2673 658.1659 658.0728 657.989 657.9178 657.8559 657.7951 657.7556 657.7289 657.7119 657.7014 657.6946 657.6892 657.6842 657.6786 657.6724 657.6654 657.6583 657.6531 657.6501 657.6486 657.6472 657.6463 657.6436 657.6415 657.6483 657.6678 657.6978 657.7328 657.7753 657.825 657.8903 657.974 658.0719 658.1799 658.2957 658.4221 658.5616 658.7071 658.8531 658.9914 659.1194 659.2301 659.3129 659.3557 659.3575 659.3313 659.2847 659.2327 659.1681 659.1025 659.0428 658.9972 658.9707 658.9501 658.9351 658.9453 659.0217 659.1787 659.4026 659.672 659.9591 660.2827 660.6146 660.9053 661.227 661.4536 661.6831 662.0727 662.7382 663.7194 665.1506 666.6539 668.023 669.2152 670.252 671.2018 -9999 -9999 -9999 -9999 -9999 -9999 -9999 -9999 -9999 -9999 -9999 -9999 -9999 -9999 -9999 -9999 -9999 -9999 -9999 -9999 -9999 -9999 -9999 -9999 -9999 -9999 -9999 -9999 -9999 -9999 -9999 -9999 -9999 -9999 -9999 -9999 -9999 -9999 -9999 -9999 -9999 -9999 -9999 -9999 -9999 -9999 -9999 -9999 -9999 -9999 -9999 -9999 -9999 -9999 -9999 -9999 -9999 -9999 -9999 -9999 -9999 -9999 -9999 -9999 -9999 -9999 -9999 -9999 -9999 -9999 -9999 -9999 -9999 -9999 -9999 -9999 -9999 -9999 -9999 -9999 -9999
-9999 -9999 -9999 -9999 -9999 -9999 -9999 -9999 -9999 -9999 -9999 -9999 -9999 -9999 -9999 -9999 -9999 -9999 -9999 -9999 -9999 -9999 -9999 666.1366 665.0002 663.9267 662.9168 662.043 661.5205 661.139 660.985 660.8394 660.6958 660.5677 660.4626 660.384 660.3279 660.2801 660.2081 660.0945 659.9453 659.7736 659.5895 659.3997 659.2063 659.0165 658.8402 658.681 658.5365 658.4012 658.2794 658.1708 658.071 657.9747 657.8926 657.8208 657.7538 657.7014 657.6625 657.6352 657.6165 657.6031 657.593 657.585 657.5774 657.5699 657.5626 657.5555 657.55 657.5471 657.5464 657.5458 657.5435 657.539 657.535 657.5393 657.5579 657.5887 657.6251 657.6678 657.7168 657.7756 657.8513 657.9447 658.0538 658.1766 658.3108 658.4561 658.609 658.7623 658.9104 659.0431 659.1619 659.2583 659.3251 659.3506 659.336 659.2964 659.2417 659.1815 659.1144 659.0453 658.9869 658.9534 658.9281 658.8971 658.8695 658.8846 658.9629 659.1078 659.3126 659.5697 659.8676 660.1729 660.3666 660.6295 660.8413 661.1457 661.621 662.301 663.1998 664.3615 665.8195 667.2986 668.5922 669.5657 670.3545 671.0836 671.5938 671.648 671.1538 -9999 -9999 -9999 -9999 -9999 -9999 -9999 -9999 -9999 -9999 -9999 -9999 -9999 -9999 -9999 -9999 -9999 -9999 -9999 -9999 -9999 -9999 -9999 -9999 -9999 -9999 -9999 -9999 -9999 -9999 -9999 -9999 -9999 -9999 -9999 -9999 -9999 -9999 -9999 -9999 -9999 -9999 -9999 -9999 -9999 -9999 -9999 -9999 -9999 -9999 -9999 -9999 -9999 -9999 -9999 -9999 -9999 -9999 -9999 -9999 -9999 -9999 -9999 -9999 -9999 -9999 -9999 -9999 -9999 -9999 -9999 -9999 -9999 -9999 -9999 -9999 -9999
-9999 -9999 -9999 -9999 -9999 -9999 -9999 -9999 -9999 -9999 -9999 -9999 -9999 -9999 -9999 -9999 -9999 -9999 -9999 -9999 -9999 -9999 -9999 -9999 665.1163 663.9839 662.9219 661.9695 661.3231 661.3013 661.1457 660.9391 660.7454 660.5873 660.4683 660.385 660.3276 660.2803 660.2369 660.1365 659.9898 659.8186 659.6346 659.4447 659.2502 659.0583 658.8798 658.7197 658.5733 658.4275 658.2947 658.1774 658.0738 657.9636 657.8724 657.7943 657.7214 657.6591 657.609 657.5715 657.5439 657.5234 657.5076 657.4952 657.485 657.4755 657.4668 657.4591 657.4541 657.4514 657.4513 657.4512 657.4467 657.4399 657.4337 657.4356 657.4512 657.48 657.5114 657.5522 657.6021 657.6589 657.7266 657.8116 657.9141 658.0342 658.1704 658.3198 658.4786 658.64 658.7968 658.9425 659.0685 659.1765 659.2612 659.3137 659.3248 659.2991 659.2504 659.1896 659.1219 659.0519 658.9874 658.9418 658.9151 658.881 658.8405 658.8207 658.8513 658.9368 659.0876 659.2989 659.554 659.8032 660.0015 660.2086 660.3532 660.6917 661.2239 661.9463 662.8176 663.8938 665.0903 666.5152 667.8537 668.7698 669.4101 669.9987 670.4115 670.4645 670.0493 669.4273 668.7598 668.1572 -9999 -9999 -9999 -9999 -9999 -9999 -9999 -9999 -9999 -9999 -9999 -9999 -9999 -9999 -9999 -9999 -9999 -9999 -9999 -9999 -9999 -9999 -9999 -9999 -9999 -9999 -9999 -9999 -9999 -9999 -9999 -9999 -9999 -9999 -9999 -9999 -9999 -9999 -9999 -9999 -9999 -9999 -9999 -9999 -9999 -9999 -9999 -9999 -9999 -9999 -9999 -9999 -9999 -9999 -9999 -9999 -9999 -9999 -9999 -9999 -9999 -9999 -9999 -9999 -9999 -9999 -9999 -9999 -9999 -9999 -9999 -9999 -9999 -9999
-9999 -9999 -9999 -9999 -9999 -9999 -9999 -9999 -9999 -9999 -9999 -9999 -9999 -9999 -9999 -9999 -9999 -9999 -9999 -9999 -9999 -9999 -9999 -9999 665.2912 664.1876 663.1351 662.1447 661.4431 661.684 661.3722 661.0581 660.8033 660.6115 660.4763 660.3887 660.3367 660.3062 660.2792 660.181 660.0295 659.8594 659.6788 659.4917 659.2984 659.1041 658.922 658.7593 658.6114 658.449 658.2987 658.1665 658.052 657.9438 657.8526 657.7724 657.6947 657.6251 657.5668 657.5203 657.4841 657.4559 657.4337 657.416 657.4014 657.3893 657.3786 657.37 657.3641 657.3625 657.3632 657.3633 657.3553 657.3452 657.3369 657.3361 657.3463 657.3663 657.3928 657.43 657.4783 657.5357 657.6011 657.6779 657.7719 657.8835 658.0134 658.1603 658.3195 658.4856 658.6494 658.8057 658.9448 659.064 659.162 659.2371 659.2783 659.2784 659.2452 659.1904 659.1248 659.053 658.9832 658.928 658.8966 658.8682 658.8286 658.794 658.7959 658.8416 658.9419 659.1049 659.3178 659.5315 659.7161 659.8777 660.0184 660.3027 660.7947 661.4752 662.1748 663.0958 664.1971 665.4835 666.8651 667.8063 668.3392 668.762 669.0671 669.1189 668.8438 668.4077 667.9865 667.5923 667.3714 -9999 -9999 -9999 -9999 -9999 -9999 -9999 -9999 -9999 -9999 -9999 -9999 -9999 -9999 -9999 -9999 -9999 -9999 -9999 -9999 -9999 -9999 -9999 -9999 -9999 -9999 -9999 -9999 -9999 -9999 -9999 -9999 -9999 -9999 -9999 -9999 -9999 -9999 -9999 -9999 -9999 -9999 -9999 -9999 -9999 -9999 -9999 -9999 -9999 -9999 -9999 -9999 -9999 -9999 -9999 -9999 -9999 -9999 -9999 -9999 -9999 -9999 -9999 -9999 -9999 -9999 -9999 -9999 -9999 -9999 -9999 -9999 -9999
-9999 -9999 -9999 -9999 -9999 -9999 -9999 -9999 -9999 -9999 -9999 -9999 -9999 -9999 -9999 -9999 -9999 -9999 -9999 -9999 -9999 -9999 -9999 -9999 665.7007 664.7169 663.7632 662.8069 662.0106 661.6415 661.4194 661.1315 660.8608 660.6465 660.4946 660.3987 660.3451 660.3147 660.2805 660.2154 660.061 659.8986 659.7265 659.5454 659.3528 659.1539 658.9631 658.7885 658.6252 658.4589 658.2998 658.1573 658.0339 657.9268 657.8343 657.7512 657.6718 657.5991 657.535 657.4815 657.4373 657.4011 657.3714 657.3473 657.3276 657.3113 657.298 657.2875 657.2803 657.2776 657.2787 657.2798 657.2666 657.2539 657.2444 657.2418 657.2476 657.2607 657.2796 657.3093 657.3513 657.4052 657.4692 657.5425 657.6281 657.7308 657.8503 657.9882 658.1414 658.3049 658.4716 658.6335 658.7854 658.9158 659.0288 659.1195 659.1861 659.2192 659.2132 659.1758 659.1179 659.051 658.9799 658.9161 658.8712 658.8457 658.8153 658.7837 658.7727 658.7961 658.8572 658.9738 659.1432 659.3389 659.5118 659.6563 659.7784 659.9613 660.2649 660.6891 661.3107 662.1497 663.1915 664.408 665.6975 666.6236 667.1245 667.4105 667.6006 667.6307 667.5353 667.4236 667.2834 667.0865 667.0369 667.2048 -9999 -9999 -9999 -9999 -9999 -9999 -9999 -9999 -9999 -9999 -9999 -9999 -9999 -9999 -9999 -9999 -9999 -9999 -9999 -9999 -9999 -9999 -9999 -9999 -9999 -9999 -9999 -9999 -9999 -9999 -9999 -9999 -9999 -9999 -9999 -9999 -9999 -9999 -9999 -9999 -9999 -9999 -9999 -9999 -9999 -9999 -9999 -9999 -9999 -9999 -9999 -9999 -9999 -9999 -9999 -9999 -9999 -9999 -9999 -9999 -9999 -9999 -9999 -9999 -9999 -9999 -9999 -9999 -9999 -9999 -9999 -9999
-9999 -9999 -9999 -9999 -9999 -9999 -9999 -9999 -9999 -9999 -9999 -9999 -9999 -9999 -9999 -9999 -9999 -9999 -9999 -9999 -9999 -9999 -9999 -9999 -9999 665.4483 664.6334 663.7379 662.868 662.1925 661.7495 661.325 660.9819 660.7226 660.5406 660.4258 660.3634 660.3348 660.316 660.2744 660.0982 659.9522 659.7922 659.6125 659.4167 659.2114 659.009 658.8205 658.6443 658.4731 658.3098 658.1618 658.034 657.9238 657.8287 657.7405 657.6575 657.5811 657.5133 657.4546 657.4028 657.3588 657.3209 657.2899 657.2635 657.2424 657.2251 657.2117 657.2018 657.1954 657.192 657.1877 657.1758 657.1655 657.1566 657.153 657.1558 657.1638 657.1766 657.1971 657.2302 657.2761 657.334 657.4031 657.4831 657.5765 657.6864 657.8123 657.9547 658.1096 658.2723 658.4346 658.5909 658.7354 658.8578 658.9645 659.05 659.1101 659.1378 659.1309 659.0941 659.0392 658.9763 658.9118 658.8593 658.8228 658.7978 658.7762 658.7661 658.7833 658.8246 658.9042 659.0354 659.2052 659.3784 659.5188 659.6194 659.7128 659.8516 660.0903 660.513 661.2184 662.1462 663.2333 664.3577 665.2955 665.7943 665.9612 665.9797 665.9684 666.0748 666.3426 666.5663 666.6349 666.7512 666.9774 667.2611 -9999 -9999 -9999 -9999 -9999 -9999 -9999 -9999 -9999 -9999 -9999 -9999 -9999 -9999 -9999 -9999 -9999 -9999 -9999 -9999 -9999 -9999 -9999 -9999 -9999 -9999 -9999 -9999 -9999 -9999 -9999 -9999 -9999 -9999 -9999 -9999 -9999 -9999 -9999 -9999 -9999 -9999 -9999 -9999 -9999 -9999 -9999 -9999 -9999 -9999 -9999 -9999 -9999 -9999 -9999 -9999 -9999 -9999 -9999 -9999 -9999 -9999 -9999 -9999 -9999 -9999 -9999 -9999 -9999 -9999 -9999
-9999 -9999 -9999 -9999 -9999 -9999 -9999 -9999 -9999 -9999 -9999 -9999 -9999 -9999 -9999 -9999 -9999 -9999 -9999 -9999 -9999 -9999 -9999 -9999 -9999 666.3817 665.6472 664.7909 663.865 662.9836 662.2205 661.6328 661.1909 660.8621 660.6295 660.4789 660.3939 660.3528 660.3273 660.2809 660.1846 660.0451 659.8782 659.6906 659.4871 659.2769 659.0645 658.8634 658.6765 658.5011 658.3353 658.184 658.0538 657.9413 657.8423 657.7441 657.6534 657.5723 657.5009 657.4382 657.3785 657.328 657.282 657.2441 657.2097 657.1827 657.1611 657.1429 657.129 657.1187 657.1107 657.103 657.0933 657.0848 657.0762 657.0708 657.0706 657.0739 657.0813 657.0955 657.1189 657.1554 657.2048 657.266 657.3394 657.4249 657.5243 657.6388 657.7681 657.9113 658.0638 658.2209 658.3755 658.5236 658.6588 658.775 658.8754 658.9562 659.0118 659.0377 659.0337 659.0039 658.9601 658.9087 658.8572 658.8173 658.7883 658.7703 658.7688 658.7873 658.8286 658.8897 658.9904 659.1357 659.3013 659.448 659.5428 659.5852 659.6122 659.705 659.9594 660.4445 661.1848 662.0812 663.0107 663.898 664.383 664.4341 664.2663 664.1858 664.4513 664.9794 665.5484 665.9529 666.2554 666.5328 666.8369 667.1377 667.5818 -9999 -9999 -9999 -9999 -9999 -9999 -9999 -9999 -9999 -9999 -9999 -9999 -9999 -9999 -9999 -9999 -9999 -9999 -9999 -9999 -9999 -9999 -9999 -9999 -9999 -9999 -9999 -9999 -9999 -9999 -9999 -9999 -9999 -9999 -9999 -9999 -9999 -9999 -9999 -9999 -9999 -9999 -9999 -9999 -9999 -9999 -9999 -9999 -9999 -9999 -9999 -9999 -9999 -9999 -9999 -9999 -9999 -9999 -9999 -9999 -9999 -9999 -9999 -9999 -9999 -9999 -9999 -9999 -9999
-9999 -9999 -9999 -9999 -9999 -9999 -9999 -9999 -9999 -9999 -9999 -9999 -9999 -9999 -9999 -9999 -9999 -9999 -9999 -9999 -9999 -9999 -9999 -9999 -9999 -9999 666.7498 665.8878 664.9227 663.923 662.9599 662.1148 661.5187 661.0802 660.7692 660.5637 660.4421 660.3799 660.3495 660.3231 660.2766 660.1356 659.9619 659.7671 659.5577 659.342 659.1283 658.9194 658.7239 658.5438 658.377 658.2201 658.0866 657.9698 657.8682 657.7576 657.6569 657.5686 657.4912 657.4225 657.3596 657.3043 657.2546 657.2111 657.1666 657.1339 657.1066 657.083 657.0635 657.0483 657.0369 657.027 657.0179 657.0102 657.0037 656.9969 656.9928 656.9903 656.9926 657.0013 657.0187 657.0464 657.0863 657.1387 657.2025 657.2789 657.3683 657.4714 657.588 657.7172 657.8571 658.0038 658.1516 658.297 658.4349 658.5607 658.6725 658.7664 658.8425 658.8961 658.9242 658.9266 658.9103 658.8842 658.8508 658.8171 658.7908 658.7739 658.776 658.8004 658.8464 658.9106 658.9966 659.12 659.2745 659.4272 659.5331 659.5649 659.5394 659.528 659.6378 659.9353 660.4344 661.1187 661.8613 662.5334 662.9785 662.9642 662.7943 662.7516 663.0175 663.536 664.3138 665.0107 665.4592 665.7774 666.1063 666.5125 666.9865 667.5677 668.2451 668.9656 669.5282 669.8418 669.9935 669.9913 669.7176 -9999 -9999 -9999 -9999 -9999 -9999 -9999 -9999 -9999 -9999 -9999 -9999 -9999 -9999 -9999 -9999 -9999 -9999 -9999 -9999 -9999 -9999 -9999 -9999 -9999 -9999 -9999 -9999 -9999 -9999 -9999 -9999 -9999 -9999 -9999 -9999 -9999 -9999 -9999 -9999 -9999 -9999 -9999 -9999 -9999 -9999 -9999 -9999 -9999 -9999 -9999 -9999 -9999 -9999 -9999 -9999 -9999 -9999 -9999 -9999 -9999
-9999 -9999 -9999 -9999 -9999 -9999 -9999 -9999 -9999 -9999 -9999 -9999 -9999 -9999 -9999 -9999 -9999 -9999 -9999 -9999 -9999 -9999 -9999 -9999 -9999 -9999 667.8447 666.954 665.9564 664.8841 663.7918 662.7546 661.9493 661.3622 660.9498 660.6749 660.5061 660.4133 660.3651 660.3309 660.2801 660.1783 660.0212 659.8311 659.6216 659.4066 659.1913 658.9822 658.7822 658.5975 658.4286 658.2592 658.1124 657.9872 657.8762 657.7667 657.6656 657.5742 657.4923 657.419 657.3519 657.2919 657.2372 657.1867 657.1385 657.098 657.0631 657.0326 657.0067 656.9861 656.9706 656.9591 656.9493 656.9415 656.9359 656.9301 656.9233 656.9154 656.9115 656.9147 656.9268 656.9489 656.9812 657.024 657.0784 657.144 657.2222 657.3134 657.4175 657.5329 657.6586 657.7919 657.9301 658.0667 658.2024 658.3302 658.4479 658.5548 658.6434 658.7163 658.7703 658.8041 658.8168 658.8182 658.8127 658.8013 658.7876 658.7793 658.7839 658.8148 658.8662 658.9383 659.0277 659.1405 659.2836 659.4373 659.5611 659.6105 659.5795 659.5168 659.5188 659.6639 659.9709 660.4171 660.9636 661.4553 661.736 661.6967 661.5341 661.5284 661.8124 662.3173 662.9847 663.7311 664.2399 664.6529 665.1266 665.6691 666.1575 666.7513 667.4231 668.1506 668.8253 669.2948 669.5579 669.5922 669.1848 668.5851 667.9143 667.356 -9999 -9999 -9999 -9999 -9999 -9999 -9999 -9999 -9999 -9999 -9999 -9999 -9999 -9999 -9999 -9999 -9999 -9999 -9999 -9999 -9999 -9999 -9999 -9999 -9999 -9999 -9999 -9999 -9999 -9999 -9999 -9999 -9999 -9999 -9999 -9999 -9999 -9999 -9999 -9999 -9999 -9999 -9999 -9999 -9999 -9999 -9999 -9999 -9999 -9999 -9999 -9999 -9999 -9999 -9999 -9999 -9999 -9999
-9999 -9999 -9999 -9999 -9999 -9999 -9999 -9999 -9999 -9999 -9999 -9999 -9999 -9999 -9999 -9999 -9999 -9999 -9999 -9999 -9999 -9999 -9999 -9999 -9999 -9999 -9999 667.9019 666.8691 665.7324 664.5507 663.4016 662.3763 661.6525 661.1427 660.7982 660.5809 660.4548 660.3843 660.3362 660.2807 660.2163 660.07 659.8864 659.6793 659.4686 659.2548 659.0449 658.8408 658.6501 658.472 658.2991 658.1433 658.0102 657.8934 657.7837 657.6833 657.5913 657.507 657.4303 657.359 657.2933 657.2327 657.1757 657.1218 657.0733 657.0303 656.9918 656.9585 656.9326 656.9126 656.8983 656.8873 656.8783 656.8725 656.8674 656.8605 656.8505 656.8416 656.8386 656.8451 656.8615 656.8879 656.9238 656.969 657.0244 657.0908 657.1696 657.2603 657.3623 657.4735 657.5923 657.7173 657.8445 657.9704 658.0959 658.215 658.3269 658.4277 658.5138 658.5857 658.6437 658.6853 658.7116 658.7322 658.7472 658.758 658.7667 658.7825 658.8176 658.8778 658.9563 659.0546 659.1699 659.306 659.4583 659.5956 659.6748 659.6678 659.5991 659.5416 659.5778 659.7396 660.0145 660.356 660.6909 660.8332 660.7539 660.5605 660.5709 660.8783 661.3387 661.8811 662.4515 662.9097 663.3962 663.9944 664.6174 665.0927 665.621 666.2769 666.9994 667.7065 668.2704 668.5899 668.627 668.3123 667.9217 667.4905 667.0909 666.8744 666.7088 -9999 -9999 -9999 -9999 -9999 -9999 -9999 -9999 -9999 -9999 -9999 -9999 -9999 -9999 -9999 -9999 -9999 -9999 -9999 -9999 -9999 -9999 -9999 -9999 -9999 -9999 -9999 -9999 -9999 -9999 -9999 -9999 -9999 -9999 -9999 -9999 -9999 -9999 -9999 -9999 -9999 -9999 -9999 -9999 -9999 -9999 -9999 -9999 -9999 -9999 -9999 -9999 -9999 -9999 -9999 -9999
-9999 -9999 -9999 -9999 -9999 -9999 -9999 -9999 -9999 -9999 -9999 -9999 -9999 -9999 -9999 -9999 -9999 -9999 -9999 -9999 -9999 -9999 -9999 -9999 -9999 -9999 -9999 668.6528 667.5676 666.3416 665.0626 663.8292 662.6834 661.9086 661.322 660.917 660.6595 660.5056 660.4175 660.3646 660.3243 660.2765 660.1183 659.9426 659.7426 659.5314 659.316 659.1036 658.8976 658.7034 658.5207 658.348 658.1875 658.0474 657.9252 657.8142 657.7124 657.6208 657.5348 657.4552 657.3802 657.3083 657.2411 657.177 657.1158 657.0593 657.0079 656.9615 656.9196 656.8882 656.8633 656.8448 656.8311 656.82 656.813 656.808 656.8018 656.7911 656.7802 656.7733 656.7743 656.785 656.8054 656.8351 656.8734 656.92 656.9763 657.043 657.1208 657.209 657.3061 657.4108 657.52 657.6357 657.7509 657.8673 657.9838 658.0955 658.2023 658.2983 658.3844 658.4594 658.5244 658.5755 658.6168 658.6545 658.6885 658.72 658.7562 658.8005 658.8685 658.9548 659.0593 659.1819 659.3186 659.4683 659.6136 659.7186 659.7488 659.7043 659.6307 659.6024 659.6638 659.8158 660.0269 660.2333 660.2784 660.204 660.0485 660.0566 660.2853 660.6411 661.0188 661.434 661.8171 662.2552 662.8475 663.4709 663.862 664.2559 664.8117 665.4698 666.1125 666.67 667.0654 667.2284 667.1469 667.0273 666.9135 666.7706 666.6709 666.5392 666.351 666.1356 -9999 -9999 -9999 -9999 -9999 -9999 -9999 -9999 -9999 -9999 -9999 -9999 -9999 -9999 -9999 -9999 -9999 -9999 -9999 -9999 -9999 -9999 -9999 -9999 -9999 -9999 -9999 -9999 -9999 -9999 -9999 -9999 -9999 -9999 -9999 -9999 -9999 -9999 -9999 -9999 -9999 -9999 -9999 -9999 -9999 -9999 -9999 -9999 -9999 -9999 -9999 -9999 -9999 -9999
-9999 -9999 -9999 -9999 -9999 -9999 -9999 -9999 -9999 -9999 -9999 -9999 -9999 -9999 -9999 -9999 -9999 -9999 -9999 -9999 -9999 -9999 -9999 -9999 -9999 -9999 -9999 -9999 668.0443 666.7693 665.457 664.2203 663.0897 662.1843 661.4756 661.0171 660.7357 660.5637 660.4587 660.3925 660.3414 660.2797 660.1622 659.9994 659.8036 659.5917 659.3748 659.1614 658.9548 658.7588 658.5747 658.4012 658.2427 658.0983 657.97 657.8553 657.7522 657.6596 657.5726 657.4908 657.411 657.3347 657.2606 657.1891 657.1204 657.0558 656.9966 656.9428 656.8944 656.8549 656.8231 656.7985 656.7801 656.7655 656.7562 656.7509 656.7455 656.7329 656.7211 656.7131 656.7112 656.7173 656.7324 656.7561 656.7881 656.8281 656.8762 656.9332 656.9995 657.0753 657.1593 657.2498 657.3462 657.4444 657.5504 657.6542 657.7628 657.8716 657.9778 658.0798 658.1744 658.2628 658.3444 658.4177 658.4796 658.5354 658.5854 658.6378 658.6899 658.7571 658.8319 658.9286 659.0372 659.1635 659.3038 659.452 659.6 659.7225 659.787 659.7794 659.722 659.6657 659.6622 659.7203 659.8186 659.9059 659.9034 659.8263 659.7306 659.7484 659.9188 660.1855 660.3955 660.6906 660.961 661.3127 661.8235 662.3344 662.5604 662.7851 663.1582 663.644 664.1648 664.6915 665.197 665.553 665.7173 665.8654 666.0644 666.2046 666.2666 666.1919 665.9675 665.6874 665.4061 665.1188 -9999 -9999 -9999 -9999 -9999 -9999 -9999 -9999 -9999 -9999 -9999 -9999 -9999 -9999 -9999 -9999 -9999 -9999 -9999 -9999 -9999 -9999 -9999 -9999 -9999 -9999 -9999 -9999 -9999 -9999 -9999 -9999 -9999 -9999 -9999 -9999 -9999 -9999 -9999 -9999 -9999 -9999 -9999 -9999 -9999 -9999 -9999 -9999 -9999 -9999 -9999 -9999
-9999 -9999 -9999 -9999 -9999 -9999 -9999 -9999 -9999 -9999 -9999 -9999 -9999 -9999 -9999 -9999 -9999 -9999 -9999 -9999 -9999 -9999 -9999 -9999 -9999 -9999 -9999 -9999 668.4934 667.1635 665.8279 664.5737 663.3762 662.2917 661.5182 661.0774 660.8113 660.6338 660.5115 660.4258 660.3567 660.2814 660.2073 660.0547 659.8597 659.647 659.4299 659.2179 659.0126 658.8162 658.6304 658.4567 658.2974 658.1497 658.0177 657.901 657.7983 657.7063 657.6179 657.534 657.4488 657.3671 657.2877 657.2101 657.1343 657.0621 656.9951 656.9338 656.8789 656.8318 656.7916 656.76 656.7357 656.7164 656.7026 656.6936 656.6857 656.6744 656.6632 656.6552 656.6521 656.6553 656.666 656.6844 656.7106 656.7445 656.7864 656.836 656.8938 656.9595 657.0325 657.1115 657.1943 657.2818 657.3693 657.4653 657.5601 657.6621 657.7645 657.8674 657.9662 658.0624 658.1555 658.2455 658.3275 658.399 658.4668 658.5258 658.5962 658.6716 658.7681 658.8724 658.9906 659.1176 659.2579 659.4055 659.5524 659.683 659.7727 659.8004 659.7734 659.7206 659.6815 659.676 659.6921 659.7014 659.6683 659.5984 659.5338 659.5493 659.6642 659.8416 660.0118 660.2111 660.3308 660.5369 660.9274 661.2756 661.3683 661.4512 661.6333 661.9224 662.2998 662.7639 663.2879 663.8052 664.1034 664.4423 664.9305 665.3097 665.5543 665.5775 665.3412 665.0576 664.7478 665.0139 665.0886 665.3124 666.0114 666.65 666.5406 666.0953 665.6825 -9999 -9999 -9999 -9999 -9999 -9999 -9999 -9999 -9999 -9999 -9999 -9999 -9999 -9999 -9999 -9999 -9999 -9999 -9999 -9999 -9999 -9999 -9999 -9999 -9999 -9999 -9999 -9999 -9999 -9999 -9999 -9999 -9999 -9999 -9999 -9999 -9999 -9999 -9999 -9999 -9999 -9999 -9999 -9999 -9999
-9999 -9999 -9999 -9999 -9999 -9999 -9999 -9999 -9999 -9999 -9999 -9999 -9999 -9999 -9999 -9999 -9999 -9999 -9999 -9999 -9999 -9999 -9999 -9999 -9999 -9999 -9999 -9999 -9999 667.3981 666.0038 664.6985 663.4111 662.2425 661.4682 661.1393 660.9163 660.7297 660.582 660.4745 660.3981 660.3378 660.2758 660.1052 659.9073 659.6966 659.4812 659.2728 659.0703 658.8747 658.6858 658.5095 658.3479 658.2001 658.0677 657.951 657.8494 657.7581 657.6656 657.5773 657.4901 657.4055 657.3219 657.2384 657.1563 657.0775 657.0032 656.9344 656.8727 656.8178 656.7691 656.7297 656.699 656.6747 656.6559 656.6414 656.6301 656.619 656.6085 656.6002 656.5958 656.5967 656.6038 656.6179 656.6388 656.6671 656.7031 656.7471 656.7987 656.8574 656.9224 656.9923 657.0657 657.141 657.2197 657.2982 657.385 657.4731 657.5702 657.6679 657.7686 657.8674 657.967 658.0669 658.1647 658.2545 658.3332 658.4095 658.4774 658.5649 658.6664 658.7876 658.9165 659.0504 659.1895 659.334 659.478 659.6106 659.7139 659.7698 659.7726 659.7397 659.6937 659.6537 659.619 659.5793 659.524 659.4614 659.4158 659.4241 659.501 659.6238 659.7554 659.8837 659.9722 660.0971 660.2856 660.4085 660.4171 660.4067 660.4427 660.5596 660.788 661.1694 661.7295 662.3227 662.5901 662.9629 663.4542 663.9235 664.3398 664.55 664.5118 664.3376 664.8796 665.5378 665.6746 665.6873 665.8995 666.0703 665.9053 665.5233 665.1738 665.2002 665.3527 -9999 -9999 -9999 -9999 -9999 -9999 -9999 -9999 -9999 -9999 -9999 -9999 -9999 -9999 -9999 -9999 -9999 -9999 -9999 -9999 -9999 -9999 -9999 -9999 -9999 -9999 -9999 -9999 -9999 -9999 -9999 -9999 -9999 -9999 -9999 -9999 -9999 -9999 -9999 -9999 -9999 -9999 -9999
-9999 -9999 -9999 -9999 -9999 -9999 -9999 -9999 -9999 -9999 -9999 -9999 -9999 -9999 -9999 -9999 -9999 -9999 -9999 -9999 -9999 -9999 -9999 -9999 -9999 -9999 -9999 -9999 -9999 -9999 666.0917 664.7374 663.4247 662.2342 661.4645 661.3102 661.0907 660.8557 660.6615 660.5225 660.4292 660.3596 660.2792 660.1185 659.9402 659.7426 659.5349 659.3288 659.1263 658.9292 658.7395 658.562 658.399 658.2524 658.1212 658.0046 657.9016 657.8064 657.7141 657.6249 657.5365 657.4506 657.3633 657.2751 657.1873 657.1023 657.0208 656.9437 656.8737 656.8097 656.7537 656.7079 656.6703 656.6412 656.6168 656.5967 656.5814 656.5691 656.558 656.549 656.5427 656.5408 656.5442 656.5538 656.5702 656.5934 656.6241 656.6631 656.71 656.7643 656.8241 656.8881 656.9547 657.0226 657.0912 657.1622 657.234 657.3136 657.3975 657.4909 657.5869 657.6857 657.7878 657.8915 657.9987 658.1021 658.1973 658.2808 658.3622 658.442 658.5464 658.6727 658.8134 658.9597 659.1047 659.2477 659.3873 659.5184 659.6277 659.7014 659.7308 659.72 659.6843 659.6353 659.5773 659.5091 659.437 659.3722 659.3364 659.3457 659.4045 659.5016 659.6144 659.7214 659.8046 659.8884 659.9734 660.0034 659.959 659.8818 659.8205 659.8182 659.9143 660.1366 660.4708 660.8376 661.1151 661.5128 661.9728 662.4644 662.9391 663.462 663.8846 664.2434 665.1122 665.7599 665.9915 665.7465 665.5653 665.4138 665.1922 664.9968 664.8889 665.0209 665.2976 665.5795 -9999 -9999 -9999 -9999 -9999 -9999 -9999 -9999 -9999 -9999 -9999 -9999 -9999 -9999 -9999 -9999 -9999 -9999 -9999 -9999 -9999 -9999 -9999 -9999 -9999 -9999 -9999 -9999 -9999 -9999 -9999 -9999 -9999 -9999 -9999 -9999 -9999 -9999 -9999 -9999 -9999 -9999
-9999 -9999 -9999 -9999 -9999 -9999 -9999 -9999 -9999 -9999 -9999 -9999 -9999 -9999 -9999 -9999 -9999 -9999 -9999 -9999 -9999 -9999 -9999 -9999 -9999 -9999 -9999 -9999 -9999 -9999 666.2309 664.8337 663.5632 662.4012 661.5754 661.639 661.3058 660.9778 660.7274 660.556 660.444 660.363 660.2794 660.1525 659.9846 659.7921 659.5891 659.3848 659.1823 658.9838 658.7936 658.6157 658.4531 658.3062 658.1773 658.0619 657.9579 657.8604 657.7682 657.6797 657.5896 657.5027 657.4116 657.3192 657.2273 657.1372 657.049 656.9635 656.8842 656.8114 656.7469 656.6934 656.6497 656.6136 656.5797 656.5579 656.5396 656.525 656.5122 656.5013 656.4926 656.4872 656.4863 656.4913 656.5026 656.5211 656.5473 656.5818 656.6248 656.6755 656.7327 656.7935 656.8564 656.9198 656.9832 657.0464 657.1118 657.1794 657.2548 657.3364 657.4272 657.5238 657.6223 657.7284 657.8362 657.9485 658.0555 658.1528 658.2396 658.3259 658.4198 658.5408 658.6864 658.8417 658.9986 659.1489 659.2889 659.4171 659.5292 659.6131 659.6613 659.6728 659.6538 659.6113 659.55 659.4718 659.387 659.3159 659.277 659.2865 659.3438 659.438 659.552 659.6664 659.7639 659.8438 659.8978 659.9005 659.8402 659.7344 659.6182 659.5338 659.5173 659.5894 659.739 659.9294 660.1253 660.3915 660.7353 661.1913 661.6711 662.2319 662.8021 663.5544 664.5354 665.2951 665.5007 665.1728 664.8377 664.5657 664.4293 664.425 664.5567 664.8906 665.2805 665.7155 666.1002 666.572 -9999 -9999 -9999 -9999 -9999 -9999 -9999 -9999 -9999 -9999 -9999 -9999 -9999 -9999 -9999 -9999 -9999 -9999 -9999 -9999 -9999 -9999 -9999 -9999 -9999 -9999 -9999 -9999 -9999 -9999 -9999 -9999 -9999 -9999 -9999 -9999 -9999 -9999 -9999 -9999
-9999 -9999 -9999 -9999 -9999 -9999 -9999 -9999 -9999 -9999 -9999 -9999 -9999 -9999 -9999 -9999 -9999 -9999 -9999 -9999 -9999 -9999 -9999 -9999 -9999 -9999 -9999 -9999 -9999 -9999 666.528 665.0699 663.8533 662.8229 662.0677 661.7704 661.3856 661.0316 660.76 660.573 660.4504 660.3638 660.2815 660.1989 660.0331 659.8418 659.6427 659.4409 659.2393 659.0399 658.8468 658.6686 658.5072 658.3579 658.2321 658.1229 658.0215 657.9219 657.8294 657.7418 657.6464 657.5557 657.4653 657.3726 657.2781 657.183 657.0876 656.9936 656.9045 656.8228 656.7499 656.6879 656.6362 656.5924 656.5542 656.5275 656.5042 656.4862 656.4709 656.457 656.445 656.4359 656.4307 656.4303 656.4363 656.4495 656.4709 656.5013 656.5409 656.589 656.644 656.7039 656.7657 656.8275 656.8883 656.9484 657.0084 657.0704 657.1362 657.2102 657.2913 657.3806 657.4791 657.5789 657.6882 657.7993 657.9135 658.0218 658.1196 658.2084 658.3005 658.4089 658.5449 658.7035 658.8682 659.0291 659.1785 659.3109 659.4255 659.5171 659.5786 659.6079 659.6075 659.5805 659.528 659.4531 659.3651 659.285 659.2375 659.2398 659.2953 659.3952 659.5228 659.6577 659.7803 659.879 659.943 659.9568 659.9109 659.8103 659.6772 659.5473 659.4539 659.4136 659.4255 659.4783 659.5685 659.7214 659.9474 660.2573 660.6179 661.13 661.7219 662.4946 663.3624 664.0913 664.3046 664.0625 663.6873 663.3633 663.4401 663.6446 663.9534 664.4321 665.0031 665.6585 666.2059 666.7695 667.0667 667.1282 666.9274 -9999 -9999 -9999 -9999 -9999 -9999 -9999 -9999 -9999 -9999 -9999 -9999 -9999 -9999 -9999 -9999 -9999 -9999 -9999 -9999 -9999 -9999 -9999 -9999 -9999 -9999 -9999 -9999 -9999 -9999 -9999 -9999 -9999 -9999 -9999 -9999 -9999
-9999 -9999 -9999 -9999 -9999 -9999 -9999 -9999 -9999 -9999 -9999 -9999 -9999 -9999 -9999 -9999 -9999 -9999 -9999 -9999 -9999 -9999 -9999 -9999 -9999 -9999 -9999 -9999 -9999 -9999 -9999 665.5267 664.321 663.3582 662.5928 661.965 661.4741 661.0843 660.7944 660.5953 660.4673 660.3882 660.3335 660.2734 660.0773 659.8864 659.6958 659.4984 659.2972 659.0972 658.9002 658.7194 658.5563 658.4111 658.2906 658.1904 658.0945 657.9904 657.8942 657.8004 657.7068 657.6176 657.5293 657.4376 657.3409 657.24 657.1367 657.0325 656.9324 656.8406 656.7598 656.6892 656.6283 656.5765 656.5314 656.4949 656.4713 656.4518 656.4342 656.4166 656.4008 656.3876 656.3777 656.3723 656.3726 656.3801 656.3962 656.422 656.4578 656.5031 656.5563 656.6155 656.6778 656.7404 656.8015 656.8607 656.9191 656.9778 657.0391 657.1055 657.1797 657.2614 657.3508 657.451 657.5532 657.6642 657.7764 657.8896 657.9969 658.0953 658.1865 658.2854 658.4069 658.5546 658.72 658.8882 659.0472 659.1902 659.3133 659.4146 659.4891 659.5339 659.5504 659.5414 659.5059 659.4442 659.3632 659.2793 659.2191 659.207 659.254 659.354 659.4918 659.6462 659.7949 659.9197 660.0076 660.0481 660.0334 659.9614 659.8434 659.7041 659.5737 659.4694 659.3949 659.3518 659.3473 659.3964 659.5051 659.6788 659.9209 660.2711 660.7098 661.3386 662.0083 662.5869 662.8474 662.7345 662.4124 662.2183 662.2833 662.5897 663.0435 663.6483 664.3026 665.016 665.6882 666.2265 666.6341 666.7145 666.414 665.9337 665.6277 666.0682 666.7009 667.0922 667.2222 -9999 -9999 -9999 -9999 -9999 -9999 -9999 -9999 -9999 -9999 -9999 -9999 -9999 -9999 -9999 -9999 -9999 -9999 -9999 -9999 -9999 -9999 -9999 -9999 -9999 -9999 -9999 -9999 -9999 -9999 -9999
-9999 -9999 -9999 -9999 -9999 -9999 -9999 -9999 -9999 -9999 -9999 -9999 -9999 -9999 -9999 -9999 -9999 -9999 -9999 -9999 -9999 -9999 -9999 -9999 -9999 -9999 -9999 -9999 -9999 -9999 -9999 666.2581 665.0463 664.0399 663.1364 662.3078 661.6834 661.2177 660.8811 660.6498 660.5005 660.411 660.3516 660.276 660.084 659.9272 659.7543 659.5608 659.3565 659.1526 658.9542 658.7737 658.6146 658.4766 658.3626 658.2684 658.1789 658.0659 657.9657 657.8723 657.7815 657.6943 657.6071 657.5155 657.4158 657.3056 657.1928 657.0766 656.9613 656.8583 656.7682 656.6875 656.6151 656.5551 656.5115 656.4751 656.4484 656.4242 656.4017 656.3813 656.3619 656.3446 656.3302 656.3198 656.3145 656.3162 656.3265 656.3466 656.3772 656.4185 656.4694 656.5273 656.5901 656.6542 656.7175 656.7786 656.8379 656.8962 656.9557 657.0181 657.0865 657.162 657.2449 657.3359 657.4371 657.5406 657.6513 657.762 657.8733 657.9781 658.0771 658.1726 658.2792 658.4104 658.5647 658.732 658.8975 659.0498 659.1837 659.2972 659.3872 659.4493 659.4838 659.4924 659.4771 659.4355 659.3702 659.293 659.225 659.194 659.2207 659.3088 659.4452 659.6078 659.7722 659.917 660.0271 660.0927 660.1095 660.0739 659.9894 659.8704 659.739 659.6147 659.5031 659.4094 659.3428 659.3137 659.3273 659.3862 659.5081 659.7129 659.9976 660.3752 660.7811 661.1777 661.4716 661.4733 661.2892 661.1864 661.2792 661.5908 662.0283 662.6116 663.2776 663.9737 664.6516 665.1804 665.5934 665.7859 665.6597 665.2744 665.1456 665.4854 666.2092 666.8351 667.0758 666.9982 666.7931 -9999 -9999 -9999 -9999 -9999 -9999 -9999 -9999 -9999 -9999 -9999 -9999 -9999 -9999 -9999 -9999 -9999 -9999 -9999 -9999 -9999 -9999 -9999 -9999 -9999 -9999 -9999 -9999 -9999
-9999 -9999 -9999 -9999 -9999 -9999 -9999 -9999 -9999 -9999 -9999 -9999 -9999 -9999 -9999 -9999 -9999 -9999 -9999 -9999 -9999 -9999 -9999 -9999 -9999 -9999 -9999 -9999 -9999 -9999 -9999 667.1362 665.9465 664.9152 663.9321 662.9695 662.1084 661.4923 661.0579 660.7594 660.563 660.4421 660.363 660.2814 660.1688 660.0161 659.8359 659.6338 659.421 659.2126 659.0155 658.8375 658.6848 658.5565 658.4498 658.3564 658.2621 658.1553 658.0555 657.9647 657.8766 657.7891 657.6995 657.6046 657.4998 657.374 657.2472 657.1204 656.9963 656.8842 656.7866 656.6967 656.6115 656.5367 656.4825 656.4484 656.4294 656.4041 656.3777 656.3552 656.3318 656.3104 656.2914 656.2765 656.2662 656.2621 656.266 656.2791 656.3031 656.3386 656.3849 656.4405 656.5022 656.5673 656.6326 656.697 656.7594 656.8199 656.88 656.9415 657.0065 657.0775 657.1547 657.239 657.3315 657.4327 657.5358 657.6441 657.7513 657.8597 657.963 658.0627 658.1639 658.2786 658.4158 658.5717 658.7354 658.8929 659.0351 659.1595 659.2645 659.3455 659.3997 659.4284 659.433 659.4148 659.3724 659.3114 659.2472 659.2036 659.2053 659.2664 659.384 659.5393 659.7059 659.8586 659.9799 660.0599 660.0964 660.0906 660.0413 659.9565 659.8488 659.7354 659.6252 659.5228 659.4353 659.3668 659.3206 659.3007 659.324 659.4137 659.5708 659.7874 660.0281 660.2609 660.417 660.4332 660.3652 660.3413 660.4514 660.7587 661.1301 661.61 662.1428 662.7498 663.3689 663.8887 664.2976 664.5926 664.72 664.6219 664.6528 665.0188 665.7068 666.3453 666.7032 666.6265 666.4048 666.1755 -9999 -9999 -9999 -9999 -9999 -9999 -9999 -9999 -9999 -9999 -9999 -9999 -9999 -9999 -9999 -9999 -9999 -9999 -9999 -9999 -9999 -9999 -9999 -9999 -9999 -9999 -9999 -9999
-9999 -9999 -9999 -9999 -9999 -9999 -9999 -9999 -9999 -9999 -9999 -9999 -9999 -9999 -9999 -9999 -9999 -9999 -9999 -9999 -9999 -9999 -9999 -9999 -9999 -9999 -9999 -9999 -9999 -9999 -9999 668.0241 666.8837 665.8544 664.8421 663.8009 662.7548 661.9086 661.328 660.9303 660.6634 660.4973 660.3995 660.3356 660.2739 660.1124 659.9211 659.7086 659.4878 659.2764 659.0842 658.9142 658.7712 658.6544 658.5554 658.4623 658.3661 658.264 658.1667 658.0782 657.9913 657.9002 657.8035 657.6976 657.5768 657.4427 657.3076 657.1744 657.0457 656.9266 656.8217 656.7236 656.6264 656.5359 656.4676 656.429 656.4115 656.3914 656.3668 656.3414 656.3146 656.2891 656.2658 656.2477 656.2339 656.2246 656.2213 656.2253 656.2404 656.2676 656.3071 656.3575 656.4165 656.4805 656.5467 656.6134 656.6794 656.7439 656.8069 656.8699 656.9342 657.0023 657.0757 657.1542 657.2397 657.3328 657.4326 657.533 657.6373 657.7405 657.8453 657.9479 658.0496 658.1568 658.2784 658.4182 658.571 658.7261 658.8722 659.0032 659.1186 659.2164 659.2908 659.3404 659.3663 659.3703 659.353 659.316 659.2673 659.223 659.207 659.2386 659.3245 659.4546 659.6077 659.7567 659.8795 659.9637 660.0063 660.0131 659.9879 659.9338 659.8574 659.7689 659.6799 659.595 659.5195 659.4545 659.3926 659.3358 659.2983 659.3076 659.3726 659.4832 659.6128 659.7345 659.813 659.8269 659.807 659.8253 659.9417 660.1807 660.4199 660.7866 661.1843 661.6563 662.1324 662.5999 663.0079 663.3506 663.6671 663.8104 663.9474 664.2959 664.8886 665.5275 665.9001 665.963 665.8773 665.7522 665.8041 -9999 -9999 -9999 -9999 -9999 -9999 -9999 -9999 -9999 -9999 -9999 -9999 -9999 -9999 -9999 -9999 -9999 -9999 -9999 -9999 -9999 -9999 -9999 -9999 -9999 -9999 -9999
-9999 -9999 -9999 -9999 -9999 -9999 -9999 -9999 -9999 -9999 -9999 -9999 -9999 -9999 -9999 -9999 -9999 -9999 -9999 -9999 -9999 -9999 -9999 -9999 -9999 -9999 -9999 -9999 -9999 -9999 -9999 -9999 667.7125 666.6751 665.6674 664.6263 663.4819 662.377 661.6572 661.1487 660.7952 660.5685 660.4336 660.3514 660.2799 660.1611 659.9869 659.7748 659.5515 659.3423 659.1591 659.0023 658.8735 658.7714 658.6863 658.5898 658.4922 658.3923 658.2969 658.2104 658.1226 658.0251 657.9177 657.7979 657.6671 657.5268 657.3848 657.2454 657.1125 656.9888 656.8762 656.7695 656.6621 656.559 656.4777 656.4348 656.4253 656.4227 656.3923 656.3552 656.3175 656.2844 656.2571 656.2389 656.2248 656.2125 656.2013 656.1917 656.1946 656.2108 656.2405 656.2831 656.3361 656.3964 656.4612 656.5283 656.5964 656.6646 656.7317 656.7977 656.8642 656.9317 657.0028 657.078 657.1572 657.2427 657.3345 657.431 657.5273 657.6262 657.7253 657.8267 657.9296 658.0344 658.1471 658.2729 658.412 658.5579 658.7013 658.8341 658.9543 659.0616 659.1531 659.2224 659.2694 659.2952 659.3013 659.2897 659.2644 659.2332 659.2126 659.2231 659.2775 659.375 659.5016 659.6355 659.7527 659.8364 659.8795 659.8871 659.869 659.8309 659.7782 659.7136 659.6471 659.5867 659.5347 659.4946 659.4553 659.4066 659.3531 659.3194 659.3262 659.3698 659.4307 659.4856 659.5155 659.5175 659.5099 659.5306 659.6134 659.7655 659.9478 660.1987 660.4385 660.7959 661.155 661.54 661.8881 662.2183 662.5806 662.8289 663.0004 663.2935 663.7629 664.3835 664.8237 665.0523 665.113 665.0862 665.0736 665.0349 -9999 -9999 -9999 -9999 -9999 -9999 -9999 -9999 -9999 -9999 -9999 -9999 -9999 -9999 -9999 -9999 -9999 -9999 -9999 -9999 -9999 -9999 -9999 -9999 -9999 -9999
-9999 -9999 -9999 -9999 -9999 -9999 -9999 -9999 -9999 -9999 -9999 -9999 -9999 -9999 -9999 -9999 -9999 -9999 -9999 -9999 -9999 -9999 -9999 -9999 -9999 -9999 -9999 -9999 -9999 -9999 -9999 -9999 668.3102 667.199 666.1923 665.2297 664.083 662.8854 662.0353 661.3985 660.9469 660.6517 660.4708 660.3613 660.2811 660.2065 660.0452 659.8331 659.6105 659.4093 659.2405 659.0999 658.9854 658.8929 658.8109 658.7234 658.6325 658.5377 658.4432 658.3562 658.2655 658.1609 658.0425 657.9128 657.7756 657.6331 657.4877 657.3427 657.2029 657.0723 656.9512 656.8347 656.7166 656.6046 656.5139 656.4666 656.4618 656.4695 656.4354 656.3882 656.3398 656.2992 656.2682 656.2512 656.2443 656.2379 656.2211 656.184 656.1702 656.1722 656.1897 656.2217 656.2657 656.3192 656.3796 656.4445 656.5123 656.582 656.6524 656.7225 656.7917 656.8615 656.9319 657.0051 657.0809 657.1597 657.2438 657.3323 657.4236 657.5146 657.6075 657.7029 657.802 657.9052 658.0129 658.1297 658.2567 658.3918 658.5284 658.6587 658.7787 658.8893 658.9891 659.074 659.1395 659.1854 659.213 659.2247 659.2236 659.2139 659.2039 659.2083 659.2416 659.3101 659.408 659.5203 659.627 659.7092 659.7548 659.7622 659.7432 659.7079 659.6642 659.6139 659.5601 659.5126 659.4797 659.4618 659.4542 659.4391 659.4093 659.3739 659.3555 659.3619 659.3825 659.4012 659.4058 659.3943 659.3809 659.3853 659.426 659.5077 659.6232 659.7795 659.9554 660.2003 660.4263 660.7433 661.0336 661.3466 661.658 661.8683 662.004 662.1989 662.5677 663.1317 663.6556 664.1125 664.3817 664.4639 664.4223 664.3112 -9999 -9999 -9999 -9999 -9999 -9999 -9999 -9999 -9999 -9999 -9999 -9999 -9999 -9999 -9999 -9999 -9999 -9999 -9999 -9999 -9999 -9999 -9999 -9999 -9999 -9999
-9999 -9999 -9999 -9999 -9999 -9999 -9999 -9999 -9999 -9999 -9999 -9999 -9999 -9999 -9999 -9999 -9999 -9999 -9999 -9999 -9999 -9999 -9999 -9999 -9999 -9999 -9999 -9999 -9999 -9999 -9999 -9999 -9999 667.51 666.4128 665.4746 664.4734 663.4062 662.4101 661.6396 661.0988 660.7433 660.5218 660.394 660.3269 660.2754 660.0997 659.8821 659.6647 659.4792 659.3315 659.2104 659.1093 659.0266 658.9481 658.8694 658.7866 658.6967 658.6031 658.5132 658.4197 658.3075 658.1823 658.0482 657.9087 657.765 657.618 657.4691 657.322 657.1812 657.0483 656.92 656.7913 656.6687 656.5727 656.5212 656.5162 656.5264 656.4907 656.437 656.3809 656.3347 656.3026 656.2878 656.287 656.2819 656.2467 656.1997 656.1677 656.1537 656.1573 656.1771 656.2098 656.2534 656.306 656.3656 656.4304 656.4989 656.5701 656.6427 656.7153 656.7874 656.8597 656.9324 657.0065 657.0815 657.1585 657.2393 657.3225 657.4075 657.4927 657.58 657.6716 657.7687 657.8722 657.9823 658.1007 658.2258 658.3542 658.4795 658.5971 658.7063 658.8083 658.9009 658.9799 659.0423 659.088 659.1196 659.1403 659.1536 659.1628 659.1758 659.204 659.2556 659.3314 659.4232 659.5178 659.5988 659.6517 659.6674 659.651 659.6157 659.5712 659.5261 659.4762 659.4286 659.395 659.3831 659.3912 659.4066 659.4125 659.4042 659.3915 659.3868 659.3896 659.3897 659.3821 659.3649 659.3436 659.3292 659.3325 659.3616 659.4188 659.5079 659.6238 659.781 659.962 660.2026 660.3978 660.6706 660.899 661.0914 661.2386 661.4182 661.7163 662.1472 662.6215 663.2518 663.7106 663.9331 663.9789 663.9503 664.0336 -9999 -9999 -9999 -9999 -9999 -9999 -9999 -9999 -9999 -9999 -9999 -9999 -9999 -9999 -9999 -9999 -9999 -9999 -9999 -9999 -9999 -9999 -9999 -9999 -9999
-9999 -9999 -9999 -9999 -9999 -9999 -9999 -9999 -9999 -9999 -9999 -9999 -9999 -9999 -9999 -9999 -9999 -9999 -9999 -9999 -9999 -9999 -9999 -9999 -9999 -9999 -9999 -9999 -9999 -9999 -9999 -9999 -9999 667.6797 666.4186 665.4026 664.5408 663.6333 662.6348 661.8193 661.2397 660.8473 660.5894 660.4341 660.3499 660.278 660.1187 659.9149 659.7164 659.5574 659.4366 659.3372 659.2509 659.1707 659.0953 659.0216 658.9475 658.8635 658.7719 658.6791 658.5864 658.4637 658.3358 658.2058 658.0712 657.9302 657.7818 657.6266 657.47 657.3164 657.1687 657.0263 656.8868 656.7556 656.6533 656.5977 656.5894 656.5959 656.5582 656.501 656.441 656.3909 656.3608 656.347 656.3472 656.3333 656.2823 656.2255 656.1801 656.1523 656.1437 656.1519 656.1718 656.2032 656.2452 656.2964 656.3548 656.4191 656.4878 656.5601 656.6344 656.7091 656.7834 656.8571 656.9308 657.0043 657.0772 657.1509 657.2265 657.3034 657.3816 657.4608 657.5429 657.6309 657.7261 657.8295 657.9401 658.0573 658.1776 658.297 658.4106 658.5171 658.6173 658.7119 658.7979 658.8718 658.9323 658.9795 659.017 659.0494 659.08 659.1101 659.1462 659.1957 659.2615 659.3403 659.4249 659.5041 659.5659 659.5991 659.5972 659.5692 659.5273 659.4813 659.4348 659.3834 659.3378 659.3116 659.3113 659.3319 659.3593 659.3799 659.3895 659.3925 659.3928 659.3886 659.3764 659.3584 659.3352 659.3109 659.2905 659.2827 659.297 659.339 659.407 659.5043 659.6343 659.8083 659.9925 660.2173 660.3616 660.5592 660.7178 660.8826 661.1243 661.4647 661.8798 662.3872 662.9634 663.3721 663.5768 663.6604 663.7714 -9999 -9999 -9999 -9999 -9999 -9999 -9999 -9999 -9999 -9999 -9999 -9999 -9999 -9999 -9999 -9999 -9999 -9999 -9999 -9999 -9999 -9999 -9999 -9999 -9999
-9999 -9999 -9999 -9999 -9999 -9999 -9999 -9999 -9999 -9999 -9999 -9999 -9999 -9999 -9999 -9999 -9999 -9999 -9999 -9999 -9999 -9999 -9999 -9999 -9999 -9999 -9999 -9999 -9999 -9999 -9999 -9999 -9999 -9999 666.6039 665.5319 664.6855 663.8214 662.872 662.0146 661.4208 661.0006 660.7037 660.5135 660.3975 660.2847 660.1465 659.954 659.7794 659.6534 659.5604 659.4739 659.3889 659.31 659.2402 659.1744 659.1102 659.0336 658.9423 658.8428 658.7383 658.6229 658.5065 658.3904 658.2686 658.1345 657.9854 657.822 657.6505 657.4798 657.3131 657.1536 657.0026 656.8654 656.7585 656.7001 656.6848 656.6808 656.6379 656.5803 656.52 656.4689 656.4379 656.4261 656.4203 656.3819 656.3219 656.2587 656.2047 656.1668 656.1478 656.1458 656.1523 656.1705 656.2004 656.2408 656.29 656.3467 656.4097 656.4783 656.5515 656.627 656.7031 656.7784 656.8524 656.9255 656.9969 657.0663 657.1351 657.2045 657.2746 657.3461 657.4194 657.497 657.5818 657.675 657.777 657.8857 657.9985 658.1117 658.221 658.3237 658.4206 658.5135 658.6016 658.682 658.7525 658.8121 658.8626 658.9084 658.9546 659.0031 659.0547 659.1128 659.1804 659.2563 659.3363 659.4147 659.4829 659.5338 659.5563 659.5477 659.5183 659.4774 659.4351 659.3873 659.3342 659.2885 659.2642 659.2657 659.287 659.3157 659.3422 659.3601 659.3674 659.3648 659.3541 659.3373 659.3165 659.2908 659.2618 659.2361 659.2244 659.2357 659.2703 659.3269 659.4132 659.5394 659.6994 659.8893 660.0644 660.2661 660.4218 660.5581 660.7534 661.0352 661.4026 661.8605 662.3932 662.8922 663.2057 663.3319 663.4125 -9999 -9999 -9999 -9999 -9999 -9999 -9999 -9999 -9999 -9999 -9999 -9999 -9999 -9999 -9999 -9999 -9999 -9999 -9999 -9999 -9999 -9999 -9999 -9999 -9999
-9999 -9999 -9999 -9999 -9999 -9999 -9999 -9999 -9999 -9999 -9999 -9999 -9999 -9999 -9999 -9999 -9999 -9999 -9999 -9999 -9999 -9999 -9999 -9999 -9999 -9999 -9999 -9999 -9999 -9999 -9999 -9999 -9999 -9999 -9999 666.0726 665.1271 664.193 663.2324 662.3533 661.7304 661.2639 660.9153 660.6937 660.5654 660.437 660.256 660.028 659.8691 659.7795 659.7063 659.6207 659.5181 659.4335 659.3708 659.3197 659.2713 659.21 659.1232 659.0205 658.9171 658.8142 658.7162 658.6195 658.5144 658.3888 658.2362 658.0594 657.867 657.6726 657.4832 657.3033 657.1393 656.9971 656.8893 656.8287 656.8076 656.7838 656.7326 656.6741 656.6161 656.5663 656.533 656.5145 656.4945 656.4402 656.3712 656.3024 656.2421 656.1959 656.1667 656.1533 656.15 656.1561 656.1737 656.2018 656.2397 656.2864 656.3407 656.4023 656.4708 656.5442 656.6205 656.697 656.7718 656.8446 656.9154 656.9833 657.0481 657.1112 657.174 657.2372 657.3025 657.3707 657.4443 657.5262 657.6173 657.7163 657.8204 657.9265 658.0306 658.1295 658.2224 658.3113 658.3976 658.4802 658.5566 658.6251 658.6857 658.7414 658.7971 658.858 658.9241 658.9955 659.0721 659.1539 659.2367 659.3167 659.3903 659.4516 659.4969 659.5153 659.5074 659.4843 659.4493 659.4135 659.3666 659.3137 659.2686 659.2428 659.2395 659.2542 659.2773 659.3 659.3149 659.3179 659.3104 659.2964 659.2783 659.2556 659.2268 659.1965 659.1748 659.1712 659.1874 659.2194 659.2739 659.3656 659.5016 659.677 659.8715 660.0809 660.2664 660.3812 660.5465 660.7905 661.1096 661.4941 661.9246 662.4106 662.8077 662.9087 662.8937 662.9932 -9999 -9999 -9999 -9999 -9999 -9999 -9999 -9999 -9999 -9999 -9999 -9999 -9999 -9999 -9999 -9999 -9999 -9999 -9999 -9999 -9999 -9999 -9999 -9999
-9999 -9999 -9999 -9999 -9999 -9999 -9999 -9999 -9999 -9999 -9999 -9999 -9999 -9999 -9999 -9999 -9999 -9999 -9999 -9999 -9999 -9999 -9999 -9999 -9999 -9999 -9999 -9999 -9999 -9999 -9999 -9999 -9999 -9999 -9999 666.9153 665.9197 664.9326 663.9407 663.0052 662.236 661.6879 661.2681 661.0217 660.8958 660.7322 660.3991 660.1375 659.9921 659.9394 659.8546 659.73 659.6152 659.5316 659.4822 659.4548 659.4318 659.3959 659.32 659.2234 659.1351 659.0577 658.9863 658.9141 658.8269 658.707 658.5432 658.343 658.121 657.8953 657.6788 657.4766 657.2975 657.1498 657.042 656.9814 656.9557 656.9039 656.8434 656.7833 656.7275 656.6803 656.6442 656.6176 656.5832 656.5134 656.4352 656.3599 656.2937 656.2404 656.2026 656.1786 656.1635 656.1588 656.1654 656.1808 656.2062 656.2413 656.2845 656.3365 656.3972 656.4655 656.5389 656.6147 656.6901 656.7629 656.8331 656.9001 656.9631 657.0226 657.0797 657.136 657.1935 657.2536 657.3175 657.388 657.4674 657.5555 657.6497 657.7471 657.8445 657.9388 658.0275 658.1115 658.1931 658.2737 658.3517 658.4254 658.4937 658.5571 658.6196 658.6865 658.7616 658.8435 658.9311 659.0217 659.1129 659.1994 659.2789 659.3472 659.4046 659.446 659.465 659.4614 659.4484 659.4229 659.3933 659.3518 659.3037 659.2612 659.2338 659.2242 659.2308 659.2449 659.2576 659.2627 659.2585 659.2481 659.2329 659.2131 659.1882 659.1605 659.1376 659.1297 659.1399 659.1625 659.1996 659.2675 659.382 659.5454 659.7427 659.9529 660.1396 660.2819 660.452 660.6796 660.9679 661.2986 661.6459 661.9844 662.288 662.3323 662.2335 662.3981 -9999 -9999 -9999 -9999 -9999 -9999 -9999 -9999 -9999 -9999 -9999 -9999 -9999 -9999 -9999 -9999 -9999 -9999 -9999 -9999 -9999 -9999 -9999 -9999
-9999 -9999 -9999 -9999 -9999 -9999 -9999 -9999 -9999 -9999 -9999 -9999 -9999 -9999 -9999 -9999 -9999 -9999 -9999 -9999 -9999 -9999 -9999 -9999 -9999 -9999 -9999 -9999 -9999 -9999 -9999 -9999 -9999 -9999 -9999 -9999 666.9113 665.8945 664.8765 663.8929 663.01 662.2943 661.7992 661.543 661.4551 661.3163 660.8687 660.4098 660.1789 660.1203 659.9594 659.8069 659.6907 659.6179 659.5886 659.5907 659.605 659.6023 659.5336 659.4576 659.4081 659.3727 659.3358 659.291 659.2223 659.103 658.9133 658.6734 658.4097 658.1451 657.8975 657.6732 657.479 657.3242 657.213 657.1443 657.0994 657.0361 656.9706 656.9088 656.854 656.8077 656.7676 656.728 656.6688 656.5897 656.5068 656.4289 656.3594 656.301 656.2566 656.2233 656.1971 656.1796 656.173 656.1772 656.1902 656.2137 656.2447 656.285 656.3354 656.3955 656.4634 656.5358 656.6096 656.6822 656.7513 656.8173 656.8792 656.9368 656.991 657.0425 657.0933 657.1462 657.2023 657.2631 657.3313 657.4081 657.4922 657.5801 657.6693 657.7573 657.8416 657.921 657.9969 658.072 658.147 658.2212 658.2932 658.3622 658.4302 658.5007 658.5789 658.6664 658.7612 658.86 658.9598 659.0563 659.1435 659.2218 659.2843 659.3392 659.3766 659.3973 659.4001 659.3966 659.382 659.3595 659.327 659.2886 659.2528 659.2271 659.2153 659.2158 659.2207 659.2225 659.2187 659.2104 659.1982 659.1817 659.1607 659.1372 659.1171 659.1093 659.1195 659.1433 659.1764 659.2321 659.33 659.4794 659.6708 659.8833 660.0893 660.275 660.4442 660.6663 660.9403 661.2454 661.5479 661.8086 661.992 661.9875 661.9038 662.032 -9999 -9999 -9999 -9999 -9999 -9999 -9999 -9999 -9999 -9999 -9999 -9999 -9999 -9999 -9999 -9999 -9999 -9999 -9999 -9999 -9999 -9999 -9999 -9999
-9999 -9999 -9999 -9999 -9999 -9999 -9999 -9999 -9999 -9999 -9999 -9999 -9999 -9999 -9999 -9999 -9999 -9999 -9999 -9999 -9999 -9999 -9999 -9999 -9999 -9999 -9999 -9999 -9999 -9999 -9999 -9999 -9999 -9999 -9999 -9999 -9999 666.95 665.9295 664.9454 664.0352 663.2261 662.5915 662.2833 662.2108 662.0482 661.509 660.8981 660.4228 660.2026 660.0376 659.8867 659.7839 659.7307 659.7219 659.7485 659.8024 659.8537 659.7792 659.7421 659.7686 659.7999 659.8001 659.7771 659.7194 659.5895 659.3473 659.0454 658.726 658.4167 658.1357 657.8907 657.6844 657.523 657.4075 657.3298 657.2672 657.1902 657.1176 657.053 656.996 656.9463 656.9001 656.8467 656.765 656.6751 656.5873 656.507 656.4357 656.3748 656.3258 656.2858 656.2499 656.2189 656.1986 656.1892 656.1918 656.2057 656.2239 656.2521 656.29 656.3394 656.3988 656.4651 656.5344 656.6045 656.6724 656.7366 656.7971 656.8535 656.906 656.9551 657.002 657.049 657.0985 657.1521 657.2108 657.2772 657.3512 657.4303 657.511 657.5915 657.67 657.7451 657.816 657.8846 657.9534 658.023 658.0935 658.1641 658.235 658.3086 658.3872 658.4756 658.5728 658.6761 658.782 658.8862 658.985 659.0709 659.1474 659.2048 659.2562 659.2902 659.3123 659.321 659.3252 659.3207 659.3074 659.2863 659.2607 659.2358 659.2177 659.2096 659.2084 659.2074 659.2034 659.1967 659.1873 659.1741 659.1575 659.1398 659.1234 659.1158 659.1265 659.155 659.1945 659.2488 659.3367 659.4714 659.65 659.856 660.0699 660.2776 660.4681 660.7026 660.9814 661.2811 661.5686 661.7946 661.8506 661.7961 661.7466 661.9032 662.3923 -9999 -9999 -9999 -9999 -9999 -9999 -9999 -9999 -9999 -9999 -9999 -9999 -9999 -9999 -9999 -9999 -9999 -9999 -9999 -9999 -9999 -9999 -9999
-9999 -9999 -9999 -9999 -9999 -9999 -9999 -9999 -9999 -9999 -9999 -9999 -9999 -9999 -9999 -9999 -9999 -9999 -9999 -9999 -9999 -9999 -9999 -9999 -9999 -9999 -9999 -9999 -9999 -9999 -9999 -9999 -9999 -9999 -9999 -9999 -9999 -9999 667.0208 666.1014 665.2799 664.4863 663.77 663.2759 663.1539 662.8738 662.221 661.5153 660.9174 660.4877 660.2667 660.0662 659.9643 659.9316 659.938 659.9672 660.0252 660.1091 660.0615 660.1142 660.2783 660.4117 660.4409 660.4182 660.3441 660.1749 659.8345 659.4451 659.0585 658.7023 658.3899 658.1268 657.9122 657.7463 657.6259 657.5376 657.4489 657.3612 657.2822 657.2131 657.1516 657.0945 657.035 656.9591 656.8655 656.7689 656.678 656.5964 656.5244 656.4617 656.4092 656.3635 656.3195 656.2759 656.2434 656.2212 656.213 656.2181 656.2274 656.2441 656.2651 656.3011 656.3494 656.4066 656.4691 656.5338 656.5983 656.6603 656.7189 656.7738 656.8248 656.8724 656.9175 656.9611 657.0057 657.0537 657.1059 657.1635 657.2281 657.2988 657.3723 657.4457 657.5178 657.5878 657.6545 657.718 657.78 657.8427 657.907 657.9738 658.0432 658.1162 658.1954 658.2811 658.3772 658.4805 658.5886 658.6974 658.8028 658.9011 658.985 659.0591 659.113 659.1601 659.1918 659.2141 659.2284 659.238 659.2416 659.2387 659.2308 659.2194 659.209 659.2041 659.2051 659.2069 659.2065 659.2044 659.1998 659.1912 659.1799 659.1692 659.1599 659.155 659.1641 659.1945 659.243 659.3053 659.3914 659.5139 659.6744 659.8635 660.0674 660.28 660.5015 660.7567 661.0466 661.3442 661.6134 661.7984 661.7936 661.7241 661.7202 661.9503 662.5567 -9999 -9999 -9999 -9999 -9999 -9999 -9999 -9999 -9999 -9999 -9999 -9999 -9999 -9999 -9999 -9999 -9999 -9999 -9999 -9999 -9999 -9999 -9999
-9999 -9999 -9999 -9999 -9999 -9999 -9999 -9999 -9999 -9999 -9999 -9999 -9999 -9999 -9999 -9999 -9999 -9999 -9999 -9999 -9999 -9999 -9999 -9999 -9999 -9999 -9999 -9999 -9999 -9999 -9999 -9999 -9999 -9999 -9999 -9999 -9999 -9999 668.073 667.2599 666.5944 665.8994 665.1593 664.5104 664.1821 663.562 662.8589 662.1567 661.5733 661.104 660.7435 660.4161 660.3015 660.2934 660.3246 660.3414 660.3509 660.3909 660.4639 660.6755 661.037 661.3322 661.3734 661.3062 661.1294 660.8152 660.3411 659.8481 659.3913 658.9938 658.6561 658.3793 658.1589 657.9897 657.8622 657.7587 657.6477 657.5466 657.4597 657.3843 657.316 657.249 657.1767 657.0791 656.9744 656.8724 656.7786 656.6958 656.6233 656.5598 656.5039 656.4531 656.4017 656.3489 656.3046 656.2734 656.2585 656.261 656.2717 656.2755 656.2651 656.2833 656.3181 656.3636 656.4166 656.4738 656.5323 656.5906 656.6464 656.6992 656.7487 656.795 656.8387 656.881 656.9229 656.9669 657.0144 657.066 657.123 657.1858 657.2528 657.3206 657.387 657.4516 657.5142 657.574 657.6311 657.6872 657.7439 657.8031 657.8662 657.9344 658.0092 658.0922 658.1829 658.2831 658.3894 658.4987 658.6073 658.7112 658.8075 658.8892 658.9606 659.0132 659.056 659.0867 659.1095 659.1276 659.1416 659.1521 659.1596 659.1648 659.1688 659.1755 659.1866 659.1991 659.2095 659.2173 659.222 659.2219 659.2184 659.2163 659.2167 659.2184 659.2284 659.2588 659.313 659.3861 659.4775 659.5939 659.737 659.902 660.0822 660.2805 660.521 660.7999 661.1037 661.4006 661.6501 661.7995 661.7714 661.706 661.7543 662.0764 662.8557 -9999 -9999 -9999 -9999 -9999 -9999 -9999 -9999 -9999 -9999 -9999 -9999 -9999 -9999 -9999 -9999 -9999 -9999 -9999 -9999 -9999 -9999 -9999
-9999 -9999 -9999 -9999 -9999 -9999 -9999 -9999 -9999 -9999 -9999 -9999 -9999 -9999 -9999 -9999 -9999 -9999 -9999 -9999 -9999 -9999 -9999 -9999 -9999 -9999 -9999 -9999 -9999 -9999 -9999 -9999 -9999 -9999 -9999 -9999 -9999 -9999 -9999 668.3173 667.7915 667.2 666.4626 665.6566 664.8674 664.1279 663.4161 662.7563 662.2717 661.8187 661.3853 660.9944 660.8488 660.8673 660.9903 661.0566 661.0656 661.1412 661.3444 661.6858 662.067 662.3503 662.4063 662.2932 661.9898 661.5173 660.8726 660.2377 659.7109 659.2849 658.9327 658.6459 658.421 658.2475 658.1088 657.9791 657.8536 657.7406 657.6438 657.5602 657.4814 657.3986 657.3043 657.1973 657.0873 656.9822 656.8867 656.8027 656.7296 656.6652 656.6066 656.551 656.4935 656.4334 656.3787 656.3428 656.3217 656.3214 656.3304 656.3114 656.2885 656.2856 656.3046 656.3373 656.3787 656.4265 656.4775 656.5297 656.5815 656.6316 656.6791 656.724 656.7667 656.8078 656.8485 656.8903 656.9346 656.9823 657.0341 657.0905 657.1512 657.2144 657.2767 657.337 657.3955 657.452 657.5061 657.5581 657.6089 657.6603 657.7147 657.7741 657.8406 657.9156 658.0001 658.0931 658.1943 658.3002 658.4075 658.5133 658.6139 658.7065 658.7863 658.8552 658.9077 658.9479 658.9785 659.0026 659.0236 659.0421 659.0596 659.0769 659.0946 659.1147 659.1389 659.1655 659.1914 659.215 659.2346 659.2477 659.2556 659.2646 659.2772 659.2903 659.3057 659.3364 659.3936 659.4758 659.5761 659.6923 659.8243 659.9677 660.1164 660.28 660.519 660.8162 661.1351 661.4353 661.6732 661.7997 661.7599 661.7028 661.7821 662.157 663.0104 -9999 -9999 -9999 -9999 -9999 -9999 -9999 -9999 -9999 -9999 -9999 -9999 -9999 -9999 -9999 -9999 -9999 -9999 -9999 -9999 -9999 -9999 -9999
-9999 -9999 -9999 -9999 -9999 -9999 -9999 -9999 -9999 -9999 -9999 -9999 -9999 -9999 -9999 -9999 -9999 -9999 -9999 -9999 -9999 -9999 -9999 -9999 -9999 -9999 -9999 -9999 -9999 -9999 -9999 -9999 -9999 -9999 -9999 -9999 -9999 -9999 -9999 669.2382 668.8014 668.243 667.5699 666.7556 665.8276 664.8223 663.8983 663.2865 662.9512 662.4561 661.8676 661.494 661.4116 661.4688 661.7258 661.9524 662.0049 662.1779 662.5494 663.0206 663.3539 663.4771 663.5067 663.3051 662.8167 662.1669 661.3388 660.5587 660.0054 659.5765 659.2186 658.9235 658.6911 658.5114 658.3625 658.2058 658.0629 657.938 657.8306 657.7368 657.6458 657.5422 657.4305 657.3152 657.2025 657.0966 657 656.9147 656.8403 656.7743 656.7131 656.653 656.5907 656.5253 656.4642 656.4213 656.3952 656.385 656.3769 656.3475 656.3171 656.3021 656.3059 656.3253 656.3553 656.3926 656.4349 656.4802 656.5265 656.5727 656.6176 656.6606 656.7021 656.7424 656.7819 656.8225 656.865 656.9101 656.9584 657.0106 657.0663 657.1249 657.1841 657.2418 657.2972 657.3507 657.4025 657.4525 657.5002 657.5466 657.5934 657.6436 657.6993 657.7635 657.8372 657.9208 658.0131 658.112 658.2144 658.3173 658.4178 658.5136 658.6021 658.6794 658.746 658.7983 658.8381 658.8699 658.8964 658.9209 658.9449 658.9701 658.9971 659.0275 659.0626 659.1021 659.1434 659.1842 659.222 659.2527 659.2762 659.2987 659.325 659.3523 659.3793 659.4143 659.4724 659.5593 659.6686 659.7899 659.9191 660.0525 660.1785 660.2869 660.5125 660.8138 661.1445 661.4501 661.6836 661.7999 661.7518 661.6989 661.7935 662.1946 663.083 -9999 -9999 -9999 -9999 -9999 -9999 -9999 -9999 -9999 -9999 -9999 -9999 -9999 -9999 -9999 -9999 -9999 -9999 -9999 -9999 -9999 -9999 -9999
-9999 -9999 -9999 -9999 -9999 -9999 -9999 -9999 -9999 -9999 -9999 -9999 -9999 -9999 -9999 -9999 -9999 -9999 -9999 -9999 -9999 -9999 -9999 -9999 -9999 -9999 -9999 -9999 -9999 -9999 -9999 -9999 -9999 -9999 -9999 -9999 -9999 -9999 -9999 -9999 669.6758 669.1373 668.5237 667.8273 666.9667 665.9147 664.7979 663.9543 663.6407 662.8468 662.1671 661.8751 661.9417 661.9487 662.2852 662.8613 663.0291 663.4156 664.0957 664.7194 665.0435 665.0123 664.7289 664.2532 663.4479 662.6005 661.718 660.9233 660.3209 659.8843 659.5118 659.2027 658.9562 658.7604 658.5861 658.4189 658.2657 658.1301 658.0117 657.9073 657.8071 657.6819 657.5555 657.4338 657.3193 657.213 657.1157 657.0291 656.9531 656.8849 656.8207 656.7562 656.6898 656.6212 656.5571 656.5081 656.478 656.4568 656.4334 656.3885 656.349 656.325 656.3178 656.3257 656.3447 656.3723 656.4055 656.4431 656.4832 656.5243 656.5657 656.6063 656.6464 656.6854 656.724 656.7633 656.8044 656.8479 656.8939 656.9431 656.9952 657.05 657.1064 657.1624 657.2163 657.2679 657.318 657.3665 657.4131 657.4573 657.5002 657.5437 657.5904 657.6429 657.7043 657.775 657.8556 657.9441 658.0378 658.1343 658.2309 658.3253 658.4154 658.4985 658.573 658.6368 658.6888 658.73 658.7639 658.7941 658.8239 658.8552 658.8889 658.9264 658.9692 659.0173 659.0699 659.1252 659.1799 659.2294 659.2714 659.3096 659.3499 659.3923 659.4343 659.4795 659.5404 659.628 659.7405 659.8669 659.999 660.1367 660.2747 660.3528 660.5317 660.8131 661.1442 661.4547 661.687 661.7999 661.7546 661.6968 661.7843 662.1647 663.0012 -9999 -9999 -9999 -9999 -9999 -9999 -9999 -9999 -9999 -9999 -9999 -9999 -9999 -9999 -9999 -9999 -9999 -9999 -9999 -9999 -9999 -9999 -9999
-9999 -9999 -9999 -9999 -9999 -9999 -9999 -9999 -9999 -9999 -9999 -9999 -9999 -9999 -9999 -9999 -9999 -9999 -9999 -9999 -9999 -9999 -9999 -9999 -9999 -9999 -9999 -9999 -9999 -9999 -9999 -9999 -9999 -9999 -9999 -9999 -9999 -9999 -9999 -9999 -9999 669.9956 669.436 668.8762 668.1461 667.1628 666.0212 664.9519 664.0997 663.2 662.4984 662.2838 662.5288 662.3768 662.6917 663.404 664.1183 664.8955 665.779 666.4994 666.8106 666.5919 665.8428 664.7596 663.8677 662.9503 662.0431 661.2437 660.6251 660.1819 659.7887 659.467 659.2048 658.9882 658.7978 658.6216 658.4591 658.312 658.1796 658.0579 657.9368 657.8062 657.676 657.5528 657.4387 657.3326 657.2344 657.1456 657.0673 656.9963 656.9283 656.8594 656.7886 656.718 656.6527 656.6006 656.5625 656.5287 656.48 656.4266 656.3824 656.3527 656.3375 656.3359 656.3455 656.3643 656.3892 656.419 656.4523 656.4879 656.5247 656.5624 656.6 656.6376 656.675 656.713 656.7524 656.7944 656.8391 656.8861 656.9357 656.9875 657.0414 657.0957 657.1487 657.2 657.2493 657.2969 657.3427 657.3865 657.4283 657.469 657.5101 657.5544 657.6045 657.6627 657.7294 657.805 657.8873 657.9742 658.0636 658.1531 658.241 658.3245 658.4021 658.4722 658.5335 658.585 658.6279 658.6653 658.7006 658.7372 658.7767 658.8207 658.8698 658.9242 658.9839 659.0482 659.1155 659.1812 659.2413 659.2964 659.3503 659.4064 659.4635 659.5226 659.5909 659.6786 659.7885 659.912 660.0389 660.1639 660.28 660.3776 660.5493 660.8204 661.149 661.4604 661.6909 661.7999 661.7625 661.7078 661.7821 662.1303 662.9073 -9999 -9999 -9999 -9999 -9999 -9999 -9999 -9999 -9999 -9999 -9999 -9999 -9999 -9999 -9999 -9999 -9999 -9999 -9999 -9999 -9999 -9999 -9999
-9999 -9999 -9999 -9999 -9999 -9999 -9999 -9999 -9999 -9999 -9999 -9999 -9999 -9999 -9999 -9999 -9999 -9999 -9999 -9999 -9999 -9999 -9999 -9999 -9999 -9999 -9999 -9999 -9999 -9999 -9999 -9999 -9999 -9999 -9999 -9999 -9999 -9999 -9999 -9999 -9999 -9999 670.4279 669.8957 669.1881 668.3071 667.2672 666.2075 665.2253 664.2816 663.5245 663.1834 663.1796 663.2886 663.7352 664.5302 665.4637 666.4427 667.4083 668.151 668.4302 668.1016 667.1255 665.7589 664.5361 663.4141 662.3944 661.5286 660.8523 660.3502 660.006 659.6993 659.433 659.2037 659.0017 658.8156 658.6427 658.4833 658.3364 658.1979 658.0626 657.9275 657.7964 657.6743 657.562 657.4565 657.3572 657.2657 657.1837 657.109 657.0362 656.9622 656.8865 656.8131 656.7463 656.6895 656.64 656.5833 656.5244 656.4679 656.4208 656.3866 656.3649 656.3551 656.3566 656.3679 656.3851 656.4081 656.4342 656.4639 656.4958 656.5295 656.564 656.5994 656.6351 656.6717 656.7095 656.7496 656.7927 656.8383 656.8859 656.9355 656.9868 657.0392 657.0914 657.1425 657.192 657.2396 657.2855 657.3294 657.3716 657.4117 657.451 657.4913 657.5343 657.5824 657.6374 657.6993 657.7689 657.8441 657.9235 658.0054 658.0881 658.1696 658.2466 658.3182 658.3837 658.4418 658.4927 658.5375 658.5791 658.6207 658.6652 658.7144 658.7695 658.83 658.8955 658.9659 659.0408 659.1176 659.1926 659.264 659.3319 659.3989 659.4682 659.541 659.6204 659.7113 659.8171 659.9333 660.0519 660.1679 660.2797 660.3951 660.576 660.8466 661.1727 661.4807 661.7024 661.7999 661.7722 661.7342 661.8087 662.1301 662.8688 663.4915 -9999 -9999 -9999 -9999 -9999 -9999 -9999 -9999 -9999 -9999 -9999 -9999 -9999 -9999 -9999 -9999 -9999 -9999 -9999 -9999 -9999 -9999
-9999 -9999 -9999 -9999 -9999 -9999 -9999 -9999 -9999 -9999 -9999 -9999 -9999 -9999 -9999 -9999 -9999 -9999 -9999 -9999 -9999 -9999 -9999 -9999 -9999 -9999 -9999 -9999 -9999 -9999 -9999 -9999 -9999 -9999 -9999 -9999 -9999 -9999 -9999 -9999 -9999 -9999 -9999 670.9239 670.1414 669.2491 668.3103 667.3931 666.4899 665.616 664.9089 664.5132 664.461 664.6588 665.1387 665.9175 666.8741 667.8659 668.8045 669.4969 669.7274 669.4051 668.4459 666.9989 665.4196 664.026 662.8144 661.8265 661.0794 660.5566 660.2208 659.9108 659.6427 659.4078 659.1973 659.0002 658.8159 658.645 658.486 658.3357 658.1916 658.0533 657.9221 657.8011 657.6904 657.5851 657.4844 657.39 657.3037 657.2238 657.1449 657.0645 656.9833 656.9052 656.8337 656.7681 656.6989 656.6317 656.5688 656.5129 656.4663 656.4297 656.4026 656.3848 656.3781 656.382 656.3931 656.4104 656.4294 656.453 656.4795 656.5085 656.5392 656.5713 656.6047 656.6393 656.6753 656.7132 656.7542 656.798 656.8443 656.8921 656.9413 656.9916 657.0425 657.093 657.1423 657.1906 657.2374 657.2822 657.3251 657.3663 657.4059 657.4451 657.4851 657.5276 657.5743 657.626 657.6832 657.7466 657.8149 657.8872 657.9626 658.0391 658.1143 658.1854 658.2516 658.3121 658.3674 658.4178 658.4646 658.5109 658.559 658.6118 658.671 658.7369 658.8082 658.8845 658.9651 659.0491 659.1345 659.2194 659.3007 659.3785 659.4562 659.5393 659.6288 659.7264 659.8315 659.9419 660.0529 660.1643 660.2798 660.4149 660.6132 660.891 661.2171 661.5204 661.7283 661.8 661.7858 661.7816 661.883 662.1998 662.9077 663.5183 -9999 -9999 -9999 -9999 -9999 -9999 -9999 -9999 -9999 -9999 -9999 -9999 -9999 -9999 -9999 -9999 -9999 -9999 -9999 -9999 -9999 -9999
-9999 -9999 -9999 -9999 -9999 -9999 -9999 -9999 -9999 -9999 -9999 -9999 -9999 -9999 -9999 -9999 -9999 -9999 -9999 -9999 -9999 -9999 -9999 -9999 -9999 -9999 -9999 -9999 -9999 -9999 -9999 -9999 -9999 -9999 -9999 -9999 -9999 -9999 -9999 -9999 -9999 -9999 -9999 -9999 671.074 670.1158 669.1741 668.3248 667.5547 666.8078 666.1943 665.8873 665.8965 666.1682 666.6036 667.2668 668.1001 669.0068 669.8395 670.4108 670.6063 670.3809 669.606 668.2294 666.5148 664.7856 663.3104 662.1494 661.2952 660.7074 660.3176 660.0676 659.8223 659.5947 659.3816 659.1716 658.9765 658.7971 658.6307 658.4739 658.3255 658.1857 658.0547 657.9342 657.8242 657.7185 657.6155 657.5181 657.4273 657.3411 657.2546 657.1663 657.0784 656.9934 656.9133 656.8315 656.7527 656.6804 656.6169 656.5621 656.5161 656.4782 656.4471 656.4229 656.4094 656.4081 656.4161 656.4261 656.4371 656.4553 656.4756 656.4996 656.5259 656.5542 656.5842 656.616 656.6497 656.6853 656.7236 656.7651 656.8096 656.856 656.9033 656.9517 657.0009 657.05 657.099 657.1471 657.1945 657.2407 657.285 657.3275 657.3687 657.4086 657.4484 657.4889 657.5313 657.5767 657.6256 657.679 657.7371 657.7997 657.8662 657.9358 658.0068 658.0766 658.1428 658.2043 658.261 658.3142 658.3645 658.4137 658.4644 658.5189 658.5795 658.648 658.7235 658.805 658.8911 658.981 659.0737 659.1688 659.2623 659.3505 659.4363 659.5256 659.6227 659.7267 659.8349 659.9436 660.0509 660.1603 660.2802 660.4311 660.6459 660.9335 661.2635 661.5676 661.7666 661.8001 661.7802 661.8271 661.9952 662.3779 663.0233 663.6572 663.9846 -9999 -9999 -9999 -9999 -9999 -9999 -9999 -9999 -9999 -9999 -9999 -9999 -9999 -9999 -9999 -9999 -9999 -9999 -9999 -9999 -9999
-9999 -9999 -9999 -9999 -9999 -9999 -9999 -9999 -9999 -9999 -9999 -9999 -9999 -9999 -9999 -9999 -9999 -9999 -9999 -9999 -9999 -9999 -9999 -9999 -9999 -9999 -9999 -9999 -9999 -9999 -9999 -9999 -9999 -9999 -9999 -9999 -9999 -9999 -9999 -9999 -9999 -9999 -9999 -9999 -9999 -9999 669.9136 669.0517 668.3467 667.7496 667.2644 667.0841 667.1788 667.5189 667.8872 668.3898 669.0865 669.879 -9999 -9999 671.2086 671.1024 670.5202 669.2763 667.566 665.6428 663.8622 662.5044 661.5297 660.8799 660.4757 660.2387 659.9834 659.7611 659.5488 659.3235 659.1204 658.9376 658.7694 658.6114 658.4626 658.3232 658.1931 658.0724 657.9624 657.8555 657.7499 657.6492 657.554 657.4606 657.3649 657.2672 657.1703 657.077 656.9845 656.8946 656.8101 656.7354 656.6716 656.6177 656.5723 656.5333 656.499 656.4692 656.4488 656.4414 656.4446 656.4524 656.4584 656.4695 656.4833 656.5023 656.5238 656.548 656.5742 656.6024 656.6331 656.6659 656.7013 656.7399 656.7816 656.826 656.8719 656.9186 656.9658 657.0134 657.0611 657.1085 657.1553 657.2019 657.2476 657.2919 657.3347 657.3766 657.4175 657.4583 657.4994 657.5419 657.5865 657.6337 657.6842 657.7386 657.7973 657.8594 657.9245 657.9909 658.0564 658.1188 658.1769 658.2314 658.2836 658.3345 658.3866 658.442 658.5022 658.5698 658.6462 658.7301 658.8202 658.9149 659.0133 659.1157 659.2194 659.3184 659.4123 659.5074 659.609 659.7181 659.8305 659.9417 660.0496 660.1589 660.2803 660.4344 660.6549 660.9424 661.2698 661.5743 661.7664 661.707 661.6749 661.7926 662.0081 662.4395 663.0904 663.7982 664.0912 664.1609 664.1777 -9999 -9999 -9999 -9999 -9999 -9999 -9999 -9999 -9999 -9999 -9999 -9999 -9999 -9999 -9999 -9999 -9999 -9999 -9999
-9999 -9999 -9999 -9999 -9999 -9999 -9999 -9999 -9999 -9999 -9999 -9999 -9999 -9999 -9999 -9999 -9999 -9999 -9999 -9999 -9999 -9999 -9999 -9999 -9999 -9999 -9999 -9999 -9999 -9999 -9999 -9999 -9999 -9999 -9999 -9999 -9999 -9999 -9999 -9999 -9999 -9999 -9999 -9999 -9999 -9999 -9999 -9999 -9999 668.4653 668.1526 668.0823 668.2085 668.5447 668.8427 669.2242 -9999 -9999 -9999 -9999 -9999 671.6123 671.0345 669.9125 668.3829 666.4298 664.4605 662.9022 661.7995 661.0773 660.6181 660.3107 660.0971 659.8963 659.6746 659.4508 659.2474 659.0663 658.9015 658.7466 658.6006 658.4635 658.3348 658.2135 658.1027 657.9945 657.8862 657.7821 657.6827 657.5821 657.4745 657.3662 657.26 657.1569 657.0572 656.9631 656.8763 656.7994 656.7341 656.6796 656.6334 656.593 656.5554 656.5212 656.4946 656.4806 656.4781 656.4818 656.4855 656.4932 656.5021 656.5151 656.5317 656.5517 656.5739 656.5986 656.6257 656.6554 656.6877 656.7228 656.7612 656.8029 656.8467 656.8916 656.937 656.9827 657.0287 657.0746 657.1205 657.1663 657.2117 657.2568 657.301 657.3446 657.3875 657.4299 657.4719 657.5139 657.557 657.6017 657.6479 657.697 657.7496 657.8059 657.8652 657.9271 657.99 658.0522 658.1121 658.1687 658.2227 658.2749 658.3279 658.3837 658.4434 658.509 658.583 658.6661 658.757 658.854 658.9559 659.0629 659.1738 659.283 659.3863 659.4876 659.5936 659.7061 659.8225 659.9379 660.0497 660.1609 660.2799 660.4188 660.6267 660.8923 661.187 661.461 661.6222 661.2333 661.4008 661.6453 661.9094 662.3253 662.9556 663.6616 664.0394 664.2342 664.318 664.2349 -9999 -9999 -9999 -9999 -9999 -9999 -9999 -9999 -9999 -9999 -9999 -9999 -9999 -9999 -9999 -9999 -9999 -9999
-9999 -9999 -9999 -9999 -9999 -9999 -9999 -9999 -9999 -9999 -9999 -9999 -9999 -9999 -9999 -9999 -9999 -9999 -9999 -9999 -9999 -9999 -9999 -9999 -9999 -9999 -9999 -9999 -9999 -9999 -9999 -9999 -9999 -9999 -9999 -9999 -9999 -9999 -9999 -9999 -9999 -9999 -9999 -9999 -9999 -9999 -9999 -9999 -9999 -9999 -9999 -9999 -9999 -9999 -9999 -9999 -9999 -9999 -9999 -9999 -9999 671.8062 670.9645 670.0156 668.9485 667.1354 665.1097 663.3607 662.1429 661.3638 660.8679 660.5325 660.2805 660.0443 659.7974 659.568 659.3663 659.1891 659.0291 658.879 658.7374 658.6039 658.4771 658.3553 658.2427 658.1333 658.0222 657.9148 657.8118 657.7048 657.5814 657.463 657.3489 657.2391 657.135 657.0378 656.9498 656.872 656.8049 656.7478 656.6989 656.6558 656.6147 656.577 656.5454 656.5251 656.5166 656.5151 656.5157 656.5199 656.5264 656.5349 656.5474 656.5636 656.5825 656.6041 656.6279 656.6544 656.6833 656.7149 656.7495 656.7875 656.8282 656.871 656.9146 656.9581 657.002 657.0459 657.09 657.1342 657.1786 657.223 657.2673 657.3116 657.356 657.4 657.444 657.4874 657.5309 657.575 657.6202 657.6669 657.7159 657.7679 657.8232 657.8812 657.9412 658.002 658.0625 658.1213 658.178 658.2327 658.2869 658.3431 658.4026 658.4668 658.538 658.6183 658.7075 658.8039 658.9064 659.0146 659.1293 659.246 659.3589 659.4678 659.5783 659.6943 659.8141 659.9338 660.0504 660.1644 660.2791 660.39 660.572 660.7921 661.0061 661.1716 661.2368 661.1505 661.3702 661.6147 661.808 662.071 662.5626 663.1904 663.7808 664.2065 664.4944 664.4846 664.1279 -9999 -9999 -9999 -9999 -9999 -9999 -9999 -9999 -9999 -9999 -9999 -9999 -9999 -9999 -9999 -9999 -9999
-9999 -9999 -9999 -9999 -9999 -9999 -9999 -9999 -9999 -9999 -9999 -9999 -9999 -9999 -9999 -9999 -9999 -9999 -9999 -9999 -9999 -9999 -9999 -9999 -9999 -9999 -9999 -9999 -9999 -9999 -9999 -9999 -9999 -9999 -9999 -9999 -9999 -9999 -9999 -9999 -9999 -9999 -9999 -9999 -9999 -9999 -9999 -9999 -9999 -9999 -9999 -9999 -9999 -9999 -9999 -9999 -9999 -9999 -9999 -9999 -9999 -9999 671.4581 670.6957 669.4846 667.7221 665.7604 663.9898 662.6238 661.7889 661.2535 660.8765 660.5542 660.2381 659.9344 659.6902 659.4889 659.3148 659.1579 659.011 658.8724 658.7423 658.6176 658.4955 658.3798 658.2692 658.155 658.0431 657.9362 657.8259 657.6832 657.5582 657.439 657.3253 657.2179 657.1186 657.0287 656.95 656.8811 656.8212 656.7685 656.7213 656.6765 656.6345 656.5996 656.5747 656.5602 656.5529 656.5494 656.55 656.5538 656.5598 656.5695 656.5829 656.5994 656.6183 656.6395 656.6629 656.6885 656.7166 656.7474 656.781 656.8178 656.8572 656.8982 656.9399 656.9816 657.0234 657.0652 657.1072 657.1496 657.1924 657.2355 657.2792 657.3234 657.3683 657.4134 657.4587 657.5037 657.5487 657.5942 657.641 657.6888 657.7388 657.7915 657.847 657.905 657.9646 658.0251 658.0854 658.1448 658.2026 658.2595 658.3171 658.3772 658.4409 658.5101 658.5875 658.6741 658.7686 658.8696 658.9768 659.0911 659.2118 659.332 659.4484 659.5643 659.6837 659.8068 659.9304 660.0511 660.1674 660.2797 660.3865 660.5292 660.7025 660.8416 660.9424 661.0185 661.2271 661.521 661.7205 661.7963 661.8812 662.1779 662.7523 663.384 664.1152 664.7222 664.8989 664.4907 -9999 -9999 -9999 -9999 -9999 -9999 -9999 -9999 -9999 -9999 -9999 -9999 -9999 -9999 -9999 -9999 -9999
-9999 -9999 -9999 -9999 -9999 -9999 -9999 -9999 -9999 -9999 -9999 -9999 -9999 -9999 -9999 -9999 -9999 -9999 -9999 -9999 -9999 -9999 -9999 -9999 -9999 -9999 -9999 -9999 -9999 -9999 -9999 -9999 -9999 -9999 -9999 -9999 -9999 -9999 -9999 -9999 -9999 -9999 -9999 -9999 -9999 -9999 -9999 -9999 -9999 -9999 -9999 -9999 -9999 -9999 -9999 -9999 -9999 -9999 -9999 -9999 -9999 -9999 -9999 670.7713 669.586 668.0228 666.2841 664.6473 663.2903 662.3766 661.7825 661.3479 660.9182 660.4306 660.085 659.8307 659.6285 659.4526 659.2935 659.1458 659.0076 658.879 658.7552 658.6327 658.5128 658.3998 658.2823 658.1631 658.0458 657.9241 657.7869 657.6561 657.5317 657.4144 657.3047 657.2035 657.1119 657.0306 656.959 656.8956 656.8387 656.7867 656.7382 656.6927 656.6549 656.6268 656.6079 656.5952 656.5871 656.5839 656.5848 656.5891 656.5972 656.6089 656.6235 656.6406 656.6595 656.6803 656.7028 656.7275 656.7548 656.7843 656.8167 656.8517 656.8894 656.9284 656.9679 657.0074 657.047 657.0867 657.1265 657.1667 657.2079 657.2498 657.2927 657.3368 657.382 657.4277 657.4739 657.5203 657.5671 657.6147 657.6633 657.7128 657.7644 657.8187 657.8757 657.935 657.9958 658.0575 658.1193 658.1804 658.241 658.3014 658.3629 658.4275 658.4963 658.5714 658.6553 658.7478 658.8469 658.9519 659.0643 659.1851 659.3094 659.4318 659.5526 659.6755 659.8014 659.9282 660.0521 660.1699 660.28 660.3853 660.5099 660.6556 660.7582 660.8727 661.0763 661.3979 661.7198 661.7897 661.6534 661.6892 661.9989 662.5211 663.222 664.1192 664.8921 665.0356 664.6694 -9999 -9999 -9999 -9999 -9999 -9999 -9999 -9999 -9999 -9999 -9999 -9999 -9999 -9999 -9999 -9999 -9999
-9999 -9999 -9999 -9999 -9999 -9999 -9999 -9999 -9999 -9999 -9999 -9999 -9999 -9999 -9999 -9999 -9999 -9999 -9999 -9999 -9999 -9999 -9999 -9999 -9999 -9999 -9999 -9999 -9999 -9999 -9999 -9999 -9999 -9999 -9999 -9999 -9999 -9999 -9999 -9999 -9999 -9999 -9999 -9999 -9999 -9999 -9999 -9999 -9999 -9999 -9999 -9999 -9999 -9999 -9999 -9999 -9999 -9999 -9999 -9999 -9999 -9999 -9999 670.3081 669.3026 668.0443 666.6409 665.2573 664.0294 663.0565 662.4138 661.9407 661.4302 660.816 660.3354 660.0298 659.8035 659.6085 659.4372 659.2838 659.1437 659.015 658.8915 658.7672 658.6424 658.5239 658.4049 658.2789 658.1521 658.0227 657.8872 657.7543 657.6262 657.5061 657.3942 657.291 657.1971 657.1128 657.0371 656.9691 656.9073 656.8505 656.7981 656.7502 656.7106 656.6804 656.6581 656.641 656.6286 656.6215 656.6194 656.6223 656.6294 656.6401 656.6537 656.6697 656.687 656.7057 656.7258 656.7473 656.771 656.7968 656.8253 656.8558 656.8893 656.9249 656.9615 656.9987 657.036 657.0731 657.1103 657.1478 657.1863 657.2258 657.2666 657.3087 657.3522 657.3971 657.4429 657.4899 657.5378 657.5867 657.6362 657.6868 657.7384 657.7922 657.8489 657.9083 657.9702 658.0336 658.0979 658.1624 658.2269 658.2913 658.3557 658.4221 658.4923 658.5667 658.6483 658.7389 658.8364 658.9398 659.0497 659.1688 659.2944 659.4204 659.5453 659.671 659.799 659.928 660.0543 660.1732 660.2799 660.3729 660.472 660.5842 660.7004 660.8632 661.1205 661.4669 661.767 661.5129 661.1055 661.4105 661.8671 662.3733 663.1408 664.0927 664.8775 664.8943 664.3526 -9999 -9999 -9999 -9999 -9999 -9999 -9999 -9999 -9999 -9999 -9999 -9999 -9999 -9999 -9999 -9999 -9999
-9999 -9999 -9999 -9999 -9999 -9999 -9999 -9999 -9999 -9999 -9999 -9999 -9999 -9999 -9999 -9999 -9999 -9999 -9999 -9999 -9999 -9999 -9999 -9999 -9999 -9999 -9999 -9999 -9999 -9999 -9999 -9999 -9999 -9999 -9999 -9999 -9999 -9999 -9999 -9999 -9999 -9999 -9999 -9999 -9999 -9999 -9999 -9999 -9999 -9999 -9999 -9999 -9999 -9999 -9999 -9999 -9999 -9999 -9999 -9999 -9999 -9999 -9999 -9999 669.0693 668.071 667.0098 665.9235 664.8348 663.8109 663.0819 662.5347 661.856 661.1881 660.652 660.2802 660.0138 659.7794 659.5854 659.4226 659.2802 659.1509 659.027 658.8995 658.7697 658.6428 658.5218 658.3933 658.2603 658.1255 657.9889 657.8538 657.7234 657.6002 657.4856 657.3798 657.2831 657.1947 657.1142 657.041 656.9738 656.9121 656.8565 656.8074 656.7665 656.7354 656.7102 656.6885 656.6719 656.6614 656.6571 656.6586 656.665 656.6754 656.6887 656.7041 656.7207 656.7382 656.7565 656.7756 656.796 656.8182 656.8426 656.8693 656.8986 656.9303 656.9636 656.9979 657.0322 657.0668 657.1015 657.1366 657.1726 657.2095 657.2477 657.287 657.3278 657.3702 657.4146 657.4607 657.5085 657.5577 657.6082 657.6594 657.7119 657.7662 657.8229 657.8826 657.9453 658.0104 658.0773 658.1451 658.2136 658.2826 658.3513 658.4207 658.4936 658.5696 658.65 658.7387 658.8353 658.9374 659.0455 659.1624 659.2874 659.4153 659.5438 659.6718 659.8006 659.9304 660.0579 660.1771 660.2799 660.3562 660.4271 660.5132 660.6279 660.7974 661.0292 661.2831 661.4465 661.3662 661.3145 661.4862 661.7816 662.2057 663.0077 663.9112 664.6054 664.5139 664.0977 -9999 -9999 -9999 -9999 -9999 -9999 -9999 -9999 -9999 -9999 -9999 -9999 -9999 -9999 -9999 -9999 -9999
-9999 -9999 -9999 -9999 -9999 -9999 -9999 -9999 -9999 -9999 -9999 -9999 -9999 -9999 -9999 -9999 -9999 -9999 -9999 -9999 -9999 -9999 -9999 -9999 -9999 -9999 -9999 -9999 -9999 -9999 -9999 -9999 -9999 -9999 -9999 -9999 -9999 -9999 -9999 -9999 -9999 -9999 -9999 -9999 -9999 -9999 -9999 -9999 -9999 -9999 -9999 -9999 -9999 -9999 -9999 -9999 -9999 -9999 -9999 -9999 -9999 -9999 -9999 -9999 -9999 668.2285 667.4402 666.6258 665.7144 664.7208 663.7574 662.9666 662.2252 661.5352 660.9613 660.532 660.2263 659.9438 659.7303 659.5608 659.4176 659.2882 659.1627 659.0291 658.8939 658.7599 658.6321 658.5052 658.3699 658.2318 658.0931 657.9561 657.8228 657.6965 657.5784 657.4688 657.3682 657.2753 657.1893 657.1106 657.0385 656.9724 656.9143 656.865 656.8239 656.7916 656.7643 656.7369 656.7159 656.7025 656.6964 656.697 656.7031 656.7136 656.7273 656.743 656.7596 656.7767 656.7939 656.8116 656.8295 656.8484 656.8693 656.8922 656.9176 656.9453 656.9747 657.0054 657.0364 657.0679 657.1 657.1329 657.167 657.2017 657.2371 657.2734 657.3109 657.3501 657.3915 657.4354 657.4818 657.5304 657.5808 657.6324 657.6854 657.7401 657.7972 657.8572 657.9204 657.9867 658.0557 658.1265 658.1989 658.2725 658.3461 658.4197 658.4961 658.5754 658.657 658.7448 658.8405 658.9421 659.0491 659.1638 659.2871 659.4156 659.549 659.6787 659.8069 659.9355 660.062 660.1804 660.2799 660.341 660.3859 660.4445 660.5436 660.6946 660.8856 661.0602 661.1418 661.1232 661.5867 661.6875 661.8165 662.1122 662.8093 663.5024 664.01 664.0466 -9999 -9999 -9999 -9999 -9999 -9999 -9999 -9999 -9999 -9999 -9999 -9999 -9999 -9999 -9999 -9999 -9999 -9999
-9999 -9999 -9999 -9999 -9999 -9999 -9999 -9999 -9999 -9999 -9999 -9999 -9999 -9999 -9999 -9999 -9999 -9999 -9999 -9999 -9999 -9999 -9999 -9999 -9999 -9999 -9999 -9999 -9999 -9999 -9999 -9999 -9999 -9999 -9999 -9999 -9999 -9999 -9999 -9999 -9999 -9999 -9999 -9999 -9999 -9999 -9999 -9999 -9999 -9999 -9999 -9999 -9999 -9999 -9999 -9999 -9999 -9999 -9999 -9999 -9999 -9999 -9999 -9999 -9999 668.6071 667.9147 667.2399 666.5349 665.6658 664.6489 663.5788 662.7279 661.9575 661.3033 660.7717 660.3494 660.0759 659.8703 659.7007 659.5583 659.4292 659.3005 659.1543 659.0133 658.8763 658.7415 658.6107 658.4778 658.3395 658.1991 658.0594 657.9232 657.7931 657.6709 657.5568 657.4516 657.3537 657.2624 657.1786 657.1025 657.0334 656.9736 656.9241 656.8835 656.8486 656.8149 656.7839 656.76 656.7444 656.7372 656.7372 656.7433 656.7544 656.7687 656.7852 656.8027 656.82 656.8372 656.8541 656.8706 656.8873 656.9049 656.9244 656.9462 656.9698 656.9952 657.022 657.049 657.077 657.1061 657.1367 657.1691 657.2018 657.235 657.2686 657.3029 657.3386 657.3766 657.4172 657.4611 657.5081 657.5573 657.6082 657.6609 657.7155 657.7726 657.8329 657.8965 657.9629 658.0328 658.1061 658.1818 658.2594 658.3379 658.4164 658.4969 658.5803 658.6649 658.7535 658.8492 658.9509 659.0576 659.1712 659.2931 659.4208 659.5612 659.6915 659.8172 659.9427 660.066 660.1814 660.2799 660.3274 660.3521 660.3868 660.4691 660.6074 660.7886 660.9343 661.0287 661.3419 661.7495 661.8314 661.8904 662.0764 662.6001 663.1219 663.5522 663.7043 -9999 -9999 -9999 -9999 -9999 -9999 -9999 -9999 -9999 -9999 -9999 -9999 -9999 -9999 -9999 -9999 -9999 -9999
-9999 -9999 -9999 -9999 -9999 -9999 -9999 -9999 -9999 -9999 -9999 -9999 -9999 -9999 -9999 -9999 -9999 -9999 -9999 -9999 -9999 -9999 -9999 -9999 -9999 -9999 -9999 -9999 -9999 -9999 -9999 -9999 -9999 -9999 -9999 -9999 -9999 -9999 -9999 -9999 -9999 -9999 -9999 -9999 -9999 -9999 -9999 -9999 -9999 -9999 -9999 -9999 -9999 -9999 -9999 -9999 -9999 -9999 -9999 -9999 -9999 -9999 -9999 -9999 -9999 -9999 668.3636 667.7505 667.1896 666.5499 665.6722 664.6005 663.5139 662.5543 661.7708 661.1301 660.6287 660.2825 660.0444 659.8522 659.703 659.5699 659.4381 659.2712 659.1274 658.9889 658.8528 658.7168 658.5809 658.4427 658.3022 658.1614 658.0222 657.8881 657.7613 657.642 657.5322 657.4296 657.3336 657.246 657.1677 657.0973 657.0358 656.9855 656.9438 656.9068 656.8654 656.8304 656.8046 656.788 656.7801 656.7798 656.7861 656.7977 656.8129 656.8303 656.8489 656.8673 656.885 656.9019 656.918 656.9333 656.9487 656.9652 656.9834 657.0034 657.0247 657.0475 657.0709 657.0947 657.1199 657.1477 657.1786 657.2094 657.2407 657.2719 657.3033 657.3358 657.3704 657.4077 657.4484 657.4926 657.5397 657.5891 657.6406 657.6945 657.751 657.8107 657.8741 657.9399 658.01 658.0846 658.1627 658.2437 658.3264 658.4099 658.4946 658.5822 658.6707 658.7616 658.8584 658.9609 659.0681 659.1825 659.3069 659.4407 659.5812 659.7068 659.8285 659.9506 660.0706 660.1804 660.2797 660.3159 660.3237 660.3439 660.4152 660.5573 660.7522 660.9784 661.2158 661.4857 661.7922 661.9052 661.9936 662.1859 662.5771 662.9948 -9999 -9999 -9999 -9999 -9999 -9999 -9999 -9999 -9999 -9999 -9999 -9999 -9999 -9999 -9999 -9999 -9999 -9999 -9999 -9999
-9999 -9999 -9999 -9999 -9999 -9999 -9999 -9999 -9999 -9999 -9999 -9999 -9999 -9999 -9999 -9999 -9999 -9999 -9999 -9999 -9999 -9999 -9999 -9999 -9999 -9999 -9999 -9999 -9999 -9999 -9999 -9999 -9999 -9999 -9999 -9999 -9999 -9999 -9999 -9999 -9999 -9999 -9999 -9999 -9999 -9999 -9999 -9999 -9999 -9999 -9999 -9999 -9999 -9999 -9999 -9999 -9999 -9999 -9999 -9999 -9999 -9999 -9999 -9999 -9999 -9999 -9999 668.2066 667.7336 667.2964 666.6628 665.6962 664.5231 663.333 662.3917 661.6067 660.988 660.5388 660.2382 660.0019 659.8446 659.6957 659.5469 659.3865 659.239 659.0988 658.9607 658.823 658.6838 658.5429 658.4008 658.2578 658.116 657.9783 657.8472 657.7232 657.6092 657.5031 657.4041 657.3143 657.2352 657.1647 657.1004 657.0466 656.9992 656.9528 656.9103 656.8757 656.8502 656.8336 656.8256 656.8254 656.8319 656.844 656.8601 656.8788 656.8986 656.9182 656.9369 656.9544 656.9706 656.9855 656.9993 657.0134 657.0283 657.0447 657.0623 657.0808 657.1004 657.1202 657.1414 657.1654 657.1949 657.223 657.253 657.2822 657.3111 657.3409 657.3724 657.4067 657.444 657.4851 657.5297 657.577 657.6268 657.679 657.7339 657.792 657.8538 657.9191 657.989 658.0639 658.1434 658.2265 658.3124 658.4 658.4889 658.5801 658.6727 658.7664 658.8651 658.9691 659.077 659.1913 659.3159 659.45 659.5864 659.7126 659.8342 659.9567 660.0786 660.1913 660.28 660.3044 660.3011 660.314 660.3829 660.5364 660.7574 661.0178 661.2922 661.5616 661.7972 661.9286 662.02 662.2782 662.6313 662.9844 -9999 -9999 -9999 -9999 -9999 -9999 -9999 -9999 -9999 -9999 -9999 -9999 -9999 -9999 -9999 -9999 -9999 -9999 -9999 -9999
-9999 -9999 -9999 -9999 -9999 -9999 -9999 -9999 -9999 -9999 -9999 -9999 -9999 -9999 -9999 -9999 -9999 -9999 -9999 -9999 -9999 -9999 -9999 -9999 -9999 -9999 -9999 -9999 -9999 -9999 -9999 -9999 -9999 -9999 -9999 -9999 -9999 -9999 -9999 -9999 -9999 -9999 -9999 -9999 -9999 -9999 -9999 -9999 -9999 -9999 -9999 -9999 -9999 -9999 -9999 -9999 -9999 -9999 -9999 -9999 -9999 -9999 -9999 -9999 -9999 -9999 -9999 -9999 668.2018 667.9479 667.5414 666.744 665.6285 664.3608 663.1684 662.1844 661.4091 660.8088 660.3603 660.1215 659.9815 659.8153 659.6525 659.4918 659.3427 659.2021 659.0642 658.9253 658.7844 658.6409 658.4957 658.3501 658.2051 658.0637 657.9285 657.8007 657.6834 657.5753 657.4745 657.3841 657.3054 657.2349 657.1648 657.1039 657.0455 656.9948 656.9532 656.921 656.8973 656.8818 656.8741 656.8743 656.8812 656.8937 656.9107 656.9305 656.9515 656.9725 656.9927 657.0112 657.028 657.0426 657.0557 657.0681 657.0803 657.0933 657.1072 657.1217 657.1372 657.153 657.1702 657.1904 657.2147 657.2405 657.2702 657.2974 657.3245 657.3521 657.3812 657.4127 657.4473 657.4855 657.5275 657.5726 657.6204 657.6706 657.7234 657.7794 657.8393 657.9032 657.9719 658.0462 658.126 658.21 658.2977 658.3882 658.4806 658.5747 658.6705 658.7673 658.8677 658.9733 659.0819 659.1951 659.3173 659.4485 659.5819 659.7087 659.8312 659.9547 660.0788 660.1938 660.2797 660.2933 660.2833 660.2964 660.373 660.5364 660.7847 661.0729 661.364 661.6196 661.8041 661.9921 662.1453 662.3954 662.7049 662.9943 -9999 -9999 -9999 -9999 -9999 -9999 -9999 -9999 -9999 -9999 -9999 -9999 -9999 -9999 -9999 -9999 -9999 -9999 -9999 -9999
-9999 -9999 -9999 -9999 -9999 -9999 -9999 -9999 -9999 -9999 -9999 -9999 -9999 -9999 -9999 -9999 -9999 -9999 -9999 -9999 -9999 -9999 -9999 -9999 -9999 -9999 -9999 -9999 -9999 -9999 -9999 -9999 -9999 -9999 -9999 -9999 -9999 -9999 -9999 -9999 -9999 -9999 -9999 -9999 -9999 -9999 -9999 -9999 -9999 -9999 -9999 -9999 -9999 -9999 -9999 -9999 -9999 -9999 -9999 -9999 -9999 -9999 -9999 -9999 -9999 -9999 -9999 -9999 668.6821 668.4609 668.1679 667.5769 666.5806 665.3025 663.9266 662.8143 661.9147 661.1913 660.6456 660.2983 660.1011 659.9296 659.7578 659.5938 659.4415 659.2997 659.1621 659.0233 658.8813 658.7357 658.5875 658.4384 658.2898 658.1448 658.0062 657.8755 657.7559 657.647 657.5453 657.4534 657.3743 657.3033 657.2224 657.1509 657.0887 657.0378 656.9987 656.9696 656.9482 656.9338 656.926 656.9266 656.934 656.9473 656.965 656.9859 657.0083 657.0308 657.0524 657.0721 657.0898 657.1047 657.1173 657.1284 657.1385 657.1486 657.1588 657.1694 657.1808 657.1925 657.2058 657.2217 657.2415 657.2645 657.2904 657.316 657.3417 657.3677 657.395 657.4244 657.4567 657.4925 657.5323 657.5754 657.6213 657.6695 657.7205 657.7742 657.832 657.894 657.9611 658.0339 658.1127 658.1965 658.2847 658.3765 658.4711 658.567 658.6649 658.7642 658.8662 658.9727 659.082 659.1942 659.3129 659.4399 659.5698 659.696 659.8188 659.942 660.0652 660.1771 660.2568 660.28 660.2729 660.2919 660.3819 660.5604 660.8209 661.1298 661.4344 661.6876 661.8089 662.0037 662.2166 662.4698 662.7523 -9999 -9999 -9999 -9999 -9999 -9999 -9999 -9999 -9999 -9999 -9999 -9999 -9999 -9999 -9999 -9999 -9999 -9999 -9999 -9999 -9999
-9999 -9999 -9999 -9999 -9999 -9999 -9999 -9999 -9999 -9999 -9999 -9999 -9999 -9999 -9999 -9999 -9999 -9999 -9999 -9999 -9999 -9999 -9999 -9999 -9999 -9999 -9999 -9999 -9999 -9999 -9999 -9999 -9999 -9999 -9999 -9999 -9999 -9999 -9999 -9999 -9999 -9999 -9999 -9999 -9999 -9999 -9999 -9999 -9999 -9999 -9999 -9999 -9999 -9999 -9999 -9999 -9999 -9999 -9999 -9999 -9999 -9999 -9999 -9999 -9999 -9999 -9999 -9999 -9999 668.8362 668.6147 668.1304 667.2783 666.1079 664.8237 663.5587 662.5237 661.6653 661.011 660.5638 660.2806 660.0758 659.8749 659.6957 659.5393 659.3953 659.2565 659.1171 658.9744 658.8269 658.6759 658.5236 658.3713 658.223 658.0817 657.949 657.8275 657.7178 657.6149 657.5178 657.4316 657.3502 657.2685 657.196 657.1349 657.0862 657.0498 657.0233 657.0039 656.9911 656.9821 656.9829 656.9908 657.0045 657.0231 657.045 657.0688 657.0928 657.1158 657.1368 657.1555 657.1713 657.1838 657.194 657.2025 657.21 657.2168 657.2236 657.2307 657.2385 657.2478 657.2594 657.2745 657.2935 657.3154 657.3386 657.3624 657.3868 657.4124 657.4401 657.4706 657.5048 657.5427 657.5842 657.6285 657.6752 657.7244 657.7766 657.8325 657.8925 657.9574 658.0284 658.1055 658.188 658.2753 658.367 658.4619 658.5587 658.6571 658.7581 658.8612 658.9678 659.0773 659.1891 659.305 659.4278 659.5536 659.6777 659.7993 659.9213 660.0432 660.1553 660.2399 660.28 660.2761 660.3041 660.4071 660.6025 660.8688 661.1694 661.4655 661.7353 661.8182 662.006 662.228 662.4712 662.7495 -9999 -9999 -9999 -9999 -9999 -9999 -9999 -9999 -9999 -9999 -9999 -9999 -9999 -9999 -9999 -9999 -9999 -9999 -9999 -9999 -9999
-9999 -9999 -9999 -9999 -9999 -9999 -9999 -9999 -9999 -9999 -9999 -9999 -9999 -9999 -9999 -9999 -9999 -9999 -9999 -9999 -9999 -9999 -9999 -9999 -9999 -9999 -9999 -9999 -9999 -9999 -9999 -9999 -9999 -9999 -9999 -9999 -9999 -9999 -9999 -9999 -9999 -9999 -9999 -9999 -9999 -9999 -9999 -9999 -9999 -9999 -9999 -9999 -9999 -9999 -9999 -9999 -9999 -9999 -9999 -9999 -9999 -9999 -9999 -9999 -9999 -9999 -9999 -9999 -9999 -9999 668.9604 668.522 667.7338 666.6921 665.536 664.4293 663.2075 662.1851 661.4124 660.864 660.4932 660.2414 659.993 659.798 659.6369 659.4915 659.3512 659.2101 659.0654 658.9159 658.762 658.606 658.4504 658.2991 658.1554 658.021 657.8976 657.7847 657.6804 657.5757 657.4805 657.3933 657.3134 657.2439 657.187 657.1425 657.1084 657.0822 657.0638 657.0532 657.0436 657.043 657.0506 657.0648 657.0844 657.1075 657.1327 657.1582 657.1827 657.2053 657.2251 657.2417 657.2547 657.2644 657.2716 657.2769 657.2806 657.2836 657.2867 657.2906 657.2953 657.303 657.3135 657.3278 657.3453 657.3651 657.3864 657.4088 657.4325 657.4586 657.488 657.521 657.5575 657.5974 657.6404 657.686 657.7341 657.7852 657.8395 657.8979 657.9609 658.0298 658.1049 658.1853 658.271 658.3615 658.4554 658.5516 658.6492 658.7501 658.8536 658.9595 659.0678 659.1787 659.2936 659.413 659.5353 659.6562 659.7754 659.8954 660.0162 660.1305 660.2237 660.28 660.288 660.3298 660.4524 660.6619 660.9298 661.1927 661.3773 661.4382 661.6149 661.8969 662.1225 662.3458 662.6455 -9999 -9999 -9999 -9999 -9999 -9999 -9999 -9999 -9999 -9999 -9999 -9999 -9999 -9999 -9999 -9999 -9999 -9999 -9999 -9999 -9999
-9999 -9999 -9999 -9999 -9999 -9999 -9999 -9999 -9999 -9999 -9999 -9999 -9999 -9999 -9999 -9999 -9999 -9999 -9999 -9999 -9999 -9999 -9999 -9999 -9999 -9999 -9999 -9999 -9999 -9999 -9999 -9999 -9999 -9999 -9999 -9999 -9999 -9999 -9999 -9999 -9999 -9999 -9999 -9999 -9999 -9999 -9999 -9999 -9999 -9999 -9999 -9999 -9999 -9999 -9999 -9999 -9999 -9999 -9999 -9999 -9999 -9999 -9999 -9999 -9999 -9999 -9999 -9999 -9999 -9999 -9999 668.7779 667.9236 666.9906 665.9832 665.0403 663.8106 662.6809 661.8315 661.1917 660.7065 660.3325 660.0908 659.9035 659.7439 659.5946 659.45 659.306 659.1588 659.0062 658.8486 658.6882 658.5289 658.374 658.2275 658.09 657.9634 657.8423 657.7324 657.6262 657.5277 657.4392 657.3622 657.2976 657.2457 657.2051 657.1724 657.1432 657.1228 657.1104 657.1028 657.1033 657.1118 657.127 657.1478 657.1726 657.1995 657.2265 657.2526 657.2766 657.2977 657.3154 657.329 657.3387 657.345 657.3485 657.3497 657.3494 657.3485 657.3481 657.3491 657.3518 657.3577 657.3671 657.38 657.3958 657.4137 657.4333 657.4548 657.4792 657.5077 657.5402 657.5753 657.6136 657.6554 657.7002 657.7477 657.7981 657.8516 657.9089 657.9705 658.0375 658.1105 658.189 658.2723 658.3607 658.4526 658.5468 658.6427 658.7415 658.8444 658.9492 659.0553 659.1638 659.2776 659.3953 659.5151 659.6325 659.7484 659.8652 659.9838 660.0993 660.2018 660.2794 660.2977 660.3628 660.5135 660.7501 661.0351 661.3055 661.4844 661.5111 661.4105 661.5157 661.8255 662.043 662.3619 -9999 -9999 -9999 -9999 -9999 -9999 -9999 -9999 -9999 -9999 -9999 -9999 -9999 -9999 -9999 -9999 -9999 -9999 -9999 -9999 -9999
-9999 -9999 -9999 -9999 -9999 -9999 -9999 -9999 -9999 -9999 -9999 -9999 -9999 -9999 -9999 -9999 -9999 -9999 -9999 -9999 -9999 -9999 -9999 -9999 -9999 -9999 -9999 -9999 -9999 -9999 -9999 -9999 -9999 -9999 -9999 -9999 -9999 -9999 -9999 -9999 -9999 -9999 -9999 -9999 -9999 -9999 -9999 -9999 -9999 -9999 -9999 -9999 -9999 -9999 -9999 -9999 -9999 -9999 -9999 -9999 -9999 -9999 -9999 -9999 -9999 -9999 -9999 -9999 -9999 -9999 -9999 -9999 668.0767 667.2388 666.4187 665.5239 664.3651 663.1904 662.3334 661.623 661.0444 660.5951 660.2836 660.0619 659.8817 659.7141 659.5579 659.4087 659.2588 659.1024 658.9397 658.7733 658.6088 658.4485 658.2975 658.1532 658.0195 657.8934 657.7791 657.6741 657.5763 657.4901 657.4176 657.3589 657.3118 657.2729 657.2361 657.2038 657.1805 657.1667 657.1607 657.1629 657.173 657.1899 657.2126 657.2394 657.2682 657.2971 657.325 657.3505 657.3729 657.3915 657.4059 657.4158 657.4216 657.4239 657.423 657.4197 657.4153 657.4109 657.4075 657.406 657.4075 657.4117 657.4195 657.4307 657.4447 657.461 657.4796 657.5017 657.5292 657.5615 657.5952 657.6318 657.6722 657.7164 657.7634 657.8135 657.8667 657.9233 657.984 658.0498 658.1213 658.1979 658.2789 658.3647 658.454 658.5453 658.6387 658.7342 658.8346 658.938 659.0416 659.147 659.2577 659.3748 659.4922 659.6073 659.7186 659.8311 659.9449 660.0558 660.1545 660.2299 660.2805 660.3903 660.5792 660.8505 661.1674 661.4695 661.6892 661.7432 661.3585 661.0955 661.3689 661.6843 662.0233 -9999 -9999 -9999 -9999 -9999 -9999 -9999 -9999 -9999 -9999 -9999 -9999 -9999 -9999 -9999 -9999 -9999 -9999 -9999 -9999 -9999
