ncols         284
nrows         43
xllcorner     324250
yllcorner     6233300
cellsize      50
NODATA_value  -9999
-9999 -9999 -9999 -9999 -9999 -9999 -9999 -9999 -9999 -9999 -9999 -9999 -9999 -9999 -9999 -9999 -9999 -9999 -9999 -9999 -9999 -9999 -9999 -9999 -9999 -9999 -9999 -9999 -9999 -9999 -9999 -9999 -9999 -9999 -9999 -9999 -9999 -9999 -9999 -9999 -9999 -9999 -9999 -9999 -9999 -9999 -9999 -9999 643.6614 642.746 642.132 641.804 641.5621 641.2592 641.0062 640.8718 640.8737 640.8555 640.8114 640.7716 640.7502 640.7491 640.772 640.8291 640.9442 641.1863 641.825 641.9993 641.9827 641.9044 -9999 -9999 -9999 -9999 -9999 643.001 642.9414 643.0186 643.4156 643.6378 642.7778 641.5004 640.7458 640.3158 640.0928 639.9937 639.8263 639.6825 639.5728 639.4991 639.4188 639.3546 639.3002 639.2507 639.2036 639.1589 639.1181 639.0832 639.0546 639.0312 639.0145 639.0062 639 638.9963 638.997 638.9983 638.999 638.9995 639 639 639.0004 639.0005 639.0002 638.9999 638.999 638.9979 638.9976 638.9998 639.006 639.0179 639.0356 639.0558 639.0768 639.1058 639.1519 639.2188 639.3113 639.4282 639.548 639.6406 639.6932 639.7084 639.679 639.5901 639.4523 639.3171 639.2462 639.2661 639.3512 639.4369 639.4598 639.3947 639.2703 639.1622 639.1759 639.4354 640.076 641.5051 643.8266 646.4538 648.2875 649.048 648.8063 648.2902 647.823 647.488 647.2692 647.1334 647.0726 646.9647 646.4703 645.3232 643.8107 642.1525 640.596 639.2855 638.2781 637.6196 637.4077 637.5347 637.9961 638.4655 638.5635 638.6392 638.6843 638.7359 638.804 638.8785 638.9485 639.008 639.0557 639.0923 639.1174 639.1301 639.1332 639.1284 639.1158 639.0996 639.0865 639.0786 639.0731 639.0652 639.0503 639.0289 639.0045 638.9813 638.9645 638.9618 638.9769 638.9999 639 638.9999 638.9642 638.9022 638.829 638.7559 638.6981 638.6408 638.5737 638.4939 638.4021 638.6022 639.33 640.4824 642.0011 643.7362 645.3826 646.426 646.8273 646.8218 646.5844 646.2776 -9999 -9999 -9999 -9999 -9999 -9999 -9999 -9999 -9999 -9999 -9999 -9999 -9999 -9999 -9999 -9999 -9999 -9999 -9999 -9999 -9999 -9999 -9999 -9999 -9999 -9999 -9999 -9999 -9999 -9999 -9999 -9999 -9999 -9999 -9999 -9999 -9999 -9999 -9999 -9999 -9999 -9999 -9999 -9999 -9999 -9999 -9999 -9999 -9999 -9999 -9999 -9999 -9999 -9999 -9999 -9999 -9999 -9999 -9999 -9999 -9999 -9999
-9999 -9999 -9999 -9999 -9999 -9999 -9999 -9999 -9999 -9999 -9999 -9999 -9999 -9999 -9999 -9999 -9999 -9999 -9999 -9999 -9999 -9999 -9999 -9999 -9999 -9999 641.9332 642.5925 643.8665 645.2885 -9999 -9999 -9999 -9999 -9999 -9999 -9999 -9999 -9999 -9999 -9999 -9999 -9999 -9999 -9999 -9999 -9999 643.6827 643.0374 642.257 641.9687 641.8466 641.6516 641.2517 640.9857 640.7875 640.7106 640.6814 640.6711 640.6807 640.711 640.7537 640.7979 640.841 640.9031 641.0493 641.5465 641.8312 641.9333 641.9241 -9999 -9999 -9999 642.9932 643.1391 643.0909 643 642.96 643.0259 643.0321 642.3112 641.2563 640.6083 640.2275 640.0046 639.8753 639.7206 639.5932 639.5003 639.4424 639.3824 639.3266 639.2751 639.2253 639.1764 639.1292 639.0873 639.0541 639.0306 639.0118 639 639 638.9973 638.9961 638.9969 638.9983 638.9994 639 639.0003 639.0005 639.0007 639.0006 639.0001 638.9991 638.9974 638.9955 638.9945 638.9962 639.0032 639.0174 639.0392 639.0659 639.0948 639.1295 639.1779 639.2449 639.3347 639.4482 639.5684 639.6633 639.7145 639.7249 639.6957 639.6152 639.4845 639.3416 639.2448 639.2286 639.278 639.3391 639.3558 639.3068 639.2235 639.1815 639.2757 639.5891 640.3369 641.7723 643.8456 646.0351 647.2922 647.4145 646.7098 645.8394 645.152 644.7188 644.4335 644.1483 643.8635 643.6783 643.3073 642.3471 641.146 639.8863 638.8186 638.04 637.5322 637.3594 637.5273 637.9528 638.4089 638.6675 638.7271 638.7491 638.7658 638.8026 638.8684 638.9506 639.032 639.1019 639.1561 639.1938 639.2148 639.2207 639.2143 639.1985 639.1744 639.1462 639.1218 639.1047 639.0918 639.077 639.0547 639.0239 638.9878 638.9504 638.9183 638.9036 638.9169 638.95 638.9647 638.9526 638.9008 638.8192 638.733 638.6455 638.5998 638.5562 638.4968 638.4146 638.5801 639.2465 640.5058 642.2852 644.3692 646.3289 647.6163 647.8929 647.5992 647.1389 646.6823 -9999 -9999 -9999 -9999 -9999 -9999 -9999 -9999 -9999 -9999 -9999 -9999 -9999 -9999 -9999 -9999 -9999 -9999 -9999 -9999 -9999 -9999 -9999 -9999 -9999 -9999 -9999 -9999 -9999 -9999 -9999 -9999 -9999 -9999 -9999 -9999 -9999 -9999 -9999 -9999 -9999 -9999 -9999 -9999 -9999 -9999 -9999 -9999 -9999 -9999 -9999 -9999 -9999 -9999 -9999 -9999 -9999 -9999 -9999 -9999 -9999 -9999 -9999
-9999 -9999 -9999 -9999 -9999 -9999 -9999 -9999 -9999 -9999 -9999 -9999 -9999 -9999 -9999 -9999 -9999 -9999 -9999 -9999 -9999 -9999 -9999 -9999 642.0669 641.7943 641.9794 642.5389 643.5037 644.5343 645.064 644.7643 644.3008 644.3466 645.0845 646.1591 646.8911 -9999 -9999 -9999 -9999 -9999 -9999 -9999 -9999 -9999 -9999 642.991 642.5541 642.043 641.9559 641.9343 641.7428 641.1302 640.8419 640.6661 640.5796 640.5511 640.5619 640.6072 640.6837 640.7766 640.8627 640.9248 640.9976 641.1171 641.441 641.738 641.9346 641.9991 -9999 642.171 642.5488 642.9537 643.1036 643.103 643.0443 643.0004 643.0322 642.8043 642.1016 641.1589 640.5564 640.2041 639.9977 639.7936 639.6088 639.5 639.4326 639.3889 639.3464 639.3017 639.2545 639.2047 639.1536 639.1027 639.0583 639.0271 639.0127 639 638.9949 638.9961 638.9965 638.9968 638.998 638.9993 639 638.9998 638.9996 638.9999 639.0001 638.9998 638.999 638.9974 638.9948 638.9919 638.99 638.9909 638.9976 639.0131 639.0381 639.0703 639.1064 639.1472 639.1987 639.2664 639.3535 639.4622 639.5803 639.6766 639.7269 639.7321 639.7013 639.6306 639.5142 639.3738 639.258 639.2059 639.2167 639.2507 639.2628 639.2366 639.205 639.2469 639.4677 639.9027 640.6221 641.7568 643.3504 644.8962 645.4462 645.0652 644.096 643.2275 642.5256 642.1687 641.9717 641.6501 641.4044 641.4069 641.3888 640.4771 639.4508 638.5211 637.8376 637.4825 637.3615 637.5144 637.9278 638.3936 638.6954 638.8594 638.9041 638.9061 638.9066 638.9309 638.9907 639.0735 639.1584 639.2312 639.2854 639.3186 639.3311 639.325 639.3042 639.2734 639.2349 639.1929 639.1557 639.1279 639.1066 639.0844 639.0544 639.0133 638.9631 638.9073 638.8524 638.8145 638.8165 638.8641 638.8925 638.8705 638.8048 638.7 638.6108 638.5009 638.4964 638.4997 638.4631 638.6559 639.3408 640.5898 642.4388 644.7533 647.1404 648.9808 649.7065 649.2175 648.1699 647.1935 646.562 -9999 -9999 -9999 -9999 -9999 -9999 -9999 -9999 -9999 -9999 -9999 -9999 -9999 -9999 -9999 -9999 -9999 -9999 -9999 -9999 -9999 -9999 -9999 -9999 -9999 -9999 -9999 -9999 -9999 -9999 -9999 -9999 -9999 -9999 -9999 -9999 -9999 -9999 -9999 -9999 -9999 -9999 -9999 -9999 -9999 -9999 -9999 -9999 -9999 -9999 -9999 -9999 -9999 -9999 -9999 -9999 -9999 -9999 -9999 -9999 -9999 -9999 -9999
-9999 -9999 -9999 -9999 -9999 -9999 -9999 -9999 -9999 -9999 -9999 -9999 -9999 -9999 -9999 -9999 -9999 -9999 -9999 -9999 -9999 -9999 -9999 642.8217 642.0828 641.8461 641.9988 642.4667 643.1603 643.8662 644.0627 643.7471 643.3683 643.6045 644.3901 645.5408 646.456 646.4151 645.8231 645.1711 -9999 -9999 -9999 -9999 -9999 -9999 642.7046 642.5901 642.3156 642.0092 641.9423 641.7883 641.2853 640.8934 640.6637 640.5302 640.4642 640.4499 640.48 640.5533 640.668 640.8084 640.9382 640.9992 641.0522 641.1763 641.4266 641.723 641.9888 642.0879 642.1215 642.2125 642.3916 642.5856 642.7766 642.8912 642.9504 643.0363 643.1484 642.7783 642.0723 641.1471 640.5214 640.166 639.9793 639.7195 639.5064 639.4271 639.3828 639.3519 639.3208 639.2827 639.2368 639.1853 639.1318 639.0761 639.0294 639.0001 639 638.9943 638.9934 638.9957 638.9971 638.998 638.9993 639 638.9995 638.9985 638.9978 638.9978 638.9979 638.9975 638.9963 638.9942 638.991 638.9872 638.9841 638.984 638.9898 639.0051 639.0321 639.0687 639.1112 639.158 639.2127 639.2809 639.3658 639.4695 639.5837 639.681 639.7321 639.7329 639.6985 639.6359 639.5378 639.4113 639.2893 639.21 639.1854 639.194 639.2036 639.2036 639.2234 639.3267 639.6025 640.152 640.8204 641.4346 642.4039 643.2717 643.3951 642.7507 641.8248 641.1287 640.7195 640.6763 640.725 640.2802 639.9106 639.7302 639.6669 639.2937 638.4717 637.7917 637.4238 637.3558 637.5076 637.834 638.2293 638.5923 638.8488 639.0017 639.0663 639.0817 639.0873 639.1097 639.1626 639.2397 639.321 639.3903 639.4385 639.4624 639.4615 639.4388 639.3998 639.3507 639.2955 639.2379 639.1864 639.1465 639.1155 639.0854 639.048 638.9971 638.9326 638.8566 638.7737 638.7008 638.6749 638.7444 638.7787 638.7314 638.6556 638.5059 638.4316 638.3015 638.3499 638.5138 638.8157 639.5751 640.8619 642.6558 644.9351 647.4678 649.7714 651.2339 651.2959 650.0825 648.4682 647.1364 -9999 -9999 -9999 -9999 -9999 -9999 -9999 -9999 -9999 -9999 -9999 -9999 -9999 -9999 -9999 -9999 -9999 -9999 -9999 -9999 -9999 -9999 -9999 -9999 -9999 -9999 -9999 -9999 -9999 -9999 -9999 -9999 -9999 -9999 -9999 -9999 -9999 -9999 -9999 -9999 -9999 -9999 -9999 -9999 -9999 -9999 -9999 -9999 -9999 -9999 -9999 -9999 -9999 -9999 -9999 -9999 -9999 -9999 -9999 -9999 -9999 -9999 -9999 -9999
-9999 -9999 -9999 -9999 -9999 -9999 -9999 -9999 -9999 -9999 -9999 -9999 -9999 -9999 -9999 -9999 -9999 -9999 -9999 -9999 -9999 -9999 -9999 642.778 642.0759 641.8998 642.0032 642.3884 642.9193 643.3374 643.3774 643.061 642.7924 642.95 643.6377 644.6305 645.4998 645.5021 645.083 644.6731 644.4241 644.2505 643.9796 -9999 -9999 642.725 642.5823 642.4381 642.2336 642.0053 641.7753 641.2741 640.9098 640.6499 640.4896 640.3992 640.3609 640.3673 640.4186 640.5165 640.6594 640.8331 640.9971 641.0001 641.1051 641.2608 641.4857 641.767 642.024 642.1998 642.2177 642.1693 642.1011 641.9398 641.9154 642.2964 642.505 642.6725 643.0082 642.5497 641.944 641.0413 640.3762 640.0057 639.808 639.6193 639.4982 639.4115 639.3641 639.3347 639.306 639.2675 639.2162 639.1592 639.1061 639.0453 639 638.9784 638.9792 638.9836 638.9905 638.9967 638.9985 638.9991 639 638.9998 638.9984 638.9965 638.9949 638.9942 638.9939 638.9933 638.9919 638.9894 638.9856 638.9811 638.9769 638.9756 638.9803 638.9949 639.0221 639.0616 639.1095 639.1622 639.2201 639.2884 639.3707 639.4692 639.5785 639.676 639.7299 639.7292 639.6907 639.6321 639.5522 639.4476 639.3346 639.2435 639.1948 639.1846 639.1969 639.2325 639.3311 639.561 640.038 640.7151 641.2914 641.1608 641.3808 641.6956 641.5352 640.925 640.326 639.9153 639.8021 639.782 639.7253 639.4058 639.0565 638.8399 638.6482 638.3924 637.8208 637.4439 637.3523 637.5111 637.8389 638.1921 638.4424 638.7114 638.9399 639.1079 639.2119 639.2571 639.2827 639.3179 639.3698 639.4385 639.5105 639.5703 639.6077 639.6178 639.6 639.5577 639.4978 639.4282 639.3548 639.281 639.2137 639.1598 639.1171 639.0779 639.0329 638.9738 638.897 638.803 638.6941 638.5831 638.5059 638.6078 638.6234 638.4943 638.4287 638.2021 638.0235 638.1446 638.5104 639.0825 639.9523 641.3113 643.1334 645.236 647.5386 649.7958 651.6518 652.5491 652.0419 650.3524 648.4485 -9999 -9999 -9999 -9999 -9999 -9999 -9999 -9999 -9999 -9999 -9999 -9999 -9999 -9999 -9999 -9999 -9999 -9999 -9999 -9999 -9999 -9999 -9999 -9999 -9999 -9999 -9999 -9999 -9999 -9999 -9999 -9999 -9999 -9999 -9999 -9999 -9999 -9999 -9999 -9999 -9999 -9999 -9999 -9999 -9999 -9999 -9999 -9999 -9999 -9999 -9999 -9999 -9999 -9999 -9999 -9999 -9999 -9999 -9999 -9999 -9999 -9999 -9999 -9999 -9999
-9999 -9999 -9999 -9999 -9999 -9999 -9999 -9999 -9999 -9999 -9999 -9999 -9999 -9999 -9999 -9999 -9999 -9999 -9999 -9999 -9999 -9999 -9999 642.5588 642.1138 641.998 642.0032 642.2408 642.549 642.8546 642.852 642.5413 642.2417 642.1589 642.6835 643.4229 644.0994 644.2778 644.113 643.9891 644.0178 644.1089 643.9904 643.6017 643.0938 642.8124 642.6171 642.3911 642.1461 641.8708 641.301 640.9006 640.6218 640.4417 640.3369 640.285 640.2733 640.3005 640.3741 640.4984 640.6658 640.8463 640.9944 641.0469 641.3049 641.5063 641.7198 642.0361 642.3691 642.4971 642.3745 642.1218 641.8553 641.3524 641.0083 641.3411 641.7326 641.6472 641.7706 641.6471 641.2274 640.5802 640.0568 639.7938 639.6398 639.5029 639.4421 639.3891 639.3519 639.3243 639.2935 639.2469 639.1805 639.1091 639.0671 639.0002 638.9617 638.948 638.9543 638.9688 638.9855 638.9983 639 639 639.0001 638.9994 638.9974 638.9945 638.9916 638.9896 638.9884 638.9873 638.9856 638.9827 638.9785 638.9735 638.9688 638.9666 638.9701 638.9835 639.0101 639.0509 639.1024 639.1602 639.2214 639.2894 639.3688 639.4618 639.5648 639.6609 639.7191 639.7215 639.6808 639.6227 639.5565 639.4763 639.3843 639.2994 639.243 639.2237 639.241 639.3088 639.4943 639.9127 640.507 641.3044 642.186 641.9486 641.2119 640.7734 640.3525 639.9059 639.5172 639.4019 639.4203 639.3611 639.2217 638.9678 638.6847 638.4644 638.2037 637.9456 637.5284 637.3745 637.5081 637.8377 638.1971 638.4165 638.5603 638.7892 639.0153 639.2029 639.3447 639.4166 639.4683 639.5239 639.5885 639.6536 639.714 639.7604 639.7831 639.7761 639.7388 639.6754 639.5938 639.5034 639.4114 639.3211 639.2372 639.1669 639.1096 639.0587 639.0045 638.9374 638.8503 638.7421 638.6187 638.4989 638.4189 638.4657 638.4114 638.0853 638.0117 637.9969 638.0339 638.4365 639.2739 640.4266 641.866 643.7083 645.7994 647.8092 649.5934 651.0974 652.2449 652.7697 651.6926 -9999 -9999 -9999 -9999 -9999 -9999 -9999 -9999 -9999 -9999 -9999 -9999 -9999 -9999 -9999 -9999 -9999 -9999 -9999 -9999 -9999 -9999 -9999 -9999 -9999 -9999 -9999 -9999 -9999 -9999 -9999 -9999 -9999 -9999 -9999 -9999 -9999 -9999 -9999 -9999 -9999 -9999 -9999 -9999 -9999 -9999 -9999 -9999 -9999 -9999 -9999 -9999 -9999 -9999 -9999 -9999 -9999 -9999 -9999 -9999 -9999 -9999 -9999 -9999 -9999 -9999 -9999
-9999 -9999 -9999 -9999 -9999 -9999 -9999 -9999 -9999 -9999 -9999 -9999 -9999 -9999 -9999 -9999 -9999 -9999 -9999 -9999 -9999 -9999 -9999 642.4139 642.1184 642.0327 642.0294 642.0753 642.0536 642.1616 642.1583 641.9748 641.6956 641.3479 641.6405 642.1449 642.6308 642.9469 643.0236 643.1407 643.4949 643.9191 644.0006 643.8236 643.4254 643.0358 642.7303 642.324 641.9352 641.586 641.0542 640.6552 640.4032 640.2714 640.2075 640.1892 640.2029 640.2527 640.3546 640.5233 640.7535 640.9955 641.1814 641.5107 641.899 642.0782 642.2301 642.6035 642.9902 642.9764 642.5952 642.0458 641.5999 641.3502 641.8162 641.478 641.3069 641.0841 640.9922 640.849 640.5184 640.0812 639.7942 639.642 639.5587 639.4992 639.428 639.3751 639.3387 639.3088 639.2705 639.2075 639.1108 639.0023 638.9948 638.9333 638.9037 638.9033 638.9216 638.9482 638.9766 639 639.004 639.0021 639.0007 638.9996 638.9974 638.9933 638.9886 638.9845 638.9818 638.9799 638.9775 638.9742 638.9698 638.9646 638.9596 638.9568 638.9594 638.9714 638.997 639.038 639.0915 639.1532 639.2178 639.2854 639.3612 639.4484 639.5444 639.6368 639.6994 639.709 639.6707 639.6119 639.5531 639.4939 639.4283 639.3633 639.3154 639.2987 639.3175 639.3785 639.5348 640.0055 640.6271 641.1229 641.5298 641.2498 640.618 640.101 639.7675 639.4554 639.1486 639.1492 639.2277 639.1595 638.9825 638.7016 638.4899 638.2539 638.0031 637.7849 637.5815 637.5482 637.8284 638.1942 638.4473 638.6072 638.7279 638.8928 639.1017 639.2916 639.4515 639.5554 639.6314 639.7062 639.7869 639.8589 639.9138 639.9476 639.9539 639.9276 639.8691 639.7841 639.6818 639.572 639.4624 639.356 639.2554 639.1663 639.0906 639.0233 638.9561 638.8782 638.7769 638.6469 638.4957 638.3391 638.1829 638.0465 637.9931 637.8221 637.8126 637.9902 638.4156 639.3152 640.685 642.3496 644.2534 646.3062 648.2968 649.791 650.5776 651.0433 651.444 651.4609 -9999 -9999 -9999 -9999 -9999 -9999 -9999 -9999 -9999 -9999 -9999 -9999 -9999 -9999 -9999 -9999 -9999 -9999 -9999 -9999 -9999 -9999 -9999 -9999 -9999 -9999 -9999 -9999 -9999 -9999 -9999 -9999 -9999 -9999 -9999 -9999 -9999 -9999 -9999 -9999 -9999 -9999 -9999 -9999 -9999 -9999 -9999 -9999 -9999 -9999 -9999 -9999 -9999 -9999 -9999 -9999 -9999 -9999 -9999 -9999 -9999 -9999 -9999 -9999 -9999 -9999 -9999 -9999
-9999 -9999 -9999 -9999 -9999 -9999 -9999 -9999 -9999 -9999 -9999 -9999 -9999 -9999 -9999 -9999 -9999 -9999 -9999 -9999 -9999 -9999 -9999 642.3973 642.1536 642.0841 642.0668 641.9794 641.6283 641.5371 641.5199 641.4124 641.0948 640.8722 640.9644 641.2051 641.4585 641.8041 641.9722 642.2183 642.7592 643.4582 643.9732 644.0157 643.7057 643.2467 642.7966 642.1454 641.5887 641.1911 640.762 640.4167 640.2011 640.123 640.0964 640.1107 640.1487 640.2224 640.3606 640.6006 640.9719 641.447 641.9193 642.3779 642.8934 643.0804 643.1465 643.4114 643.8194 643.5201 642.8329 642.0331 641.4167 641.2625 641.4355 641.1808 640.8893 640.6289 640.4415 640.2956 640.0351 639.796 639.6375 639.5521 639.4998 639.4502 639.3937 639.3463 639.3092 639.2731 639.2208 639.1301 638.9833 638.8018 638.7846 638.7906 638.8109 638.8424 638.8809 638.9209 638.9581 638.9869 639 639 639 639 638.9983 638.993 638.9862 638.9797 638.975 638.9717 638.9685 638.9646 638.9598 638.9545 638.9496 638.9467 638.9487 638.9595 638.9836 639.0239 639.0783 639.1425 639.2104 639.2781 639.3499 639.4307 639.5194 639.6064 639.6713 639.6905 639.6602 639.6032 639.5472 639.5015 639.4599 639.4202 639.3921 639.3904 639.4246 639.497 639.6469 640.0826 640.8103 641.1621 641.1084 640.7485 640.1228 639.7001 639.4753 639.2278 639.0178 638.97 639.0699 639.0016 638.7917 638.5177 638.3923 638.1945 637.9932 637.861 637.8745 638.0016 638.2298 638.4531 638.6268 638.7579 638.8746 639.0234 639.2066 639.3846 639.5598 639.6887 639.7805 639.8624 639.9564 640.0374 640.0923 640.1171 640.1075 640.061 639.9809 639.8751 639.7544 639.6285 639.5042 639.3831 639.2661 639.1567 639.0579 638.9678 638.8806 638.7854 638.6593 638.4883 638.2875 638.1581 637.9955 637.8317 637.7668 637.7517 637.9024 638.3685 639.2758 640.7004 642.5497 644.5833 646.6326 648.4554 650.1077 650.7642 650.3134 650.1202 650.0785 -9999 -9999 -9999 -9999 -9999 -9999 -9999 -9999 -9999 -9999 -9999 -9999 -9999 -9999 -9999 -9999 -9999 -9999 -9999 -9999 -9999 -9999 -9999 -9999 -9999 -9999 -9999 -9999 -9999 -9999 -9999 -9999 -9999 -9999 -9999 -9999 -9999 -9999 -9999 -9999 -9999 -9999 -9999 -9999 -9999 -9999 -9999 -9999 -9999 -9999 -9999 -9999 -9999 -9999 -9999 -9999 -9999 -9999 -9999 -9999 -9999 -9999 -9999 -9999 -9999 -9999 -9999 -9999 -9999
-9999 -9999 -9999 -9999 -9999 -9999 -9999 -9999 -9999 -9999 -9999 -9999 -9999 -9999 -9999 -9999 -9999 -9999 -9999 -9999 -9999 -9999 -9999 642.4622 642.2064 642.1208 642.0609 641.8389 641.2109 641.1113 641.0836 640.9839 640.7714 640.613 640.6028 640.6835 640.8006 640.9706 641.0626 641.2626 641.8032 642.7419 643.6155 643.8832 643.6685 643.1119 642.446 641.7698 641.2455 640.8373 640.473 640.1851 640.0063 639.9981 640.0005 640.0493 640.1075 640.1997 640.3726 640.6844 641.2013 642.0349 642.8521 643.5286 644.1771 644.3258 644.23 644.3431 644.6149 643.8741 642.7798 641.916 641.2969 641.0323 640.9521 640.7196 640.4438 640.2386 640.0376 639.9753 639.7961 639.6512 639.5563 639.4996 639.4441 639.3931 639.3428 639.2974 639.255 639.2054 639.1273 638.9829 638.7172 638.5167 638.5697 638.6486 638.7203 638.7843 638.8423 638.8941 638.9381 638.9714 638.9908 638.9978 639.0002 639.0011 639 638.9933 638.9844 638.9756 638.9686 638.9635 638.9592 638.9546 638.9491 638.9437 638.9389 638.9363 638.9384 638.9485 638.9711 639.0096 639.0638 639.1292 639.2 639.269 639.3373 639.411 639.4921 639.5726 639.6368 639.6652 639.6473 639.5972 639.5433 639.5038 639.478 639.4595 639.4501 639.4604 639.4996 639.543 639.7009 640.1343 640.9893 641.6735 641.8857 640.9706 640.0665 639.509 639.2765 639.1287 639.0011 638.9799 638.9996 638.9156 638.7563 638.5862 638.4901 638.2717 638.0459 638.0427 638.2343 638.4481 638.5573 638.6567 638.7505 638.8566 638.9773 639.1258 639.306 639.493 639.6705 639.812 639.9119 639.9886 640.0897 640.1783 640.2361 640.2559 640.2317 640.1639 640.062 639.937 639.8014 639.6651 639.5313 639.3987 639.2673 639.1375 639.0118 638.8912 638.7742 638.6538 638.4858 638.2327 638.0204 637.9851 637.8389 637.7367 637.7719 637.9626 638.3395 639.1889 640.572 642.45 644.6765 646.8489 648.5954 649.6661 650.8768 650.4564 649.7151 649.2477 -9999 -9999 -9999 -9999 -9999 -9999 -9999 -9999 -9999 -9999 -9999 -9999 -9999 -9999 -9999 -9999 -9999 -9999 -9999 -9999 -9999 -9999 -9999 -9999 -9999 -9999 -9999 -9999 -9999 -9999 -9999 -9999 -9999 -9999 -9999 -9999 -9999 -9999 -9999 -9999 -9999 -9999 -9999 -9999 -9999 -9999 -9999 -9999 -9999 -9999 -9999 -9999 -9999 -9999 -9999 -9999 -9999 -9999 -9999 -9999 -9999 -9999 -9999 -9999 -9999 -9999 -9999 -9999 -9999 -9999
-9999 -9999 -9999 -9999 -9999 -9999 -9999 -9999 -9999 -9999 -9999 -9999 -9999 -9999 -9999 -9999 -9999 -9999 -9999 -9999 -9999 -9999 -9999 642.5128 642.2283 642.0996 641.9766 641.6345 641.1699 640.9998 640.9081 640.7928 640.64 640.5206 640.4666 640.4519 640.4551 640.4839 640.5249 640.6926 641.1179 641.8199 642.7104 643.0497 643.1645 642.7532 641.9625 641.3834 640.9109 640.5288 640.2206 640.0001 639.8834 639.8823 639.9221 639.9991 640.0688 640.1721 640.3749 640.775 641.4977 642.6363 643.7186 644.6286 645.359 645.4091 645.1463 644.9937 644.717 643.7208 642.364 641.5759 641.0404 640.7313 640.5321 640.2909 640.0458 639.9754 639.8203 639.7371 639.6281 639.5615 639.4998 639.4417 639.3845 639.3312 639.2804 639.2307 639.1774 639.1078 638.9957 638.7805 638.5129 638.4442 638.4999 638.5861 638.6724 638.7502 638.818 638.8759 638.9236 638.96 638.9839 638.9958 638.9999 639.0009 639 638.993 638.983 638.9725 638.9634 638.9564 638.9506 638.9451 638.9388 638.933 638.9286 638.9265 638.9288 638.9387 638.96 638.9963 639.0491 639.1146 639.1871 639.2588 639.3252 639.3921 639.4647 639.5382 639.5997 639.6337 639.6294 639.5913 639.5426 639.5055 639.4867 639.48 639.4794 639.4852 639.5 639.5496 639.7261 640.1873 641.1817 642.2628 643.2673 641.6583 640.1622 639.4355 639.1593 639.0752 639.0214 638.9999 638.964 638.8785 638.7634 638.6597 638.5911 638.5004 638.4656 638.4729 638.5421 638.6613 638.7334 638.7822 638.8282 638.9057 639.0294 639.1923 639.3826 639.581 639.7681 639.9236 640.0358 640.1191 640.1994 640.2828 640.3431 640.361 640.3213 640.2287 640.1021 639.9573 639.8108 639.6718 639.5375 639.3987 639.2573 639.1107 638.9584 638.8009 638.6412 638.491 638.2659 638.0165 637.8651 637.8026 637.7449 637.7726 637.9846 638.4158 639.1376 640.4063 642.2541 644.5749 646.9601 648.941 650.2236 650.7562 650.625 650.0305 -9999 -9999 -9999 -9999 -9999 -9999 -9999 -9999 -9999 -9999 -9999 -9999 -9999 -9999 -9999 -9999 -9999 -9999 -9999 -9999 -9999 -9999 -9999 -9999 -9999 -9999 -9999 -9999 -9999 -9999 -9999 -9999 -9999 -9999 -9999 -9999 -9999 -9999 -9999 -9999 -9999 -9999 -9999 -9999 -9999 -9999 -9999 -9999 -9999 -9999 -9999 -9999 -9999 -9999 -9999 -9999 -9999 -9999 -9999 -9999 -9999 -9999 -9999 -9999 -9999 -9999 -9999 -9999 -9999 -9999 -9999 -9999
-9999 -9999 -9999 -9999 -9999 -9999 -9999 -9999 -9999 -9999 -9999 -9999 -9999 -9999 -9999 -9999 -9999 -9999 -9999 -9999 -9999 -9999 -9999 -9999 642.2025 642.0066 641.7689 641.4253 641.1139 640.9989 640.8901 640.7665 640.6401 640.5432 640.4739 640.4054 640.3289 640.2637 640.2425 640.3391 640.6089 641.0262 641.4717 641.7312 641.9359 642.0125 641.5101 641.0189 640.5957 640.2533 640.0003 639.8418 639.7729 639.7809 639.8291 639.9064 639.9985 640.1094 640.3129 640.7336 641.5238 642.881 644.1281 645.1981 645.8739 645.9761 645.6411 645.2462 644.6053 643.3079 642.097 641.2916 640.7728 640.4507 640.2211 640.0016 639.8229 639.7361 639.6351 639.5779 639.5017 639.4992 639.4447 639.3839 639.3241 639.2673 639.2117 639.1539 639.0872 638.9999 638.8695 638.6813 638.5012 638.4995 638.5282 638.5931 638.6704 638.7455 638.8126 638.8702 638.9177 638.9549 638.9813 638.9961 639 639 638.9989 638.9926 638.9824 638.9708 638.9599 638.9512 638.9439 638.9371 638.9301 638.9238 638.9196 638.9181 638.9211 638.931 638.9513 638.9854 639.0355 639.1001 639.173 639.247 639.3142 639.3756 639.4395 639.5054 639.5629 639.599 639.6051 639.5813 639.5421 639.5081 639.4917 639.4901 639.4948 639.5 639.5028 639.5525 639.726 640.1519 641.0459 641.9761 642.2752 641.1276 639.9198 639.319 639.0732 639.0261 638.9999 638.9652 638.9185 638.8521 638.7769 638.7137 638.6726 638.6419 638.6423 638.6515 638.6827 638.7446 638.7993 638.8365 638.8723 638.9354 639.053 639.2281 639.438 639.6532 639.8523 640.0242 640.1538 640.2331 640.2844 640.3563 640.4205 640.4407 640.3808 640.2568 640.0944 639.9233 639.7673 639.635 639.5139 639.3763 639.2337 639.0798 638.9109 638.7215 638.5079 638.3187 638.1173 637.9928 637.8632 637.8039 637.8475 638.0251 638.4348 639.1487 640.2797 641.9606 644.2767 646.7899 649.0604 650.5651 651.3539 651.2661 650.4695 -9999 -9999 -9999 -9999 -9999 -9999 -9999 -9999 -9999 -9999 -9999 -9999 -9999 -9999 -9999 -9999 -9999 -9999 -9999 -9999 -9999 -9999 -9999 -9999 -9999 -9999 -9999 -9999 -9999 -9999 -9999 -9999 -9999 -9999 -9999 -9999 -9999 -9999 -9999 -9999 -9999 -9999 -9999 -9999 -9999 -9999 -9999 -9999 -9999 -9999 -9999 -9999 -9999 -9999 -9999 -9999 -9999 -9999 -9999 -9999 -9999 -9999 -9999 -9999 -9999 -9999 -9999 -9999 -9999 -9999 -9999 -9999 -9999
-9999 -9999 -9999 -9999 -9999 -9999 -9999 -9999 -9999 -9999 -9999 -9999 -9999 -9999 -9999 -9999 -9999 -9999 -9999 -9999 -9999 -9999 -9999 -9999 642.1526 641.9573 641.5886 641.2141 641.0038 640.9998 640.9261 640.813 640.7006 640.6168 640.5458 640.4528 640.3296 640.2043 640.1249 640.1443 640.2864 640.5162 640.7622 640.952 641.1098 641.1694 640.9342 640.6149 640.2824 640.0019 639.8093 639.7045 639.6721 639.6874 639.7264 639.7845 639.8671 639.993 640.1838 640.5973 641.4093 642.7806 644.0812 645.115 645.7512 645.7289 645.5117 645.075 644.2839 642.8738 641.7566 640.9955 640.5123 640.2106 639.9941 639.8037 639.6702 639.5806 639.5016 639.4989 639.4471 639.424 639.3789 639.3226 639.2631 639.2032 639.1421 639.0758 639.0001 638.91 638.7943 638.6595 638.5543 638.5469 638.5758 638.6304 638.6965 638.7628 638.8234 638.8759 638.92 638.9558 638.9828 639 639.004 639.0035 639.0007 638.9938 638.9833 638.9708 638.9586 638.9484 638.9396 638.9316 638.9238 638.917 638.9128 638.9121 638.916 638.9264 638.9458 638.9778 639.0248 639.0868 639.159 639.2343 639.304 639.3631 639.4187 639.4764 639.5289 639.5646 639.5764 639.5643 639.5366 639.5089 639.4939 639.4938 639.5 639.501 639.5062 639.5532 639.6967 640.0096 640.5471 641.0079 640.9903 640.3236 639.5837 639.1979 639.038 638.9996 638.9592 638.9169 638.8745 638.8286 638.7823 638.7435 638.7178 638.7039 638.7056 638.7064 638.7131 638.7423 638.7871 638.8333 638.8809 638.9556 639.0803 639.2638 639.4878 639.7183 639.9313 640.1208 640.2729 640.3676 640.4061 640.4255 640.4838 640.5128 640.4218 640.2438 640.0281 639.8208 639.6545 639.5377 639.4467 639.32 639.192 639.0457 638.8832 638.7007 638.493 638.2373 638.0052 637.9279 637.9863 638.0542 638.2739 638.6556 639.2511 640.3054 641.8395 643.9246 646.514 648.9349 650.7704 651.6333 651.8518 651.0805 -9999 -9999 -9999 -9999 -9999 -9999 -9999 -9999 -9999 -9999 -9999 -9999 -9999 -9999 -9999 -9999 -9999 -9999 -9999 -9999 -9999 -9999 -9999 -9999 -9999 -9999 -9999 -9999 -9999 -9999 -9999 -9999 -9999 -9999 -9999 -9999 -9999 -9999 -9999 -9999 -9999 -9999 -9999 -9999 -9999 -9999 -9999 -9999 -9999 -9999 -9999 -9999 -9999 -9999 -9999 -9999 -9999 -9999 -9999 -9999 -9999 -9999 -9999 -9999 -9999 -9999 -9999 -9999 -9999 -9999 -9999 -9999 -9999 -9999
-9999 -9999 -9999 -9999 -9999 -9999 -9999 -9999 -9999 -9999 -9999 -9999 -9999 -9999 -9999 -9999 -9999 -9999 -9999 -9999 -9999 -9999 -9999 -9999 642.0216 641.7823 641.4042 641.0239 640.938 640.9999 640.9701 640.8694 640.7612 640.6815 640.6129 640.514 640.3716 640.2152 640.0968 640.0605 640.1161 640.2296 640.3571 640.4623 640.5253 640.5058 640.4064 640.2463 640.0058 639.7969 639.6578 639.5953 639.5887 639.6062 639.6265 639.6507 639.6954 639.7905 639.9852 640.3867 641.222 642.5588 643.9005 644.8102 645.0918 645.0956 645.095 644.6479 643.7425 642.3047 641.3265 640.6644 640.2506 639.9915 639.788 639.6413 639.5682 639.4998 639.439 639.4183 639.3854 639.3563 639.3149 639.2622 639.2029 639.1398 639.0728 639 638.9223 638.8391 638.7491 638.662 638.6042 638.6011 638.6302 638.6782 638.7347 638.7912 638.8431 638.8885 638.9274 638.9595 638.9841 639 639.006 639.0062 639.0031 638.996 638.9854 638.9727 638.9597 638.9479 638.9378 638.929 638.9206 638.9136 638.9095 638.9095 638.9145 638.9255 638.9446 638.9747 639.0186 639.0768 639.1471 639.222 639.2941 639.3543 639.4043 639.4528 639.4991 639.5331 639.547 639.5416 639.5237 639.5037 639.4919 639.4924 639.5 639.5048 639.5137 639.5498 639.641 639.806 640.0179 640.1351 640.0376 639.6311 639.2834 639.0862 638.9993 638.9465 638.9047 638.8698 638.8402 638.8135 638.7874 638.7628 638.7406 638.723 638.713 638.7042 638.6926 638.6995 638.7327 638.7882 638.8587 638.9583 639.1067 639.3116 639.5533 639.7955 640.0175 640.2201 640.3914 640.5021 640.5361 640.5109 640.5446 640.5938 640.4449 640.187 639.8999 639.6455 639.4658 639.3647 639.2968 639.2194 639.1249 638.9952 638.8519 638.6896 638.4964 638.275 638.115 638.0493 638.3328 638.7207 639.1326 639.7183 640.5427 641.9223 643.8927 646.2166 648.7203 650.8854 651.9122 651.98 651.2739 -9999 -9999 -9999 -9999 -9999 -9999 -9999 -9999 -9999 -9999 -9999 -9999 -9999 -9999 -9999 -9999 -9999 -9999 -9999 -9999 -9999 -9999 -9999 -9999 -9999 -9999 -9999 -9999 -9999 -9999 -9999 -9999 -9999 -9999 -9999 -9999 -9999 -9999 -9999 -9999 -9999 -9999 -9999 -9999 -9999 -9999 -9999 -9999 -9999 -9999 -9999 -9999 -9999 -9999 -9999 -9999 -9999 -9999 -9999 -9999 -9999 -9999 -9999 -9999 -9999 -9999 -9999 -9999 -9999 -9999 -9999 -9999 -9999 -9999 -9999
-9999 -9999 -9999 -9999 -9999 -9999 -9999 -9999 -9999 -9999 -9999 -9999 -9999 -9999 -9999 -9999 -9999 -9999 -9999 -9999 -9999 -9999 642.7368 642.3483 642.0182 641.7775 641.3757 641.0027 640.9152 640.976 640.9998 640.9019 640.7857 640.6989 640.6289 640.5325 640.3899 640.2267 640.0939 640.0311 640.0427 640.0848 640.1332 640.1669 640.1534 640.0392 640.0103 639.9818 639.8115 639.6531 639.5573 639.5244 639.5322 639.5466 639.5461 639.5344 639.5341 639.5829 639.7413 640.123 640.9824 642.2695 643.8267 644.8723 645.1226 645.1025 644.9613 644.2594 643.0988 641.8547 640.9302 640.3362 639.9939 639.7747 639.6085 639.5023 639.4987 639.4395 639.3848 639.3527 639.3242 639.2949 639.2552 639.2035 639.1423 639.0743 638.9999 638.9199 638.8419 638.77 638.7081 638.6606 638.6376 638.6467 638.6785 638.723 638.7723 638.8207 638.8646 638.9031 638.9364 638.9642 638.9857 639 639.0065 639.0076 639.0049 638.9983 638.9883 638.9759 638.9628 638.9502 638.9388 638.9292 638.9209 638.9143 638.9106 638.9113 638.9171 638.9288 638.9479 638.9767 639.0179 639.0722 639.1388 639.2123 639.2849 639.3478 639.3959 639.4364 639.4749 639.5059 639.5203 639.5176 639.5051 639.4918 639.485 639.4882 639.5 639.5131 639.5278 639.5538 639.6019 639.6683 639.7214 639.6884 639.5203 639.2784 639.0989 638.9993 638.9349 638.8909 638.8601 638.839 638.8259 638.8179 638.8066 638.7863 638.7588 638.7283 638.7009 638.6775 638.6587 638.6505 638.6744 638.731 638.817 638.9436 639.1231 639.3582 639.6268 639.8872 640.1187 640.3295 640.5127 640.6337 640.6689 640.6382 640.6034 640.673 640.4385 640.0884 639.7219 639.4158 639.2289 639.1634 639.1274 639.0964 639.025 638.9148 638.7953 638.6642 638.5008 638.3948 638.4451 638.5552 639.0699 639.8124 640.4169 641.2057 642.2283 643.9749 646.1797 648.443 650.6054 652.2472 652.83 651.8737 -9999 -9999 -9999 -9999 -9999 -9999 -9999 -9999 -9999 -9999 -9999 -9999 -9999 -9999 -9999 -9999 -9999 -9999 -9999 -9999 -9999 -9999 -9999 -9999 -9999 -9999 -9999 -9999 -9999 -9999 -9999 -9999 -9999 -9999 -9999 -9999 -9999 -9999 -9999 -9999 -9999 -9999 -9999 -9999 -9999 -9999 -9999 -9999 -9999 -9999 -9999 -9999 -9999 -9999 -9999 -9999 -9999 -9999 -9999 -9999 -9999 -9999 -9999 -9999 -9999 -9999 -9999 -9999 -9999 -9999 -9999 -9999 -9999 -9999 -9999 -9999
-9999 -9999 -9999 -9999 -9999 -9999 -9999 -9999 -9999 -9999 -9999 -9999 -9999 -9999 -9999 -9999 -9999 -9999 -9999 643.9092 643.4992 643.0272 642.672 642.3925 642.1635 641.9379 641.4459 641.0104 640.9095 640.9644 640.9999 640.8966 640.7626 640.6582 640.5791 640.4846 640.3508 640.1968 640.0684 640.0001 639.9995 639.9995 639.9995 640.0002 639.9897 639.8621 639.796 639.7512 639.6529 639.5554 639.5074 639.4949 639.5068 639.5148 639.4982 639.4609 639.4268 639.4419 639.5812 639.9733 640.8026 642.1857 643.9058 645.2068 645.7696 645.4186 645.0319 644.0535 642.6837 641.4176 640.5258 640.0145 639.7624 639.6187 639.5016 639.4369 639.4135 639.3687 639.3234 639.2905 639.2648 639.2371 639.1975 639.1433 639.0767 638.9998 638.9133 638.8267 638.7487 638.6884 638.6548 638.6427 638.6494 638.6741 638.7115 638.7555 638.8005 638.843 638.8811 638.9145 638.9434 638.9678 638.9871 639 639.006 639.0078 639.0062 639.0004 638.9914 638.9801 638.9674 638.9546 638.9426 638.9325 638.9246 638.9189 638.9162 638.9176 638.9241 638.9363 638.9556 638.9835 639.0226 639.0737 639.1357 639.2064 639.278 639.3424 639.3918 639.4276 639.458 639.4838 639.498 639.4969 639.4867 639.4774 639.4751 639.4819 639.5 639.5236 639.5465 639.5675 639.5882 639.6013 639.5833 639.4935 639.2947 639.1063 638.9992 638.9361 638.8936 638.8633 638.8445 638.8384 638.8419 638.8503 638.8512 638.8286 638.7878 638.7391 638.6909 638.6508 638.6227 638.6133 638.6323 638.6906 638.7832 638.9235 639.1274 639.3928 639.6936 639.9814 640.228 640.4454 640.6353 640.7624 640.8027 640.7979 640.7787 640.6752 640.3727 639.9578 639.5272 639.1786 639.0061 639.01 639.0005 639.006 638.931 638.8075 638.6819 638.577 638.4998 638.5007 638.7332 639.2362 640.1592 641.278 641.9487 642.8518 644.267 646.2267 648.3712 650.2935 651.8838 652.8268 652.4935 651.4434 -9999 -9999 -9999 -9999 -9999 -9999 -9999 -9999 -9999 -9999 -9999 -9999 -9999 -9999 -9999 -9999 -9999 -9999 -9999 -9999 -9999 -9999 -9999 -9999 -9999 -9999 -9999 -9999 -9999 -9999 -9999 -9999 -9999 -9999 -9999 -9999 -9999 -9999 -9999 -9999 -9999 -9999 -9999 -9999 -9999 -9999 -9999 -9999 -9999 -9999 -9999 -9999 -9999 -9999 -9999 -9999 -9999 -9999 -9999 -9999 -9999 -9999 -9999 -9999 -9999 -9999 -9999 -9999 -9999 -9999 -9999 -9999 -9999 -9999 -9999 -9999
-9999 -9999 -9999 -9999 -9999 -9999 -9999 -9999 -9999 -9999 -9999 -9999 -9999 -9999 -9999 -9999 -9999 -9999 643.7784 643.5432 643.2591 642.9554 642.6282 642.4138 642.2366 641.9835 641.4978 641.0356 640.9294 640.9751 640.9998 640.8698 640.704 640.5723 640.4762 640.379 640.2542 640.1152 640 639.9293 639.9009 639.8781 639.8547 639.8309 639.7939 639.7123 639.6489 639.5974 639.5497 639.5001 639.5 639.4965 639.5048 639.507 639.4839 639.4384 639.386 639.3716 639.4661 639.7825 640.4949 641.8876 643.6302 645.2338 645.9789 645.9012 645.1279 643.757 642.0972 640.8725 640.1035 639.7521 639.6051 639.5526 639.499 639.4122 639.3524 639.3011 639.2581 639.2269 639.2053 639.1803 639.1382 639.077 638.9998 638.9091 638.8138 638.7227 638.6443 638.5922 638.5876 638.6086 638.6417 638.682 638.7263 638.7714 638.8145 638.8539 638.8888 638.9193 638.9457 638.9684 638.9869 639 639.0044 639.007 639.0063 639.0021 638.9945 638.9847 638.9732 638.9608 638.9489 638.9387 638.9314 638.9271 638.9258 638.928 638.9349 638.9471 638.9664 638.9942 639.0319 639.0808 639.1392 639.2054 639.2744 639.3384 639.3896 639.4246 639.4492 639.4689 639.4817 639.4824 639.4739 639.4666 639.4673 639.4755 639.5 639.5342 639.5646 639.5822 639.5823 639.5599 639.4983 639.3585 639.171 639.0022 638.9442 638.9147 638.8911 638.8729 638.8641 638.8687 638.8851 638.9083 638.9221 638.8924 638.8317 638.7606 638.6929 638.6351 638.5975 638.5867 638.6102 638.6736 638.7748 638.9203 639.132 639.4134 639.7404 640.0615 640.3329 640.5565 640.7484 640.8772 640.9156 640.8821 640.8304 640.6489 640.2974 639.8408 639.3771 639.016 638.9369 638.9998 639.0133 638.9997 638.87 638.7051 638.5674 638.4997 638.5007 638.7155 639.2518 640.1776 641.3758 642.667 643.7147 645.0161 646.5707 648.3458 650.0939 651.5033 652.5271 652.7546 652.1389 -9999 -9999 -9999 -9999 -9999 -9999 -9999 -9999 -9999 -9999 -9999 -9999 -9999 -9999 -9999 -9999 -9999 -9999 -9999 -9999 -9999 -9999 -9999 -9999 -9999 -9999 -9999 -9999 -9999 -9999 -9999 -9999 -9999 -9999 -9999 -9999 -9999 -9999 -9999 -9999 -9999 -9999 -9999 -9999 -9999 -9999 -9999 -9999 -9999 -9999 -9999 -9999 -9999 -9999 -9999 -9999 -9999 -9999 -9999 -9999 -9999 -9999 -9999 -9999 -9999 -9999 -9999 -9999 -9999 -9999 -9999 -9999 -9999 -9999 -9999 -9999 -9999
-9999 -9999 -9999 -9999 -9999 -9999 -9999 -9999 -9999 -9999 -9999 -9999 -9999 -9999 -9999 -9999 -9999 643.7633 643.5148 643.2649 642.9806 642.6702 642.4077 642.3176 642.2296 642.0002 641.5801 641.1777 641.001 641.0057 640.9979 640.8236 640.6216 640.4613 640.347 640.2443 640.126 640.0007 639.9017 639.8328 639.7885 639.7496 639.7113 639.6744 639.6272 639.5865 639.5481 639.5005 639.4999 639.485 639.4918 639.5 639.5073 639.5098 639.4917 639.4598 639.4077 639.3762 639.4227 639.6439 640.2047 641.3801 642.9933 644.6042 645.4421 645.4131 644.2834 642.7314 641.3089 640.3024 639.8019 639.5873 639.5006 639.4984 639.4358 639.3524 639.2823 639.2288 639.1878 639.1586 639.1434 639.1232 639.0739 638.9998 638.9072 638.8088 638.7117 638.6226 638.5487 638.5004 638.5239 638.5713 638.6238 638.6757 638.7253 638.7719 638.8145 638.8526 638.8864 638.916 638.942 638.9644 638.9825 638.9949 639 639.005 639.0059 639.0031 638.9973 638.9893 638.9796 638.9685 638.9572 638.9475 638.9413 638.9385 638.9387 638.9417 638.9485 638.9604 638.9794 639.0072 639.0447 639.0925 639.1492 639.2109 639.2759 639.3374 639.3885 639.4246 639.4473 639.4629 639.4736 639.4764 639.4703 639.4657 639.4709 639.4742 639.5001 639.5477 639.5797 639.5852 639.5596 639.4994 639.3952 639.2587 639.1135 639.0001 638.9585 638.9456 638.9259 638.9103 638.9064 638.9163 638.938 638.9702 638.9997 638.9614 638.8818 638.7883 638.7028 638.6334 638.586 638.5734 638.6024 638.6752 638.7887 638.9414 639.1509 639.4299 639.7646 640.1121 640.4147 640.6462 640.8319 640.9581 640.9926 640.9399 640.8516 640.6226 640.2401 639.7704 639.3179 639.0012 638.9399 638.9971 639.0276 638.9971 638.8151 638.6215 638.4924 638.4985 638.6831 639.2276 640.2356 641.5784 643.0563 644.6467 646.1111 647.5061 648.8049 649.9846 651.0663 651.9501 652.4485 652.3655 -9999 -9999 -9999 -9999 -9999 -9999 -9999 -9999 -9999 -9999 -9999 -9999 -9999 -9999 -9999 -9999 -9999 -9999 -9999 -9999 -9999 -9999 -9999 -9999 -9999 -9999 -9999 -9999 -9999 -9999 -9999 -9999 -9999 -9999 -9999 -9999 -9999 -9999 -9999 -9999 -9999 -9999 -9999 -9999 -9999 -9999 -9999 -9999 -9999 -9999 -9999 -9999 -9999 -9999 -9999 -9999 -9999 -9999 -9999 -9999 -9999 -9999 -9999 -9999 -9999 -9999 -9999 -9999 -9999 -9999 -9999 -9999 -9999 -9999 -9999 -9999 -9999 -9999
-9999 -9999 -9999 -9999 -9999 -9999 -9999 -9999 -9999 -9999 -9999 -9999 -9999 -9999 -9999 -9999 -9999 643.548 643.2715 642.9706 642.5964 642.2382 641.9808 642.0898 642.148 641.9839 641.6104 641.2528 641.0485 640.9994 640.9146 640.7318 640.5184 640.3414 640.2168 640.1116 640.0004 639.8928 639.8035 639.7362 639.6841 639.6353 639.5889 639.5555 639.5011 639.4999 639.4998 639.47 639.4678 639.4698 639.4801 639.4906 639.5 639.5099 639.5 639.4999 639.4649 639.4369 639.4478 639.5654 639.9225 640.673 641.9155 643.2391 644.0488 643.8484 642.8351 641.5752 640.5061 639.9103 639.6229 639.4959 639.4093 639.3777 639.3256 639.2577 639.1938 639.1488 639.1133 639.0823 639.0763 639.0645 638.9999 638.9057 638.8042 638.7078 638.6196 638.547 638.5001 638.4823 638.5001 638.551 638.6083 638.6636 638.715 638.7616 638.8037 638.8416 638.8754 638.9057 638.9328 638.9565 638.9763 638.991 639 639.005 639.0056 639.0035 638.9994 638.9937 638.9861 638.9769 638.967 638.9584 638.9532 638.952 638.9535 638.9569 638.9631 638.9744 638.993 639.0211 639.0596 639.1078 639.1641 639.2238 639.2836 639.3413 639.3904 639.4268 639.45 639.4645 639.4752 639.4814 639.4781 639.478 639.4999 639.5004 639.5442 639.5813 639.5905 639.5648 639.4991 639.3942 639.2768 639.1693 639.0781 639.0173 639 638.9999 638.9731 638.9553 638.9529 638.963 638.9765 639.0001 639.0241 638.9999 638.916 638.8103 638.712 638.6367 638.5868 638.5721 638.6047 638.6876 638.8152 638.9814 639.1886 639.4515 639.7722 640.1255 640.4539 640.6982 640.8696 640.9856 641.025 640.9788 640.8519 640.589 640.1904 639.7233 639.2904 639.0021 638.9634 639.0043 638.9996 638.9088 638.7394 638.577 638.5073 638.6453 639.1346 640.1755 641.7117 643.6042 645.4639 647.1817 648.649 649.8051 650.5821 650.9543 651.2798 651.8066 652.0164 -9999 -9999 -9999 -9999 -9999 -9999 -9999 -9999 -9999 -9999 -9999 -9999 -9999 -9999 -9999 -9999 -9999 -9999 -9999 -9999 -9999 -9999 -9999 -9999 -9999 -9999 -9999 -9999 -9999 -9999 -9999 -9999 -9999 -9999 -9999 -9999 -9999 -9999 -9999 -9999 -9999 -9999 -9999 -9999 -9999 -9999 -9999 -9999 -9999 -9999 -9999 -9999 -9999 -9999 -9999 -9999 -9999 -9999 -9999 -9999 -9999 -9999 -9999 -9999 -9999 -9999 -9999 -9999 -9999 -9999 -9999 -9999 -9999 -9999 -9999 -9999 -9999 -9999 -9999
-9999 -9999 -9999 -9999 -9999 -9999 -9999 -9999 -9999 -9999 -9999 -9999 -9999 -9999 -9999 -9999 643.619 643.3489 643.0283 642.6222 642.147 641.7148 641.342 641.7278 641.933 641.792 641.5019 641.2086 641.0043 640.9253 640.8099 640.6232 640.4077 640.2242 640.1002 639.9999 639.8984 639.8012 639.7193 639.6553 639.6019 639.5497 639.5005 639.4995 639.4575 639.4456 639.4436 639.4337 639.4371 639.4475 639.4604 639.4714 639.4836 639.4999 639.4928 639.4982 639.5 639.5 639.4999 639.5322 639.7065 640.0966 640.747 641.5679 642.0447 641.9727 641.2403 640.47 639.9188 639.6525 639.4926 639.3603 639.2822 639.2437 639.2031 639.1508 639.0951 639.0688 639.0447 639.0005 639.0001 638.9983 638.9074 638.7974 638.6961 638.6147 638.5461 638.5001 638.4919 638.5 638.5131 638.5513 638.6011 638.6526 638.7016 638.7467 638.7878 638.8253 638.8595 638.8909 638.9197 638.9457 638.9681 638.9865 639 639.0045 639.0042 639.0027 639.0005 638.9974 638.9921 638.985 638.9772 638.9703 638.9664 638.9662 638.9686 638.9723 638.9774 638.9872 639.0053 639.0342 639.0746 639.1254 639.1827 639.2425 639.299 639.3514 639.3971 639.432 639.4557 639.4719 639.4856 639.5 639.5 639.5003 639.5448 639.5767 639.6089 639.6133 639.5765 639.4982 639.3734 639.2516 639.1389 639.0789 639.043 639.0222 639.0182 639.0167 639 638.9857 638.9866 639 639 639.0154 639.0242 638.9998 638.9169 638.8144 638.7133 638.637 638.592 638.5801 638.6147 638.7048 638.8444 639.027 639.2412 639.486 639.7755 640.1063 640.4378 640.6947 640.8495 640.943 640.9791 640.9371 640.7942 640.5179 640.1212 639.6727 639.2694 639.0048 638.9911 638.9995 638.9247 638.8127 638.6924 638.6194 638.6713 639.0244 639.9189 641.5243 643.7156 646.0558 648.064 649.5864 650.6384 651.3554 651.6501 651.2958 651.0479 651.319 -9999 -9999 -9999 -9999 -9999 -9999 -9999 -9999 -9999 -9999 -9999 -9999 -9999 -9999 -9999 -9999 -9999 -9999 -9999 -9999 -9999 -9999 -9999 -9999 -9999 -9999 -9999 -9999 -9999 -9999 -9999 -9999 -9999 -9999 -9999 -9999 -9999 -9999 -9999 -9999 -9999 -9999 -9999 -9999 -9999 -9999 -9999 -9999 -9999 -9999 -9999 -9999 -9999 -9999 -9999 -9999 -9999 -9999 -9999 -9999 -9999 -9999 -9999 -9999 -9999 -9999 -9999 -9999 -9999 -9999 -9999 -9999 -9999 -9999 -9999 -9999 -9999 -9999 -9999 -9999
-9999 -9999 -9999 -9999 -9999 -9999 -9999 -9999 -9999 -9999 -9999 -9999 -9999 -9999 -9999 -9999 643.4975 643.1991 642.8931 642.3314 641.7114 641.1591 640.9576 641.1365 641.4293 641.4451 641.2943 641.1129 641 640.8783 640.7184 640.5143 640.2947 640.11 639.9995 639.9073 639.8159 639.7275 639.653 639.5944 639.5458 639.4999 639.4565 639.4394 639.4131 639.399 639.3936 639.3912 639.399 639.4136 639.4269 639.433 639.4343 639.4359 639.4332 639.4419 639.4554 639.4667 639.4749 639.4998 639.5723 639.7174 640.0006 640.3108 640.5053 640.4675 640.1552 639.8087 639.5311 639.4764 639.3215 639.1884 639.1354 639.1122 639.0902 639.0565 639.0007 639 638.9995 638.9497 638.9159 638.8743 638.7826 638.6761 638.5894 638.5408 638.5001 638.4879 638.5 638.5101 638.5262 638.5576 638.5995 638.6451 638.6903 638.7329 638.7723 638.8088 638.843 638.8749 638.9048 638.9325 638.9569 638.9773 638.9924 639 639 639 639 639 638.9971 638.9923 638.9868 638.9822 638.9799 638.9801 638.9823 638.9854 638.9894 638.9974 639.0148 639.0452 639.0887 639.1434 639.2043 639.2656 639.3217 639.3691 639.4098 639.4421 639.4652 639.4827 639.5 639.5265 639.5463 639.5697 639.613 639.6443 639.6451 639.5975 639.4955 639.3494 639.1968 639.1002 639.0021 639 639.0137 639.0206 639.0248 639.0234 639.0115 639 639 639.0112 639.0132 639.0135 639 638.9613 638.8829 638.7935 638.702 638.6296 638.5938 638.5928 638.6311 638.7233 638.8715 639.0639 639.2914 639.5308 639.7859 640.0731 640.3755 640.6228 640.7707 640.8334 640.8536 640.8109 640.6634 640.3864 640.004 639.5914 639.2422 639.0353 638.9979 638.913 638.807 638.7179 638.6876 638.7609 638.9775 639.6064 640.9854 643.1641 645.8043 648.2555 650.1002 651.202 651.7719 651.9788 651.6708 651.1115 -9999 -9999 -9999 -9999 -9999 -9999 -9999 -9999 -9999 -9999 -9999 -9999 -9999 -9999 -9999 -9999 -9999 -9999 -9999 -9999 -9999 -9999 -9999 -9999 -9999 -9999 -9999 -9999 -9999 -9999 -9999 -9999 -9999 -9999 -9999 -9999 -9999 -9999 -9999 -9999 -9999 -9999 -9999 -9999 -9999 -9999 -9999 -9999 -9999 -9999 -9999 -9999 -9999 -9999 -9999 -9999 -9999 -9999 -9999 -9999 -9999 -9999 -9999 -9999 -9999 -9999 -9999 -9999 -9999 -9999 -9999 -9999 -9999 -9999 -9999 -9999 -9999 -9999 -9999 -9999 -9999 -9999
-9999 -9999 -9999 -9999 -9999 -9999 -9999 -9999 -9999 -9999 -9999 -9999 -9999 -9999 -9999 -9999 643.4329 643.0359 642.6727 642.0981 641.4771 641.0115 640.8611 640.9905 641.1536 641.1736 641.0996 641.002 640.9974 640.8357 640.6305 640.4068 640.1873 640.0049 639.9133 639.8319 639.7482 639.6669 639.5994 639.546 639.4999 639.4536 639.4131 639.3876 639.3662 639.3524 639.3451 639.3438 639.3521 639.3677 639.3802 639.3799 639.3669 639.3511 639.3417 639.348 639.3657 639.3864 639.4083 639.4423 639.4969 639.5057 639.6414 639.7496 639.8041 639.755 639.5629 639.4699 639.3154 639.2433 639.1228 639.0043 638.9995 639 639.0001 638.9995 638.9554 638.9364 638.9186 638.8738 638.8225 638.7572 638.6644 638.566 638.5004 638.4999 638.4869 638.4882 638.5 638.5175 638.5383 638.5671 638.6034 638.6436 638.6846 638.7242 638.7616 638.7964 638.8295 638.8611 638.8912 638.9194 638.9446 638.9658 638.9819 638.9917 638.9955 638.9977 638.9994 639.0007 639 638.9974 638.9944 638.9921 638.9916 638.9919 638.9932 638.9949 638.9976 639.0039 639.0205 639.0528 639.1012 639.1616 639.2282 639.293 639.3498 639.3944 639.4289 639.4579 639.4805 639.5 639.5226 639.5533 639.5837 639.6185 639.6569 639.6678 639.6157 639.4897 639.2926 639.1533 639.0077 638.9981 638.9526 638.9639 638.9999 639.0173 639.0257 639.0245 639.0158 639.0093 639.0112 639.0161 639.0131 639 638.9677 638.9171 638.8395 638.7543 638.6779 638.6154 638.5875 638.6021 638.6514 638.7449 638.8926 639.0891 639.3208 639.5646 639.8004 640.0415 640.2896 640.4993 640.6259 640.6757 640.6747 640.6207 640.4652 640.1858 639.8185 639.4415 639.1361 638.9471 638.8555 638.7546 638.6577 638.6148 638.6899 638.9451 639.3201 640.2684 642.152 644.7659 647.4824 649.7665 651.2465 651.9177 651.9702 651.71 651.1954 -9999 -9999 -9999 -9999 -9999 -9999 -9999 -9999 -9999 -9999 -9999 -9999 -9999 -9999 -9999 -9999 -9999 -9999 -9999 -9999 -9999 -9999 -9999 -9999 -9999 -9999 -9999 -9999 -9999 -9999 -9999 -9999 -9999 -9999 -9999 -9999 -9999 -9999 -9999 -9999 -9999 -9999 -9999 -9999 -9999 -9999 -9999 -9999 -9999 -9999 -9999 -9999 -9999 -9999 -9999 -9999 -9999 -9999 -9999 -9999 -9999 -9999 -9999 -9999 -9999 -9999 -9999 -9999 -9999 -9999 -9999 -9999 -9999 -9999 -9999 -9999 -9999 -9999 -9999 -9999 -9999 -9999 -9999
-9999 -9999 -9999 -9999 -9999 -9999 -9999 -9999 -9999 -9999 -9999 -9999 -9999 -9999 -9999 -9999 643.5254 643.078 642.6468 641.9894 641.3411 640.9764 640.8098 640.8687 640.9937 641.0023 641.0005 640.9999 640.9333 640.7534 640.5286 640.3022 640.1105 639.9965 639.8751 639.7773 639.6898 639.6112 639.5501 639.4999 639.4512 639.4053 639.3655 639.3364 639.3163 639.3034 639.2954 639.2925 639.2981 639.3123 639.3243 639.3205 639.2967 639.2644 639.2413 639.2388 639.2546 639.2789 639.3048 639.3326 639.3627 639.3867 639.4835 639.4945 639.4939 639.4708 639.3209 639.24 639.1542 639.0861 639.0001 638.9258 638.9133 638.9176 638.9232 638.9219 638.8958 638.8706 638.8411 638.7956 638.7386 638.6678 638.5822 638.5004 638.4742 638.485 638.4883 638.5 638.5134 638.5321 638.5544 638.5815 638.6136 638.649 638.686 638.7224 638.7573 638.7903 638.8217 638.8519 638.8809 638.9083 638.9332 638.9545 638.9713 638.9832 638.99 638.9945 638.9976 638.9999 639.0006 639 638.9988 638.9985 639 639 639 639 639.001 639.0059 639.0219 639.0562 639.1104 639.1788 639.2532 639.3244 639.3829 639.425 639.4529 639.4783 639.5 639.522 639.5305 639.5525 639.5773 639.6062 639.6328 639.6171 639.4907 639.2506 639.0245 638.9933 638.9109 638.8983 638.895 638.9219 638.9655 639 639.0173 639.0198 639.0112 639.0087 639.0134 639.0127 639 638.9727 638.9266 638.8658 638.7933 638.7102 638.6426 638.5945 638.5765 638.6019 638.6678 638.7684 638.9125 639.1018 639.3262 639.5661 639.7963 640.0061 640.2007 640.3517 640.4371 640.4698 640.4627 640.3954 640.2206 639.9281 639.5718 639.2321 638.9717 638.8055 638.6987 638.5976 638.5165 638.5072 638.6333 638.9741 639.6296 640.976 643.2471 645.9438 648.4348 650.345 651.5013 651.657 651.3472 -9999 -9999 -9999 -9999 -9999 -9999 -9999 -9999 -9999 -9999 -9999 -9999 -9999 -9999 -9999 -9999 -9999 -9999 -9999 -9999 -9999 -9999 -9999 -9999 -9999 -9999 -9999 -9999 -9999 -9999 -9999 -9999 -9999 -9999 -9999 -9999 -9999 -9999 -9999 -9999 -9999 -9999 -9999 -9999 -9999 -9999 -9999 -9999 -9999 -9999 -9999 -9999 -9999 -9999 -9999 -9999 -9999 -9999 -9999 -9999 -9999 -9999 -9999 -9999 -9999 -9999 -9999 -9999 -9999 -9999 -9999 -9999 -9999 -9999 -9999 -9999 -9999 -9999 -9999 -9999 -9999 -9999 -9999 -9999 -9999
-9999 -9999 -9999 -9999 -9999 -9999 -9999 -9999 -9999 -9999 -9999 -9999 -9999 -9999 -9999 643.9971 643.7755 643.3471 642.8116 641.9533 641.1581 640.8092 640.6775 640.714 640.8227 640.9093 640.998 640.9976 640.8615 640.6533 640.4173 640.191 640.0056 639.9144 639.814 639.7192 639.6314 639.5531 639.4999 639.4487 639.3997 639.3544 639.3146 639.2834 639.2627 639.2509 639.2435 639.2389 639.2407 639.2515 639.2634 639.2605 639.233 639.1892 639.1509 639.1351 639.1432 639.1647 639.1879 639.2046 639.2102 639.2061 639.2196 639.2253 639.2102 639.1929 639.1317 639.0906 639.0518 639 638.9381 638.8877 638.8691 638.8667 638.8669 638.8602 638.8395 638.8125 638.7782 638.7328 638.6776 638.6143 638.5488 638.4999 638.4862 638.5 638.5 638.5134 638.5306 638.5515 638.5749 638.601 638.6298 638.6613 638.6944 638.7275 638.7599 638.7906 638.8198 638.848 638.875 638.9008 638.9246 638.9453 638.9624 638.9753 638.9843 638.9906 638.995 638.9983 639 639.0004 639 639 639.0015 639.0022 639.002 639.001 639 639.0032 639.0188 639.0552 639.1155 639.1934 639.2782 639.358 639.4213 639.4595 639.4778 639.5 639.52 639.5315 639.5002 639.4998 639.4998 639.4996 639.4952 639.4526 639.2625 639.0152 638.8698 638.8361 638.8075 638.8112 638.8323 638.8722 638.9224 638.9683 639 639.0104 639 639 639.0087 639 638.975 638.9354 638.8838 638.8151 638.7401 638.6685 638.603 638.5691 638.5629 638.5972 638.6744 638.7858 638.9302 639.1075 639.3141 639.5319 639.7494 639.9464 640.1029 640.2025 640.2361 640.2391 640.2209 640.1432 639.9456 639.6349 639.2937 639.0065 638.8121 638.692 638.5981 638.5045 638.4459 638.4811 638.6613 639.0762 639.9996 641.7244 644.1926 646.7038 648.7554 650.1345 650.8777 651.066 -9999 -9999 -9999 -9999 -9999 -9999 -9999 -9999 -9999 -9999 -9999 -9999 -9999 -9999 -9999 -9999 -9999 -9999 -9999 -9999 -9999 -9999 -9999 -9999 -9999 -9999 -9999 -9999 -9999 -9999 -9999 -9999 -9999 -9999 -9999 -9999 -9999 -9999 -9999 -9999 -9999 -9999 -9999 -9999 -9999 -9999 -9999 -9999 -9999 -9999 -9999 -9999 -9999 -9999 -9999 -9999 -9999 -9999 -9999 -9999 -9999 -9999 -9999 -9999 -9999 -9999 -9999 -9999 -9999 -9999 -9999 -9999 -9999 -9999 -9999 -9999 -9999 -9999 -9999 -9999 -9999 -9999 -9999 -9999 -9999 -9999
-9999 -9999 -9999 -9999 -9999 -9999 -9999 -9999 -9999 -9999 -9999 -9999 -9999 -9999 -9999 644.0923 643.9581 643.489 642.8481 641.8979 641.0794 640.682 640.5348 640.5488 640.6432 640.7489 640.8348 640.8335 640.7173 640.5269 640.307 640.1109 639.9965 639.8741 639.7651 639.6693 639.5825 639.5005 639.4524 639.402 639.3507 639.3036 639.2627 639.2294 639.2066 639.1948 639.1892 639.1849 639.1832 639.1895 639.2005 639.2019 639.1787 639.1324 639.0833 639.0532 639.0496 639.0642 639.0829 639.0922 639.0823 639.0487 639.0038 639.0286 639.0021 639.0009 639.0001 639.0001 638.9998 638.9604 638.9135 638.8749 638.8534 638.843 638.8351 638.8222 638.8001 638.7714 638.7359 638.6926 638.6426 638.5889 638.5373 638.5 638.5 638.5114 638.5194 638.5338 638.5524 638.5741 638.598 638.6234 638.6501 638.6783 638.7079 638.738 638.7677 638.7961 638.8232 638.8491 638.8738 638.8973 638.9194 638.9391 638.9557 638.9691 638.9794 638.9868 638.9921 638.9961 638.9987 638.9998 638.9998 638.9999 639.001 639.0018 639.0015 639 638.9961 638.997 639.012 639.0502 639.1156 639.203 639.2996 639.3912 639.4628 639.5 639.5001 639.5169 639.5001 639.4947 639.415 639.3773 639.3449 639.2891 639.1873 639.0464 638.9946 638.8606 638.7659 638.7321 638.7238 638.7396 638.7732 638.8206 638.8752 638.9286 638.9726 638.9999 638.9966 638.9964 638.9999 638.9762 638.9403 638.8939 638.8346 638.7676 638.6911 638.6215 638.5701 638.5413 638.5504 638.5934 638.6758 638.7928 638.9376 639.1058 639.2891 639.4784 639.6599 639.8375 639.9777 640.0447 640.0396 640.0104 639.972 639.8767 639.6526 639.3276 639.0166 638.8145 638.7257 638.683 638.6146 638.5223 638.496 638.6194 638.9224 639.4869 640.6571 642.6246 645.104 647.3565 648.9824 649.9305 650.3054 650.7393 -9999 -9999 -9999 -9999 -9999 -9999 -9999 -9999 -9999 -9999 -9999 -9999 -9999 -9999 -9999 -9999 -9999 -9999 -9999 -9999 -9999 -9999 -9999 -9999 -9999 -9999 -9999 -9999 -9999 -9999 -9999 -9999 -9999 -9999 -9999 -9999 -9999 -9999 -9999 -9999 -9999 -9999 -9999 -9999 -9999 -9999 -9999 -9999 -9999 -9999 -9999 -9999 -9999 -9999 -9999 -9999 -9999 -9999 -9999 -9999 -9999 -9999 -9999 -9999 -9999 -9999 -9999 -9999 -9999 -9999 -9999 -9999 -9999 -9999 -9999 -9999 -9999 -9999 -9999 -9999 -9999 -9999 -9999 -9999 -9999 -9999
-9999 -9999 -9999 -9999 -9999 -9999 -9999 -9999 -9999 -9999 -9999 -9999 -9999 -9999 -9999 644.0012 643.8079 643.3486 642.6695 641.7014 640.9728 640.5614 640.3956 640.3878 640.4631 640.56 640.633 640.636 640.5498 640.3938 640.1979 640.0051 639.9167 639.818 639.719 639.6323 639.562 639.4999 639.4358 639.3716 639.3105 639.2568 639.2123 639.1766 639.1508 639.1372 639.1331 639.1312 639.1287 639.1304 639.139 639.145 639.1319 639.0929 639.0417 639.0014 638.9857 638.9921 639.0079 639.0194 639.0173 639 638.9803 638.9999 638.9634 638.9493 638.9524 638.9611 638.9643 638.9421 638.9095 638.8793 638.8575 638.8416 638.8269 638.8083 638.7828 638.7519 638.7165 638.6765 638.6331 638.5894 638.551 638.5265 638.525 638.5339 638.545 638.56 638.5784 638.5995 638.6229 638.6472 638.6721 638.6978 638.7241 638.7512 638.7784 638.8047 638.8298 638.8536 638.8761 638.8975 638.9176 638.9358 638.9515 638.9648 638.9756 638.9835 638.9894 638.9941 638.9974 638.9989 638.9991 638.9993 639 639.0006 639 638.9973 638.9915 638.9896 639.003 639.0415 639.1097 639.2035 639.3101 639.4144 639.4999 639.5474 639.5394 639.4974 639.3724 639.2721 639.2158 639.2088 639.1862 639.1228 639.0044 638.9042 638.8458 638.7648 638.7007 638.6708 638.6675 638.6869 638.7237 638.7723 638.8271 638.8818 638.9292 638.9604 638.9681 638.9669 638.9591 638.9334 638.8955 638.8467 638.7874 638.7168 638.6461 638.5801 638.5352 638.5206 638.5393 638.5935 638.6792 638.7942 638.932 639.0889 639.252 639.4093 639.5536 639.6885 639.8058 639.861 639.8359 639.786 639.7321 639.618 639.3721 639.0401 638.7784 638.6969 638.7651 638.8396 638.797 638.6736 638.6729 638.9225 639.3638 640.191 641.6839 643.7982 646.1188 648.0723 649.422 650.2607 650.7828 -9999 -9999 -9999 -9999 -9999 -9999 -9999 -9999 -9999 -9999 -9999 -9999 -9999 -9999 -9999 -9999 -9999 -9999 -9999 -9999 -9999 -9999 -9999 -9999 -9999 -9999 -9999 -9999 -9999 -9999 -9999 -9999 -9999 -9999 -9999 -9999 -9999 -9999 -9999 -9999 -9999 -9999 -9999 -9999 -9999 -9999 -9999 -9999 -9999 -9999 -9999 -9999 -9999 -9999 -9999 -9999 -9999 -9999 -9999 -9999 -9999 -9999 -9999 -9999 -9999 -9999 -9999 -9999 -9999 -9999 -9999 -9999 -9999 -9999 -9999 -9999 -9999 -9999 -9999 -9999 -9999 -9999 -9999 -9999 -9999 -9999 -9999
-9999 -9999 -9999 -9999 -9999 -9999 -9999 -9999 -9999 -9999 -9999 -9999 -9999 -9999 -9999 643.8307 643.5449 643.0386 642.2596 641.3168 640.7409 640.4064 640.2589 640.2418 640.2996 640.3812 640.4442 640.455 640.4001 640.2889 640.1445 639.9996 639.8881 639.7808 639.6793 639.5969 639.5426 639.4996 639.4232 639.347 639.2765 639.2151 639.1655 639.127 639.0983 639.0815 639.0771 639.0784 639.0784 639.0779 639.0828 639.0909 639.0886 639.0638 639.0206 638.978 638.954 638.9525 638.9659 638.9827 638.9952 639 638.9874 638.986 638.9648 638.9526 638.953 638.9595 638.9606 638.9456 638.9216 638.897 638.8763 638.8579 638.8386 638.8159 638.788 638.7551 638.7196 638.6826 638.6453 638.6101 638.5814 638.5642 638.5615 638.5679 638.5784 638.5923 638.609 638.6282 638.6494 638.6718 638.6947 638.7179 638.7416 638.7659 638.7904 638.8145 638.8378 638.8597 638.8804 638.8999 638.9182 638.9349 638.9496 638.9624 638.973 638.9813 638.9875 638.9923 638.9962 638.9983 638.9988 638.9988 638.9993 639.0002 639 638.9967 638.989 638.9838 638.9935 639.0295 639.0964 639.1904 639.2999 639.4093 639.5002 639.5529 639.4984 639.3533 639.1655 639.0112 639.0029 639.0638 639.0754 639.0555 638.9985 638.8853 638.7993 638.7255 638.671 638.6416 638.6365 638.6533 638.6871 638.7318 638.7824 638.834 638.8802 638.9122 638.9244 638.922 638.9085 638.8826 638.8459 638.7983 638.7389 638.6706 638.6001 638.5425 638.5073 638.5023 638.5346 638.5986 638.6878 638.7966 638.9205 639.0562 639.197 639.3279 639.4354 639.5292 639.6071 639.643 639.6121 639.5525 639.4945 639.3758 639.1279 638.8059 638.6056 638.665 638.9382 639.1832 639.175 638.9614 638.972 639.3947 640.1712 641.39 643.1544 645.1699 647.105 648.681 649.8846 650.7559 651.1544 -9999 -9999 -9999 -9999 -9999 -9999 -9999 -9999 -9999 -9999 -9999 -9999 -9999 -9999 -9999 -9999 -9999 -9999 -9999 -9999 -9999 -9999 -9999 -9999 -9999 -9999 -9999 -9999 -9999 -9999 -9999 -9999 -9999 -9999 -9999 -9999 -9999 -9999 -9999 -9999 -9999 -9999 -9999 -9999 -9999 -9999 -9999 -9999 -9999 -9999 -9999 -9999 -9999 -9999 -9999 -9999 -9999 -9999 -9999 -9999 -9999 -9999 -9999 -9999 -9999 -9999 -9999 -9999 -9999 -9999 -9999 -9999 -9999 -9999 -9999 -9999 -9999 -9999 -9999 -9999 -9999 -9999 -9999 -9999 -9999 -9999 -9999
-9999 -9999 -9999 -9999 -9999 -9999 -9999 -9999 -9999 -9999 -9999 -9999 -9999 -9999 -9999 643.5708 643.2657 642.8 641.9867 641.1138 640.5975 640.3013 640.1609 640.1312 640.1691 640.2342 640.2893 640.3079 640.2788 640.2079 640.11 640.0002 639.8774 639.7537 639.6399 639.5499 639.4999 639.4552 639.3893 639.316 639.244 639.1783 639.1238 639.0823 639.0516 639.0316 639.0247 639.028 639.0324 639.0337 639.0358 639.0425 639.0476 639.0381 639.0098 638.9738 638.9476 638.9403 638.9498 638.9681 638.9871 639 638.9954 638.991 638.9818 638.976 638.9745 638.9786 638.9779 638.9646 638.9446 638.9241 638.9054 638.887 638.866 638.8412 638.8119 638.7781 638.7424 638.7073 638.6743 638.6451 638.6226 638.6094 638.6061 638.6101 638.6186 638.6302 638.6444 638.6606 638.6786 638.6979 638.7181 638.7388 638.7598 638.7813 638.8032 638.825 638.8462 638.8665 638.8856 638.9036 638.9204 638.9358 638.9495 638.9615 638.9719 638.9802 638.9864 638.9911 638.9952 638.9978 638.9987 638.9988 638.9993 639 639 638.9977 638.99 638.9816 638.986 639.0157 639.0754 639.1612 639.2625 639.365 639.4524 639.495 639.3638 639.1768 639.0024 638.9072 638.9233 638.9988 639.0003 638.9998 638.9523 638.8662 638.7843 638.7155 638.6646 638.6342 638.625 638.6364 638.6637 638.7014 638.7448 638.7906 638.8329 638.8633 638.876 638.8724 638.8567 638.8311 638.7965 638.7509 638.6928 638.6255 638.5594 638.5074 638.483 638.4949 638.5355 638.6112 638.704 638.8058 638.9108 639.0176 639.127 639.2321 639.3116 639.3661 639.4091 639.4166 639.3755 639.3077 639.2524 639.1483 638.9294 638.6372 638.4921 638.6633 639.1441 639.6205 639.7372 639.3943 639.4752 640.2965 641.5831 643.1143 644.9116 646.6233 647.9498 649.0508 650.0645 650.9224 -9999 -9999 -9999 -9999 -9999 -9999 -9999 -9999 -9999 -9999 -9999 -9999 -9999 -9999 -9999 -9999 -9999 -9999 -9999 -9999 -9999 -9999 -9999 -9999 -9999 -9999 -9999 -9999 -9999 -9999 -9999 -9999 -9999 -9999 -9999 -9999 -9999 -9999 -9999 -9999 -9999 -9999 -9999 -9999 -9999 -9999 -9999 -9999 -9999 -9999 -9999 -9999 -9999 -9999 -9999 -9999 -9999 -9999 -9999 -9999 -9999 -9999 -9999 -9999 -9999 -9999 -9999 -9999 -9999 -9999 -9999 -9999 -9999 -9999 -9999 -9999 -9999 -9999 -9999 -9999 -9999 -9999 -9999 -9999 -9999 -9999 -9999 -9999
-9999 -9999 -9999 -9999 -9999 -9999 -9999 -9999 -9999 -9999 -9999 -9999 -9999 -9999 -9999 643.3303 642.991 642.5364 641.8397 641.0695 640.5827 640.2826 640.1229 640.068 640.0811 640.1268 640.1734 640.1956 640.183 640.1377 640.0728 639.9982 639.8618 639.7251 639.6019 639.5006 639.4556 639.4113 639.3518 639.2831 639.2128 639.1465 639.0886 639.0439 639.012 638.9901 638.9797 638.9823 638.991 638.9971 638.9998 639.004 639.0111 639.0127 639.0006 638.9773 638.9553 638.9457 638.951 638.9664 638.9841 638.9973 639 639 639 639 638.9957 639 639 638.9874 638.9706 638.9547 638.9397 638.9229 638.9033 638.879 638.8493 638.8154 638.7799 638.7458 638.7153 638.6897 638.6707 638.6593 638.6554 638.6575 638.6637 638.6727 638.6839 638.6968 638.7111 638.7267 638.7434 638.761 638.7792 638.7979 638.8169 638.8362 638.8552 638.8737 638.8914 638.908 638.9235 638.9379 638.9508 638.9621 638.9721 638.9801 638.9861 638.9907 638.9946 638.9974 638.9987 638.999 638.9994 638.9999 639 639 638.9941 638.9836 638.9825 639.0031 639.0496 639.1183 639.1974 639.2699 639.3134 639.2949 639.1652 639.0037 638.8948 638.8451 638.8633 638.9143 638.932 638.933 638.9006 638.8407 638.775 638.7159 638.6699 638.6395 638.6267 638.6321 638.6522 638.682 638.7173 638.7557 638.7924 638.8193 638.8303 638.8251 638.8082 638.7834 638.7505 638.7065 638.6497 638.5842 638.5219 638.4786 638.4669 638.4912 638.5532 638.6314 638.73 638.8257 638.9108 638.9865 639.0542 639.1312 639.1832 639.2068 639.2167 639.2042 639.1512 639.0765 639.0203 638.9437 638.7828 638.5477 638.4299 638.5837 639.0472 639.6906 640.3549 640.0479 640.5638 641.8558 643.5189 645.2313 646.757 647.9246 648.6371 649.288 650.1058 650.9273 -9999 -9999 -9999 -9999 -9999 -9999 -9999 -9999 -9999 -9999 -9999 -9999 -9999 -9999 -9999 -9999 -9999 -9999 -9999 -9999 -9999 -9999 -9999 -9999 -9999 -9999 -9999 -9999 -9999 -9999 -9999 -9999 -9999 -9999 -9999 -9999 -9999 -9999 -9999 -9999 -9999 -9999 -9999 -9999 -9999 -9999 -9999 -9999 -9999 -9999 -9999 -9999 -9999 -9999 -9999 -9999 -9999 -9999 -9999 -9999 -9999 -9999 -9999 -9999 -9999 -9999 -9999 -9999 -9999 -9999 -9999 -9999 -9999 -9999 -9999 -9999 -9999 -9999 -9999 -9999 -9999 -9999 -9999 -9999 -9999 -9999 -9999 -9999
-9999 -9999 -9999 -9999 -9999 -9999 -9999 -9999 -9999 -9999 -9999 -9999 -9999 -9999 -9999 643.2108 642.8704 642.4871 641.9155 641.2081 640.6947 640.343 640.1389 640.0482 640.0332 640.0588 640.0941 640.1144 640.1053 640.0648 640.0003 639.9247 639.8085 639.6862 639.5795 639.5 639.4404 639.3846 639.3225 639.2545 639.1854 639.1198 639.0607 639.0129 638.9796 638.9574 638.9447 638.9442 638.9543 638.9665 638.9738 638.9781 638.9838 638.9897 638.9895 638.9799 638.9665 638.9586 638.9611 638.9722 638.9866 638.9985 639.0042 639.0065 639.0071 639.0051 639 639.0032 639.0039 639 638.9903 638.9816 638.9738 638.9592 638.9434 638.9231 638.8947 638.861 638.8258 638.7926 638.7635 638.7401 638.7228 638.712 638.7072 638.7073 638.7112 638.7176 638.7257 638.7353 638.7461 638.7579 638.771 638.7852 638.8003 638.8161 638.8323 638.8488 638.8654 638.8818 638.8978 638.913 638.9272 638.9409 638.9531 638.9638 638.9733 638.981 638.9867 638.991 638.9946 638.9973 638.9987 638.9991 638.9995 639 639.0009 639.0016 639 638.9886 638.984 638.9952 639.0253 639.0719 639.1235 639.1613 639.1644 639.1124 639.0021 638.9041 638.8374 638.8105 638.8236 638.8557 638.8751 638.8777 638.8569 638.8163 638.767 638.7192 638.6796 638.6509 638.636 638.6364 638.65 638.6724 638.7 638.7311 638.7616 638.7839 638.7914 638.7839 638.7661 638.7415 638.7097 638.6668 638.611 638.5477 638.4904 638.4563 638.4586 638.501 638.5751 638.6732 638.7671 638.8579 638.9297 638.9744 639.0002 639.046 639.0623 639.0516 639.0348 639.0083 638.955 638.8809 638.8284 638.7892 638.7072 638.5868 638.535 638.6473 639.0319 639.6172 640.4587 641.1996 642.2791 643.8677 645.6541 647.1517 648.204 648.8103 649.1699 649.6421 650.2292 -9999 -9999 -9999 -9999 -9999 -9999 -9999 -9999 -9999 -9999 -9999 -9999 -9999 -9999 -9999 -9999 -9999 -9999 -9999 -9999 -9999 -9999 -9999 -9999 -9999 -9999 -9999 -9999 -9999 -9999 -9999 -9999 -9999 -9999 -9999 -9999 -9999 -9999 -9999 -9999 -9999 -9999 -9999 -9999 -9999 -9999 -9999 -9999 -9999 -9999 -9999 -9999 -9999 -9999 -9999 -9999 -9999 -9999 -9999 -9999 -9999 -9999 -9999 -9999 -9999 -9999 -9999 -9999 -9999 -9999 -9999 -9999 -9999 -9999 -9999 -9999 -9999 -9999 -9999 -9999 -9999 -9999 -9999 -9999 -9999 -9999 -9999 -9999 -9999
-9999 -9999 -9999 -9999 -9999 -9999 -9999 -9999 -9999 -9999 -9999 -9999 -9999 -9999 -9999 643.5045 643.0646 642.7034 642.2228 641.5623 640.8763 640.4313 640.1785 640.0553 640.0154 640.0228 640.0464 640.0601 640.0461 640 639.9303 639.8467 639.7432 639.6373 639.5498 639.4996 639.4316 639.3662 639.3001 639.2316 639.1631 639.0985 639.0399 638.9905 638.955 638.933 638.9199 638.9163 638.9245 638.9399 638.954 638.9624 638.9681 638.9739 638.9786 638.9788 638.9745 638.9711 638.9731 638.9812 638.9923 639.0021 639.0081 639.0105 639.0104 639.0076 639.0033 639.0021 639 639.001 638.9993 638.9983 639 638.9883 638.9782 638.9663 638.9412 638.9081 638.8737 638.8419 638.8145 638.7924 638.7761 638.7652 638.7592 638.7572 638.7587 638.7625 638.7678 638.7743 638.7817 638.7903 638.7999 638.8109 638.8228 638.8357 638.849 638.8628 638.8768 638.891 638.9051 638.9189 638.9321 638.9447 638.9561 638.9661 638.975 638.9823 638.9879 638.9921 638.9954 638.9976 638.9989 638.9994 638.9996 638.9999 639.0002 639 638.9988 638.9924 638.9891 638.9945 639.0083 639.0337 639.0612 639.0739 639.0558 639.0004 638.9288 638.865 638.821 638.8025 638.808 638.8254 638.8389 638.8406 638.8267 638.7986 638.7621 638.7242 638.6906 638.6646 638.6489 638.6459 638.6544 638.6708 638.6918 638.7164 638.7411 638.7583 638.7615 638.7508 638.7312 638.7064 638.6752 638.6331 638.5782 638.5175 638.4659 638.4422 638.4594 638.5195 638.6132 638.7202 638.8252 638.9047 638.9646 639 639.007 638.9998 638.9574 638.9082 638.8643 638.8317 638.7875 638.7326 638.6946 638.7025 638.7197 638.7733 638.9192 639.1417 639.7584 640.6785 641.8928 643.2816 644.6338 646.2235 647.5778 648.5865 649.094 649.4032 649.6924 650.0915 -9999 -9999 -9999 -9999 -9999 -9999 -9999 -9999 -9999 -9999 -9999 -9999 -9999 -9999 -9999 -9999 -9999 -9999 -9999 -9999 -9999 -9999 -9999 -9999 -9999 -9999 -9999 -9999 -9999 -9999 -9999 -9999 -9999 -9999 -9999 -9999 -9999 -9999 -9999 -9999 -9999 -9999 -9999 -9999 -9999 -9999 -9999 -9999 -9999 -9999 -9999 -9999 -9999 -9999 -9999 -9999 -9999 -9999 -9999 -9999 -9999 -9999 -9999 -9999 -9999 -9999 -9999 -9999 -9999 -9999 -9999 -9999 -9999 -9999 -9999 -9999 -9999 -9999 -9999 -9999 -9999 -9999 -9999 -9999 -9999 -9999 -9999 -9999 -9999 -9999
-9999 -9999 -9999 -9999 -9999 -9999 -9999 -9999 -9999 -9999 -9999 -9999 -9999 -9999 -9999 643.8881 643.4403 643.0071 642.4525 641.4675 640.8561 640.4562 640.2092 640.0745 640.018 640.0098 640.0216 640.0261 639.9999 639.9394 639.8602 639.7717 639.6763 639.5831 639.5005 639.4614 639.407 639.3451 639.2802 639.2133 639.1462 639.083 639.0261 638.9766 638.9388 638.916 638.9041 638.8994 638.9041 638.9188 638.9374 638.9523 638.9613 638.9672 638.9725 638.9768 638.9786 638.9797 638.9829 638.9896 638.9984 639.0062 639.0114 639.0132 639.0122 639.009 639.005 639.0021 639 639.0004 639.0001 639 639.0032 639 639 639 638.9799 638.9495 638.9176 638.8885 638.8636 638.8433 638.8278 638.8166 638.8094 638.8057 638.8046 638.8057 638.8082 638.812 638.8165 638.822 638.8287 638.8367 638.8459 638.856 638.8667 638.8779 638.8894 638.9014 638.9135 638.9258 638.9377 638.9492 638.9598 638.9692 638.9774 638.9843 638.9895 638.9933 638.9962 638.998 638.9993 638.9996 638.9998 638.9999 639.0001 639 638.9993 638.9969 638.9965 639 639 639.01 639.0215 639.0216 639 638.9589 638.9102 638.8662 638.8343 638.8177 638.8152 638.8204 638.8251 638.8234 638.8118 638.7908 638.7629 638.7322 638.7034 638.6796 638.6637 638.6582 638.6631 638.6746 638.6904 638.7095 638.729 638.7416 638.7406 638.7261 638.7039 638.6781 638.6473 638.6063 638.5532 638.4954 638.4497 638.4359 638.4677 638.5457 638.6572 638.7802 638.886 638.9584 639 639.0179 638.9997 638.9307 638.8484 638.7722 638.7131 638.6787 638.6537 638.6292 638.6261 638.6851 638.8157 639.0286 639.4487 640.0794 641.1846 642.5846 644.1113 645.6505 647.1279 648.345 648.9841 649.5575 649.4786 649.6296 650.0211 -9999 -9999 -9999 -9999 -9999 -9999 -9999 -9999 -9999 -9999 -9999 -9999 -9999 -9999 -9999 -9999 -9999 -9999 -9999 -9999 -9999 -9999 -9999 -9999 -9999 -9999 -9999 -9999 -9999 -9999 -9999 -9999 -9999 -9999 -9999 -9999 -9999 -9999 -9999 -9999 -9999 -9999 -9999 -9999 -9999 -9999 -9999 -9999 -9999 -9999 -9999 -9999 -9999 -9999 -9999 -9999 -9999 -9999 -9999 -9999 -9999 -9999 -9999 -9999 -9999 -9999 -9999 -9999 -9999 -9999 -9999 -9999 -9999 -9999 -9999 -9999 -9999 -9999 -9999 -9999 -9999 -9999 -9999 -9999 -9999 -9999 -9999 -9999 -9999 -9999 -9999
-9999 -9999 -9999 -9999 -9999 -9999 -9999 -9999 -9999 -9999 -9999 -9999 -9999 -9999 -9999 644.0314 643.6995 643.2244 642.5014 641.5002 640.9085 640.5214 640.2655 640.1121 640.0364 640.0121 640.0098 639.9999 639.9509 639.8771 639.7905 639.7003 639.6157 639.5482 639.4997 639.4433 639.3854 639.3251 639.2627 639.1991 639.1354 639.0743 639.0193 638.9714 638.9323 638.907 638.8954 638.892 638.8946 638.9058 638.9245 638.9441 638.9584 638.967 638.9727 638.9774 638.9812 638.9847 638.9891 638.9954 639.0025 639.0089 639.0132 639.0144 639.0129 639.0096 639.0056 639.0026 639.0005 639 639 639.0006 639.0026 639.0029 639.0054 639.0067 639 638.9773 638.9521 638.9288 638.9083 638.8904 638.8756 638.8644 638.8562 638.8508 638.8477 638.8461 638.8459 638.847 638.8489 638.8516 638.8557 638.8612 638.8679 638.8755 638.8839 638.8929 638.9023 638.9122 638.9225 638.9332 638.944 638.9543 638.9641 638.9729 638.9803 638.9866 638.9912 638.9948 638.9973 638.9989 638.9998 638.9999 639 639 639.0001 639.0002 639 638.9995 639 639.0001 638.9986 639 639.0038 639 638.9822 638.9537 638.9209 638.89 638.8654 638.849 638.8403 638.8361 638.8322 638.8252 638.813 638.7949 638.7715 638.7451 638.719 638.6965 638.6801 638.6727 638.6743 638.6821 638.6934 638.7075 638.7224 638.731 638.7263 638.7081 638.683 638.6561 638.6262 638.5873 638.537 638.4825 638.4419 638.436 638.4794 638.5726 638.701 638.8384 638.95 639.0001 639.0171 638.9998 638.9296 638.8286 638.7269 638.6442 638.5864 638.5596 638.5586 638.5711 638.6154 638.7318 638.9758 639.3927 640.0989 641.2861 642.9536 644.7651 646.4795 648.0043 649.2526 650.0261 650.2534 649.8203 649.1746 649.3909 -9999 -9999 -9999 -9999 -9999 -9999 -9999 -9999 -9999 -9999 -9999 -9999 -9999 -9999 -9999 -9999 -9999 -9999 -9999 -9999 -9999 -9999 -9999 -9999 -9999 -9999 -9999 -9999 -9999 -9999 -9999 -9999 -9999 -9999 -9999 -9999 -9999 -9999 -9999 -9999 -9999 -9999 -9999 -9999 -9999 -9999 -9999 -9999 -9999 -9999 -9999 -9999 -9999 -9999 -9999 -9999 -9999 -9999 -9999 -9999 -9999 -9999 -9999 -9999 -9999 -9999 -9999 -9999 -9999 -9999 -9999 -9999 -9999 -9999 -9999 -9999 -9999 -9999 -9999 -9999 -9999 -9999 -9999 -9999 -9999 -9999 -9999 -9999 -9999 -9999 -9999 -9999
-9999 -9999 -9999 -9999 -9999 -9999 -9999 -9999 -9999 -9999 -9999 -9999 -9999 -9999 -9999 644.2388 643.9876 643.5403 642.8097 641.9108 641.1771 640.6924 640.3702 640.1725 640.0662 640.0203 640 639.9619 639.8957 639.8132 639.7231 639.6328 639.5526 639.5001 639.4614 639.4142 639.3616 639.3057 639.248 639.1893 639.1303 639.0725 639.0194 638.9737 638.9353 638.9073 638.8936 638.8912 638.8945 638.9028 638.9181 638.9379 638.9562 638.9688 638.9766 638.9814 638.985 638.9885 638.9926 638.998 639.004 639.0092 639.0128 639.0138 639.0122 639.0089 639.0052 639.0024 639.001 639.0004 639.0002 639.0001 639 639 639.0012 639 639.0003 638.99 638.9755 638.9608 638.9468 638.9321 638.9184 638.907 638.8981 638.8915 638.8866 638.8831 638.8803 638.8786 638.8781 638.8785 638.8802 638.8833 638.8878 638.8934 638.8999 638.907 638.9147 638.923 638.9318 638.9413 638.9509 638.9602 638.969 638.9768 638.9835 638.989 638.9932 638.9962 638.9982 638.9995 639 639 638.9999 638.9998 639 639 639 639 639.0002 639 639 638.9994 639 638.9952 638.9832 638.9651 638.944 638.9228 638.9038 638.8885 638.8765 638.8661 638.8554 638.8434 638.8289 638.8111 638.7894 638.7646 638.7393 638.7167 638.6992 638.6895 638.6881 638.6924 638.6991 638.7081 638.7183 638.723 638.7151 638.6938 638.6664 638.6387 638.6106 638.5759 638.5303 638.48 638.4427 638.4407 638.4899 638.5913 638.7303 638.8794 638.9994 639.0209 639 638.9344 638.829 638.7096 638.6037 638.5276 638.4877 638.4813 638.5084 638.5587 638.6459 638.8041 639.0699 639.6255 640.6466 642.3206 644.4904 646.6443 648.4501 649.7866 650.594 650.8337 650.2495 649.2766 648.4587 -9999 -9999 -9999 -9999 -9999 -9999 -9999 -9999 -9999 -9999 -9999 -9999 -9999 -9999 -9999 -9999 -9999 -9999 -9999 -9999 -9999 -9999 -9999 -9999 -9999 -9999 -9999 -9999 -9999 -9999 -9999 -9999 -9999 -9999 -9999 -9999 -9999 -9999 -9999 -9999 -9999 -9999 -9999 -9999 -9999 -9999 -9999 -9999 -9999 -9999 -9999 -9999 -9999 -9999 -9999 -9999 -9999 -9999 -9999 -9999 -9999 -9999 -9999 -9999 -9999 -9999 -9999 -9999 -9999 -9999 -9999 -9999 -9999 -9999 -9999 -9999 -9999 -9999 -9999 -9999 -9999 -9999 -9999 -9999 -9999 -9999 -9999 -9999 -9999 -9999 -9999 -9999 -9999
-9999 -9999 -9999 -9999 -9999 -9999 -9999 -9999 -9999 -9999 -9999 -9999 -9999 -9999 -9999 644.4095 644.2341 643.8817 643.1886 642.3666 641.5731 640.9037 640.4875 640.2401 640.0972 640.0263 639.9994 639.9227 639.838 639.7508 639.6635 639.5781 639.5004 639.4618 639.4273 639.386 639.339 639.2887 639.2367 639.1839 639.1307 639.0779 639.0273 638.9829 638.9462 638.9172 638.8996 638.8956 638.9001 638.9083 638.9202 638.9368 638.955 638.9704 638.981 638.9871 638.9902 638.9924 638.9952 638.999 639.0034 639.0073 639.0101 639.0112 639.0099 639.007 639.0038 639.0016 639.0009 639.0006 639.0005 639 638.9993 638.9991 639 639.0002 639.001 638.9972 638.9909 638.9845 638.978 638.9664 638.954 638.9431 638.9342 638.9268 638.9203 638.9152 638.9105 638.9067 638.9039 638.9022 638.902 638.9031 638.9058 638.9094 638.9142 638.9198 638.9261 638.9332 638.9412 638.9496 638.9583 638.9666 638.9744 638.9812 638.9868 638.9915 638.995 638.9974 638.999 638.9999 639 638.9996 638.9993 638.999 638.9993 638.9995 638.9997 639 639 638.9999 638.9998 639 639.0005 638.9979 638.9912 638.9811 638.9688 638.9553 638.9415 638.9285 638.9163 638.9033 638.8889 638.8733 638.8565 638.8376 638.8159 638.7906 638.7646 638.741 638.7216 638.709 638.7041 638.7045 638.7063 638.7094 638.714 638.7148 638.7041 638.6807 638.6514 638.6241 638.5997 638.5718 638.5336 638.4883 638.4528 638.4496 638.496 638.5947 638.7308 638.8745 638.9821 639.0001 638.9548 638.8517 638.7199 638.591 638.491 638.4326 638.4197 638.4467 638.5076 638.5985 638.7321 638.9753 639.3638 639.9896 641.2195 643.1004 645.6099 647.9878 649.7891 650.8248 651.2228 651.0016 650.1061 -9999 -9999 -9999 -9999 -9999 -9999 -9999 -9999 -9999 -9999 -9999 -9999 -9999 -9999 -9999 -9999 -9999 -9999 -9999 -9999 -9999 -9999 -9999 -9999 -9999 -9999 -9999 -9999 -9999 -9999 -9999 -9999 -9999 -9999 -9999 -9999 -9999 -9999 -9999 -9999 -9999 -9999 -9999 -9999 -9999 -9999 -9999 -9999 -9999 -9999 -9999 -9999 -9999 -9999 -9999 -9999 -9999 -9999 -9999 -9999 -9999 -9999 -9999 -9999 -9999 -9999 -9999 -9999 -9999 -9999 -9999 -9999 -9999 -9999 -9999 -9999 -9999 -9999 -9999 -9999 -9999 -9999 -9999 -9999 -9999 -9999 -9999 -9999 -9999 -9999 -9999 -9999 -9999 -9999 -9999
-9999 -9999 -9999 -9999 -9999 -9999 -9999 -9999 -9999 -9999 -9999 -9999 -9999 -9999 -9999 644.49 644.3406 644.0001 643.3777 642.5656 641.5051 640.9196 640.5507 640.2988 640.1207 640.0005 639.9325 639.8531 639.7712 639.6916 639.6173 639.5522 639.4999 639.4528 639.4095 639.3657 639.3208 639.2753 639.2295 639.1831 639.1363 639.0891 639.0422 638.9988 638.9628 638.9341 638.9138 638.9059 638.9092 638.9182 638.9292 638.9424 638.9575 638.9723 638.9843 638.9918 638.9951 638.9963 638.9978 638.9995 639.0016 639.0038 639.0061 639.0073 639.0066 639.0043 639.0017 639 639 639 639 638.9991 638.9985 638.9988 638.9998 639.0005 639.0013 639.0005 638.999 638.9985 639 638.9905 638.98 638.9712 638.9636 638.9561 638.9487 638.9421 638.936 638.9307 638.9261 638.9229 638.921 638.9207 638.9216 638.9238 638.9272 638.9314 638.9365 638.9429 638.9501 638.9576 638.9656 638.973 638.9798 638.9856 638.9902 638.9938 638.9966 638.9985 638.9996 639 638.9995 638.9989 638.9983 638.998 638.9982 638.9984 638.9989 638.9995 639 638.9999 639 639.0017 639.0035 639.0034 639.0009 638.996 638.9899 638.9824 638.9735 638.9637 638.9531 638.9408 638.9257 638.9089 638.8907 638.8707 638.848 638.8217 638.7939 638.7687 638.7474 638.7316 638.7224 638.7181 638.7144 638.7105 638.7083 638.7048 638.6919 638.667 638.6368 638.6113 638.5928 638.5743 638.5464 638.5081 638.473 638.4638 638.4991 638.5837 638.7057 638.8387 638.9493 638.9985 638.9003 638.76 638.6116 638.4822 638.3951 638.3619 638.3829 638.4519 638.5557 638.681 638.824 639.06 639.5078 640.2896 641.7708 643.8197 646.4481 648.8275 650.4933 651.2416 651.3541 650.9391 -9999 -9999 -9999 -9999 -9999 -9999 -9999 -9999 -9999 -9999 -9999 -9999 -9999 -9999 -9999 -9999 -9999 -9999 -9999 -9999 -9999 -9999 -9999 -9999 -9999 -9999 -9999 -9999 -9999 -9999 -9999 -9999 -9999 -9999 -9999 -9999 -9999 -9999 -9999 -9999 -9999 -9999 -9999 -9999 -9999 -9999 -9999 -9999 -9999 -9999 -9999 -9999 -9999 -9999 -9999 -9999 -9999 -9999 -9999 -9999 -9999 -9999 -9999 -9999 -9999 -9999 -9999 -9999 -9999 -9999 -9999 -9999 -9999 -9999 -9999 -9999 -9999 -9999 -9999 -9999 -9999 -9999 -9999 -9999 -9999 -9999 -9999 -9999 -9999 -9999 -9999 -9999 -9999 -9999 -9999 -9999
-9999 -9999 -9999 -9999 -9999 -9999 -9999 -9999 -9999 -9999 -9999 -9999 -9999 -9999 -9999 644.4811 644.3374 643.9991 643.3737 642.5563 641.5013 640.9839 640.6608 640.4 640.1731 639.9989 639.8805 639.7892 639.7099 639.6395 639.5784 639.5302 639.4999 639.4484 639.3984 639.3512 639.3069 639.2656 639.2263 639.187 639.1465 639.1049 639.062 639.0203 638.9836 638.9551 638.934 638.9222 638.9219 638.9299 638.9413 638.9531 638.9646 638.9763 638.9871 638.9948 638.9982 638.9991 639 639 639 639 639.0021 639.0035 639.0035 639.0021 639 638.9991 638.9985 638.9979 638.9975 638.997 638.9971 638.998 638.9993 639.0002 639.0009 639.0006 639.0001 639 639.0031 639 638.9944 638.9901 638.9857 638.9788 638.9712 638.9636 638.9565 638.9501 638.9443 638.9401 638.9371 638.9357 638.9355 638.9366 638.9388 638.942 638.9464 638.9519 638.9585 638.9657 638.973 638.9797 638.9854 638.9899 638.9934 638.9961 638.9982 638.9994 639 638.9998 638.9988 638.9978 638.9971 638.9968 638.9969 638.9972 638.9977 638.9982 638.999 639 639.0016 639.0046 639.0078 639.0099 639.0103 639.0088 639.0063 639.0028 638.9982 638.9917 638.9836 638.9731 638.9598 638.9441 638.9263 638.9059 638.882 638.8544 638.8251 638.798 638.7752 638.7562 638.7422 638.7322 638.7222 638.7106 638.7006 638.6924 638.6784 638.6537 638.624 638.6011 638.5898 638.5833 638.5686 638.5393 638.5046 638.4861 638.5033 638.5634 638.657 638.7605 638.8409 638.8595 638.7739 638.6409 638.5017 638.387 638.3198 638.3134 638.369 638.4831 638.6451 638.8301 639.0081 639.3633 639.8052 640.7209 642.4358 644.5911 647.0952 649.2014 650.557 651.0472 650.9943 -9999 -9999 -9999 -9999 -9999 -9999 -9999 -9999 -9999 -9999 -9999 -9999 -9999 -9999 -9999 -9999 -9999 -9999 -9999 -9999 -9999 -9999 -9999 -9999 -9999 -9999 -9999 -9999 -9999 -9999 -9999 -9999 -9999 -9999 -9999 -9999 -9999 -9999 -9999 -9999 -9999 -9999 -9999 -9999 -9999 -9999 -9999 -9999 -9999 -9999 -9999 -9999 -9999 -9999 -9999 -9999 -9999 -9999 -9999 -9999 -9999 -9999 -9999 -9999 -9999 -9999 -9999 -9999 -9999 -9999 -9999 -9999 -9999 -9999 -9999 -9999 -9999 -9999 -9999 -9999 -9999 -9999 -9999 -9999 -9999 -9999 -9999 -9999 -9999 -9999 -9999 -9999 -9999 -9999 -9999 -9999 -9999
-9999 -9999 -9999 -9999 -9999 -9999 -9999 -9999 -9999 -9999 -9999 -9999 -9999 -9999 -9999 644.3844 644.2306 643.8942 643.2063 642.3751 641.5951 641.1581 640.8787 640.5817 640.2671 639.9993 639.8512 639.7487 639.6672 639.6006 639.546 639.5001 639.4745 639.4328 639.3855 639.3392 639.2972 639.2604 639.2273 639.1949 639.1608 639.1237 639.0843 639.0444 639.0073 638.9773 638.9562 638.9429 638.9387 638.9437 638.954 638.9653 638.9749 638.9831 638.9911 638.9973 639 639 639.0003 638.9999 638.9995 638.9991 639 639.0012 639.0017 639.0011 639 638.9993 638.9977 638.996 638.9949 638.9948 638.9955 638.9971 638.9988 638.9999 639.0004 639 638.9999 639 639.0015 639 638.9995 639 639 638.9938 638.9869 638.9796 638.9722 638.9651 638.9587 638.9537 638.9503 638.9483 638.9476 638.9479 638.9492 638.9518 638.9556 638.9605 638.9666 638.9734 638.9802 638.9863 638.991 638.9941 638.9963 638.9979 638.9993 639 639 638.9993 638.9981 638.9968 638.996 638.9956 638.9957 638.9961 638.9966 638.9969 638.9979 639 639.0034 639.0081 639.0129 639.0168 639.0192 639.02 639.0195 639.0182 639.0162 639.0126 639.0068 638.9986 638.9877 638.9742 638.9581 638.9384 638.9138 638.8854 638.855 638.8267 638.8025 638.7808 638.7616 638.7451 638.7281 638.7088 638.6913 638.6785 638.6648 638.6426 638.6155 638.5961 638.5922 638.5981 638.5984 638.5806 638.5479 638.5192 638.5148 638.5435 638.5999 638.6643 638.7079 638.701 638.6268 638.5145 638.3993 638.3094 638.2664 638.2827 638.3639 638.511 638.7246 638.9814 639.1371 639.4954 640.1674 641.3558 643.2456 645.3022 647.4545 649.0432 649.9131 650.2379 650.145 -9999 -9999 -9999 -9999 -9999 -9999 -9999 -9999 -9999 -9999 -9999 -9999 -9999 -9999 -9999 -9999 -9999 -9999 -9999 -9999 -9999 -9999 -9999 -9999 -9999 -9999 -9999 -9999 -9999 -9999 -9999 -9999 -9999 -9999 -9999 -9999 -9999 -9999 -9999 -9999 -9999 -9999 -9999 -9999 -9999 -9999 -9999 -9999 -9999 -9999 -9999 -9999 -9999 -9999 -9999 -9999 -9999 -9999 -9999 -9999 -9999 -9999 -9999 -9999 -9999 -9999 -9999 -9999 -9999 -9999 -9999 -9999 -9999 -9999 -9999 -9999 -9999 -9999 -9999 -9999 -9999 -9999 -9999 -9999 -9999 -9999 -9999 -9999 -9999 -9999 -9999 -9999 -9999 -9999 -9999 -9999 -9999
-9999 -9999 -9999 -9999 -9999 -9999 -9999 -9999 -9999 -9999 -9999 -9999 -9999 -9999 -9999 644.2061 644.0009 643.614 642.9465 642.0633 641.2089 641.3197 641.2119 640.864 640.4294 640.0354 639.8744 639.7485 639.6511 639.5818 639.5345 639.5 639.4648 639.4216 639.3748 639.3304 639.2919 639.2601 639.2329 639.2068 639.1779 639.1443 639.1069 639.0682 639.0311 638.9991 638.9767 638.9636 638.958 638.9597 638.9675 638.9774 638.9852 638.991 638.996 639 639.0013 639.001 639.0005 639.0001 638.9995 638.9991 638.9994 639 639.0007 639.0008 639.0007 639 638.9969 638.9944 638.9931 638.9932 638.9944 638.9965 638.9985 638.9998 639 638.9999 639 639.0001 639.0005 639 639 639.0021 639.0031 639 638.9958 638.9897 638.9828 638.9758 638.9696 638.9645 638.9608 638.9585 638.9574 638.9573 638.9583 638.9604 638.9637 638.9683 638.974 638.9805 638.9868 638.9923 638.9961 638.9978 638.9987 638.9993 639 639.0002 639 638.999 638.9977 638.9963 638.9954 638.995 638.9951 638.9957 638.9962 638.9965 638.9977 639 639.0059 639.0124 639.0187 639.0242 639.0281 639.0305 639.031 639.0306 639.0298 639.028 639.024 639.0173 639.0084 638.9973 638.983 638.9645 638.9401 638.9113 638.8807 638.8518 638.8267 638.8026 638.7781 638.7548 638.7311 638.7051 638.6808 638.6649 638.6531 638.636 638.6139 638.5988 638.6011 638.6177 638.6324 638.6278 638.5995 638.5627 638.5374 638.5339 638.5511 638.576 638.5859 638.5604 638.4938 638.4038 638.317 638.2561 638.2372 638.27 638.359 638.5076 638.7197 638.9878 639.2261 639.7191 640.7473 642.3091 644.2191 646.1583 647.6705 648.6035 648.8069 648.8828 -9999 -9999 -9999 -9999 -9999 -9999 -9999 -9999 -9999 -9999 -9999 -9999 -9999 -9999 -9999 -9999 -9999 -9999 -9999 -9999 -9999 -9999 -9999 -9999 -9999 -9999 -9999 -9999 -9999 -9999 -9999 -9999 -9999 -9999 -9999 -9999 -9999 -9999 -9999 -9999 -9999 -9999 -9999 -9999 -9999 -9999 -9999 -9999 -9999 -9999 -9999 -9999 -9999 -9999 -9999 -9999 -9999 -9999 -9999 -9999 -9999 -9999 -9999 -9999 -9999 -9999 -9999 -9999 -9999 -9999 -9999 -9999 -9999 -9999 -9999 -9999 -9999 -9999 -9999 -9999 -9999 -9999 -9999 -9999 -9999 -9999 -9999 -9999 -9999 -9999 -9999 -9999 -9999 -9999 -9999 -9999 -9999 -9999
-9999 -9999 -9999 -9999 -9999 -9999 -9999 -9999 -9999 -9999 -9999 -9999 -9999 -9999 -9999 -9999 643.7593 643.4106 642.907 642.2009 641.4708 642.014 641.7792 641.2366 640.6792 640.2349 639.9888 639.7858 639.6527 639.573 639.5284 639.5 639.461 639.4152 639.3683 639.326 639.2917 639.2654 639.2437 639.2222 639.1967 639.165 639.1279 639.0887 639.051 639.0186 638.9942 638.9805 638.9755 638.9763 638.9816 638.9893 638.9938 638.9969 639 639.0016 639.002 639.0015 639.0007 639.0001 638.9996 638.9993 638.9991 638.9995 639 639 639 638.9982 638.9955 638.9932 638.9923 638.9928 638.9945 638.9966 638.9987 639 639 639 639 639.0001 639.0001 639 639 639.0013 639.0022 639.0016 639 638.9951 638.9891 638.9829 638.9772 638.9724 638.969 638.9668 638.9656 638.9655 638.9662 638.968 638.9709 638.9752 638.9805 638.9865 638.9923 638.9972 639 639 639 639 639.0002 639.0002 638.9999 638.9989 638.9977 638.9963 638.9954 638.9951 638.9955 638.9964 638.9972 638.9974 639 639.0045 639.0112 639.0187 639.0258 639.0322 639.037 639.0403 639.0417 639.0419 639.0412 639.0399 639.0366 639.031 639.0231 639.0134 639.0005 638.9829 638.959 638.9302 638.9003 638.8715 638.8456 638.8195 638.79 638.7596 638.7299 638.699 638.6705 638.6531 638.6454 638.6365 638.6217 638.6107 638.6162 638.6387 638.6643 638.6726 638.6511 638.6095 638.5683 638.5373 638.5201 638.512 638.4941 638.4539 638.392 638.3228 638.2642 638.233 638.2382 638.2847 638.3739 638.5074 638.6968 638.9822 639.4229 640.2636 641.7633 643.656 645.6875 647.1589 647.8304 647.8957 647.5366 647.4078 -9999 -9999 -9999 -9999 -9999 -9999 -9999 -9999 -9999 -9999 -9999 -9999 -9999 -9999 -9999 -9999 -9999 -9999 -9999 -9999 -9999 -9999 -9999 -9999 -9999 -9999 -9999 -9999 -9999 -9999 -9999 -9999 -9999 -9999 -9999 -9999 -9999 -9999 -9999 -9999 -9999 -9999 -9999 -9999 -9999 -9999 -9999 -9999 -9999 -9999 -9999 -9999 -9999 -9999 -9999 -9999 -9999 -9999 -9999 -9999 -9999 -9999 -9999 -9999 -9999 -9999 -9999 -9999 -9999 -9999 -9999 -9999 -9999 -9999 -9999 -9999 -9999 -9999 -9999 -9999 -9999 -9999 -9999 -9999 -9999 -9999 -9999 -9999 -9999 -9999 -9999 -9999 -9999 -9999 -9999 -9999 -9999 -9999
-9999 -9999 -9999 -9999 -9999 -9999 -9999 -9999 -9999 -9999 -9999 -9999 -9999 -9999 -9999 -9999 643.5149 643.2639 643.0477 642.7218 642.21 642.9969 642.2172 641.4355 640.8115 640.3342 640.0046 639.7835 639.6418 639.5601 639.5192 639.4999 639.4573 639.4107 639.3658 639.3272 639.2979 639.2767 639.2597 639.2409 639.2163 639.184 639.1453 639.1038 639.0649 639.032 639.0076 638.9928 638.9879 638.9893 638.9941 639 639 639 639.0013 639.002 639.0018 639.0012 639.0005 639.0002 638.9998 638.9994 638.9989 638.9987 638.9987 638.9983 638.9976 638.9959 638.994 638.9928 638.9927 638.9938 638.9957 638.9974 638.999 638.9999 639 639 639 639 639 639 638.9999 639 639 639 638.9994 638.9962 638.9918 638.9868 638.9821 638.9779 638.9752 638.9735 638.9725 638.9724 638.973 638.9746 638.9773 638.9811 638.9858 638.9911 638.9961 639 639.0007 639 639 639.0001 639.0001 639 638.9996 638.9988 638.9977 638.9966 638.9957 638.9958 638.9966 638.9982 639 639 639.0044 639.0106 639.0183 639.0264 639.0338 639.0404 639.0458 639.0494 639.0515 639.052 639.0513 639.0495 639.0461 639.0406 639.0332 639.024 639.0117 638.9943 638.9706 638.9421 638.9132 638.8851 638.8583 638.83 638.7958 638.7585 638.7233 638.6902 638.6614 638.6453 638.6436 638.645 638.6392 638.6317 638.6351 638.6548 638.6835 638.7023 638.6863 638.641 638.5936 638.5459 638.5058 638.4784 638.4406 638.3879 638.3282 638.2761 638.2445 638.2422 638.2737 638.3391 638.4384 638.5704 638.7435 639.0332 639.6871 640.9844 643.0227 645.305 647.2944 648.266 648.0343 647.2404 646.4443 -9999 -9999 -9999 -9999 -9999 -9999 -9999 -9999 -9999 -9999 -9999 -9999 -9999 -9999 -9999 -9999 -9999 -9999 -9999 -9999 -9999 -9999 -9999 -9999 -9999 -9999 -9999 -9999 -9999 -9999 -9999 -9999 -9999 -9999 -9999 -9999 -9999 -9999 -9999 -9999 -9999 -9999 -9999 -9999 -9999 -9999 -9999 -9999 -9999 -9999 -9999 -9999 -9999 -9999 -9999 -9999 -9999 -9999 -9999 -9999 -9999 -9999 -9999 -9999 -9999 -9999 -9999 -9999 -9999 -9999 -9999 -9999 -9999 -9999 -9999 -9999 -9999 -9999 -9999 -9999 -9999 -9999 -9999 -9999 -9999 -9999 -9999 -9999 -9999 -9999 -9999 -9999 -9999 -9999 -9999 -9999 -9999 -9999 -9999
-9999 -9999 -9999 -9999 -9999 -9999 -9999 -9999 -9999 -9999 -9999 -9999 -9999 -9999 -9999 643.5151 643.2266 643.0211 642.9681 642.6318 642.1458 641.9639 641.5933 641.1594 640.7418 640.3396 639.9996 639.7702 639.6273 639.5446 639.5001 639.4778 639.4448 639.4061 639.3678 639.3351 639.3113 639.2948 639.2805 639.2622 639.2356 639.1995 639.1568 639.112 639.0709 639.0377 639.0144 639.0005 638.995 638.9962 639 639.0031 639.0031 639.0024 639.0023 639.002 639.0013 639.0006 639 639 639 638.9996 638.9989 638.9981 638.9974 638.9966 638.9956 638.9944 638.9933 638.9933 638.9943 638.996 638.9978 638.9988 638.9996 639.0001 639.0002 639 639 639 639 639 639 638.9996 638.9993 638.999 638.9982 638.996 638.9927 638.9888 638.985 638.9818 638.9798 638.9788 638.9784 638.9785 638.9791 638.9806 638.9829 638.9862 638.9902 638.9943 638.9978 639 639 639 639 639 639.0001 639 638.9996 638.9989 638.9982 638.9973 638.9966 638.9969 638.998 639 639.0027 639.0052 639.0105 639.0177 639.0258 639.0342 639.0419 639.0484 639.0536 639.0574 639.0596 639.0602 639.0593 639.057 639.0529 639.0469 639.0392 639.03 639.0176 638.9998 638.976 638.9482 638.9201 638.8928 638.8648 638.8339 638.7955 638.7521 638.7124 638.6799 638.6548 638.6433 638.6489 638.6609 638.6644 638.6583 638.6526 638.657 638.6755 638.7006 638.6803 638.6213 638.5848 638.5419 638.5001 638.4751 638.425 638.3606 638.3005 638.2615 638.2538 638.2802 638.3402 638.4341 638.5657 638.7418 638.9666 639.3469 640.2237 641.9083 644.3249 646.8196 648.606 649.0674 648.243 646.8543 645.739 -9999 -9999 -9999 -9999 -9999 -9999 -9999 -9999 -9999 -9999 -9999 -9999 -9999 -9999 -9999 -9999 -9999 -9999 -9999 -9999 -9999 -9999 -9999 -9999 -9999 -9999 -9999 -9999 -9999 -9999 -9999 -9999 -9999 -9999 -9999 -9999 -9999 -9999 -9999 -9999 -9999 -9999 -9999 -9999 -9999 -9999 -9999 -9999 -9999 -9999 -9999 -9999 -9999 -9999 -9999 -9999 -9999 -9999 -9999 -9999 -9999 -9999 -9999 -9999 -9999 -9999 -9999 -9999 -9999 -9999 -9999 -9999 -9999 -9999 -9999 -9999 -9999 -9999 -9999 -9999 -9999 -9999 -9999 -9999 -9999 -9999 -9999 -9999 -9999 -9999 -9999 -9999 -9999 -9999 -9999 -9999 -9999 -9999 -9999
-9999 -9999 -9999 -9999 -9999 -9999 -9999 -9999 -9999 -9999 -9999 -9999 -9999 -9999 -9999 643.3541 643.013 642.8408 642.7381 642.4535 642.0234 641.5898 641.1162 640.9063 640.7028 640.3668 640.0004 639.772 639.6293 639.5446 639.4999 639.4683 639.4388 639.4087 639.3778 639.3514 639.3326 639.3195 639.3058 639.285 639.2531 639.2102 639.1609 639.1119 639.0687 639.0355 639.014 639.0028 638.9985 638.9985 639 639.0027 639.0034 639.0032 639.0026 639.0018 639.0009 639 638.9998 639 639.0001 639 638.9991 638.9982 638.9972 638.996 638.995 638.9941 638.9939 638.9946 638.9964 638.9984 639 639 639 639.0001 639.0001 638.9999 638.9999 638.9999 639 639 639 638.9996 638.9991 638.9984 638.9972 638.9952 638.9927 638.9897 638.9871 638.9849 638.9835 638.9831 638.9833 638.9839 638.9847 638.9862 638.9882 638.9908 638.9937 638.9965 638.9987 638.9999 639 639 639 639 639 639 638.9996 638.9991 638.9987 638.998 638.9978 638.9983 639 639.0029 639.0064 639.0106 639.0166 639.024 639.0325 639.0411 639.0489 639.0553 639.0601 639.0635 639.0654 639.0654 639.0643 639.0616 639.0568 639.0499 639.0415 639.0318 639.0189 639.0005 638.9765 638.9492 638.9219 638.8953 638.866 638.8319 638.7899 638.7418 638.699 638.6691 638.6517 638.6484 638.6617 638.6825 638.6928 638.6843 638.6614 638.6339 638.6213 638.6523 638.6004 638.4803 638.488 638.4998 638.5133 638.4999 638.4383 638.3625 638.2997 638.2705 638.2831 638.3356 638.424 638.5474 638.7166 638.9587 639.2572 639.8726 641.0737 643.0083 645.5334 647.9601 649.4258 649.6156 648.2831 646.5671 -9999 -9999 -9999 -9999 -9999 -9999 -9999 -9999 -9999 -9999 -9999 -9999 -9999 -9999 -9999 -9999 -9999 -9999 -9999 -9999 -9999 -9999 -9999 -9999 -9999 -9999 -9999 -9999 -9999 -9999 -9999 -9999 -9999 -9999 -9999 -9999 -9999 -9999 -9999 -9999 -9999 -9999 -9999 -9999 -9999 -9999 -9999 -9999 -9999 -9999 -9999 -9999 -9999 -9999 -9999 -9999 -9999 -9999 -9999 -9999 -9999 -9999 -9999 -9999 -9999 -9999 -9999 -9999 -9999 -9999 -9999 -9999 -9999 -9999 -9999 -9999 -9999 -9999 -9999 -9999 -9999 -9999 -9999 -9999 -9999 -9999 -9999 -9999 -9999 -9999 -9999 -9999 -9999 -9999 -9999 -9999 -9999 -9999 -9999 -9999
-9999 -9999 -9999 -9999 -9999 -9999 -9999 -9999 -9999 -9999 -9999 -9999 -9999 -9999 -9999 643.3987 643.028 642.8446 642.7175 642.4698 642.1352 641.7225 641.2693 640.9955 640.9138 640.543 640.0698 639.8315 639.6686 639.564 639.5001 639.4703 639.4448 639.4234 639.3987 639.3767 639.3613 639.3496 639.3344 639.308 639.2676 639.2152 639.1575 639.1027 639.0581 639.0264 639.0082 639.0012 638.9995 639 639.0008 639.0022 639.0028 639.0027 639.0022 639.0015 639.0006 639 638.9999 639 639.0001 639 638.9995 638.9989 638.9982 638.9969 638.9958 638.9952 638.9954 638.9964 638.9982 639 639.0004 639.0002 639.0001 639 639 638.9999 638.9999 638.9999 639 639 638.9999 638.9996 638.999 638.9979 638.9965 638.9947 638.9927 638.9905 638.9886 638.9873 638.9868 638.9869 638.9875 638.9886 638.9897 638.9912 638.9929 638.9946 638.9965 638.998 638.9994 639.0001 639.0002 639.0001 639.0001 639.0001 639 639 638.9998 638.9995 638.9991 638.9989 638.9989 639 639.0024 639.0057 639.0099 639.0149 639.0211 639.0287 639.0372 639.0458 639.0536 639.0599 639.0645 639.0673 639.0685 639.0677 639.0658 639.0624 639.0569 639.0491 639.04 639.0295 639.0159 638.9969 638.9727 638.9462 638.9193 638.8932 638.8628 638.8251 638.7799 638.7294 638.6853 638.6595 638.6523 638.66 638.6807 638.7059 638.7171 638.7003 638.6533 638.579 638.5044 638.5529 638.4093 638.0797 638.1751 638.3701 638.4996 638.5125 638.4565 638.3769 638.3135 638.2917 638.321 638.3964 638.5091 638.6531 638.8279 639.055 639.606 640.6477 642.1202 644.0046 646.4884 648.6826 649.7821 649.5989 648.0762 -9999 -9999 -9999 -9999 -9999 -9999 -9999 -9999 -9999 -9999 -9999 -9999 -9999 -9999 -9999 -9999 -9999 -9999 -9999 -9999 -9999 -9999 -9999 -9999 -9999 -9999 -9999 -9999 -9999 -9999 -9999 -9999 -9999 -9999 -9999 -9999 -9999 -9999 -9999 -9999 -9999 -9999 -9999 -9999 -9999 -9999 -9999 -9999 -9999 -9999 -9999 -9999 -9999 -9999 -9999 -9999 -9999 -9999 -9999 -9999 -9999 -9999 -9999 -9999 -9999 -9999 -9999 -9999 -9999 -9999 -9999 -9999 -9999 -9999 -9999 -9999 -9999 -9999 -9999 -9999 -9999 -9999 -9999 -9999 -9999 -9999 -9999 -9999 -9999 -9999 -9999 -9999 -9999 -9999 -9999 -9999 -9999 -9999 -9999 -9999 -9999
