ncols         254
nrows         49
xllcorner     774900
yllcorner     6001250
cellsize      50
NODATA_value  -9999
-9999 -9999 -9999 -9999 -9999 -9999 -9999 -9999 -9999 -9999 -9999 -9999 -9999 -9999 562.664 560.0284 557.7955 556.0022 554.6273 554.4075 553.86 553.4152 553.1366 552.9803 552.7662 552.5848 552.4363 552.267 552.0389 551.7615 551.4676 551.1184 550.7654 550.4639 550.2484 550.1134 550.0223 549.9277 549.7191 549.4374 549.132 548.8433 548.5902 548.3934 548.1696 547.9873 547.8207 547.6636 547.522 547.4019 547.2985 547.2023 547.1057 547.015 546.9416 546.8947 546.8708 546.8551 546.8341 546.8048 546.7742 546.752 546.7443 546.7539 546.7805 546.8184 546.8556 546.88 546.8763 546.8587 546.8561 546.8787 546.9161 546.9357 546.8795 546.651 546.2855 545.8301 545.3765 545.1217 544.9307 544.8285 544.7844 544.7701 544.772 544.7843 544.8075 544.8531 544.9369 545.0507 545.0897 545.155 545.3611 545.6021 545.78 546.0592 546.3781 546.6556 546.819 546.8799 546.7881 546.6458 546.4736 546.3471 546.3177 546.4047 546.6069 546.8965 547.2083 547.4178 547.6854 547.9538 548.145 548.1384 548.0988 548.0951 548.1306 548.1749 548.1566 548.1217 548.0815 548.0405 548.0027 547.9734 547.9584 547.9621 547.986 548.0315 548.1016 548.1946 548.3011 548.3987 548.401 548.4931 548.59 548.6338 548.6155 548.5253 548.3958 548.1483 547.8315 547.4854 547.1587 546.881 546.5985 546.2958 545.9762 545.6563 545.3661 545.2206 545.0137 544.7714 544.5204 544.2757 544.0461 543.8383 543.6581 543.5105 543.3979 543.3187 543.2681 543.2381 543.2272 543.2268 543.2363 543.256 543.2694 543.2904 543.3458 543.4308 543.5468 543.6991 543.8673 544.016 544.1285 544.2174 544.3088 544.4222 544.5656 544.7408 544.9422 545.1567 545.3613 545.5156 545.533 545.2753 544.5779 543.92 543.538 543.3896 543.4991 543.8542 544.4796 545.2593 545.3917 545.3606 545.4948 545.752 546.0954 546.4868 546.88 547.2159 547.4806 547.902 548.3269 548.451 548.7634 549.0262 549.3633 549.6108 549.9174 550.2246 550.4766 550.6329 550.7924 551.1793 551.8762 553.1052 554.01 554.3529 555.058 557.9185 562.4525 568.3163 575.0741 581.9133 588.1438 593.1938 -9999 -9999 -9999 -9999 -9999 -9999 -9999 -9999 -9999 -9999 -9999 -9999 -9999 -9999 -9999 -9999 -9999 -9999 -9999 -9999 -9999 -9999 -9999 -9999 -9999 -9999
-9999 -9999 -9999 -9999 -9999 -9999 -9999 -9999 -9999 -9999 -9999 -9999 -9999 -9999 562.1843 560.1641 558.3231 556.7528 555.4544 554.4808 553.8555 553.3937 553.1094 552.9691 552.6835 552.4519 552.2623 552.0525 551.7848 551.4612 551.175 550.8766 550.592 550.3541 550.1776 550.0503 549.9306 549.7744 549.5165 549.1964 548.8784 548.6182 548.4008 548.2332 548.0565 547.8958 547.7466 547.6086 547.4875 547.3865 547.3025 547.2236 547.144 547.0684 547.011 546.9818 546.979 546.9858 546.9825 546.9591 546.9189 546.8732 546.8342 546.8116 546.8099 546.8282 546.8568 546.88 546.8738 546.8613 546.8627 546.8854 546.9178 546.9313 546.8797 546.6942 546.3925 546.0162 545.6344 545.3533 545.1116 545.0282 545.0096 545.0099 545.0161 545.0255 545.0394 545.0712 545.1577 545.3474 545.36 545.3831 545.6508 545.9365 546.1846 546.4354 546.693 546.8781 546.8799 546.7632 546.5556 546.345 546.1906 546.1484 546.2561 546.5209 546.9385 547.4719 547.8729 548.141 548.3574 548.5248 548.6118 548.5377 548.453 548.4185 548.4289 548.449 548.4326 548.3912 548.3351 548.2712 548.2065 548.15 548.111 548.0973 548.11 548.1483 548.217 548.3063 548.4001 548.4799 548.5156 548.5846 548.6542 548.6852 548.6581 548.562 548.4033 548.2533 547.9576 547.5896 547.2136 546.8796 546.6259 546.3522 546.0541 545.7606 545.5138 545.3545 545.0846 544.802 544.5255 544.2632 544.0208 543.8033 543.6165 543.4662 543.355 543.281 543.2395 543.2224 543.2242 543.2391 543.2633 543.3046 543.344 543.3897 543.4612 543.5502 543.6671 543.8314 544.0216 544.186 544.2928 544.3549 544.408 544.4784 544.5747 544.701 544.8622 545.0594 545.274 545.4776 545.6052 545.5588 545.2499 544.629 544.0298 543.603 543.4637 543.5942 544.0118 544.893 545.3531 545.361 545.3607 545.512 545.7936 546.1467 546.5183 546.8426 546.9384 547.3337 547.7499 548.029 548.3452 548.4641 548.8384 549.1941 549.5354 549.9174 550.2604 550.4753 550.6576 550.9841 551.6309 552.6731 553.1058 553.2148 553.811 556.2172 560.3711 566.0074 572.8778 580.0878 586.8379 592.4901 -9999 -9999 -9999 -9999 -9999 -9999 -9999 -9999 -9999 -9999 -9999 -9999 -9999 -9999 -9999 -9999 -9999 -9999 -9999 -9999 -9999 -9999 -9999 -9999 -9999 -9999
-9999 -9999 -9999 -9999 -9999 -9999 -9999 -9999 -9999 -9999 -9999 -9999 -9999 -9999 561.9215 560.5886 559.2184 557.8021 556.3453 555.0211 554.0605 553.4063 552.9865 552.7514 552.5214 552.3461 552.1906 551.9878 551.7289 551.4435 551.1206 550.8265 550.5696 550.3572 550.192 550.0613 549.9285 549.6942 549.3671 548.9863 548.6301 548.3977 548.2075 548.0624 547.9302 547.8042 547.6794 547.562 547.4608 547.3782 547.3091 547.2455 547.1819 547.1255 547.0886 547.0806 547.0969 547.1202 547.1289 547.1091 547.0615 546.998 546.9344 546.8849 546.8582 546.8548 546.8671 546.88 546.8673 546.8531 546.8528 546.8719 546.9 546.9137 546.8801 546.7776 546.5698 546.2932 545.9714 545.6659 545.3915 545.36 545.3608 545.3612 545.3611 545.3611 545.3608 545.3608 545.3871 545.607 545.7292 545.8464 546.0837 546.3351 546.5662 546.7238 546.8791 546.9132 546.7977 546.5723 546.3057 546.1021 546.0411 546.1693 546.5057 547.0408 547.7709 548.4565 548.8199 549.027 549.1405 549.1774 549.1344 548.9815 548.8525 548.7858 548.7659 548.7574 548.7261 548.6665 548.5847 548.4891 548.3891 548.2985 548.2335 548.2047 548.2095 548.2387 548.3098 548.4 548.4866 548.5605 548.6143 548.6726 548.7224 548.7397 548.7097 548.6307 548.5184 548.394 548.0735 547.6836 547.2735 546.8936 546.7012 546.4408 546.1454 545.8539 545.5926 545.3608 545.0906 544.8025 544.5168 544.2449 543.994 543.7703 543.5797 543.4291 543.3218 543.2553 543.2242 543.2212 543.2373 543.2688 543.306 543.3655 543.4283 543.5026 543.5992 543.6992 543.8147 543.9861 544.1974 544.3834 544.4941 544.5383 544.5602 544.5955 544.6497 544.7162 544.814 544.9672 545.1523 545.3586 545.5416 545.6333 545.5697 545.3335 544.9749 544.2118 543.8854 543.8895 544.2904 544.9222 545.3539 545.375 545.3268 545.3618 545.5692 545.8578 546.1677 546.4324 546.5977 546.8901 547.2502 547.5538 547.8148 548.0366 548.399 548.7628 549.0463 549.4559 549.9181 550.2614 550.5187 550.8751 551.4177 552.0212 552.2627 552.3364 552.9026 554.8362 558.6201 563.958 570.8807 578.3563 585.5617 591.8214 596.6263 -9999 -9999 -9999 -9999 -9999 -9999 -9999 -9999 -9999 -9999 -9999 -9999 -9999 -9999 -9999 -9999 -9999 -9999 -9999 -9999 -9999 -9999 -9999 -9999 -9999
-9999 -9999 -9999 -9999 -9999 -9999 -9999 -9999 -9999 -9999 -9999 -9999 -9999 -9999 -9999 561.5393 560.4442 559.0338 557.3697 555.5747 554.3917 553.5261 552.9659 552.6088 552.4154 552.3326 552.249 552.0491 551.7607 551.445 551.1392 550.8738 550.6398 550.4352 550.2582 550.0979 549.9278 549.6705 549.2936 548.8444 548.4146 548.1952 548.0343 547.9145 547.8173 547.7235 547.623 547.5247 547.4424 547.3766 547.3201 547.2653 547.2141 547.1764 547.1637 547.1816 547.2203 547.2587 547.2744 547.2531 547.1953 547.1138 547.0292 546.9592 546.9138 546.8927 546.8864 546.88 546.8615 546.8407 546.8337 546.8484 546.8741 546.8988 546.9053 546.8796 546.763 546.6102 546.3716 546.1348 545.9464 545.8855 545.849 545.8224 545.8066 545.802 545.8097 545.8361 545.9044 546.0537 546.184 546.3273 546.529 546.6926 546.8735 546.8811 546.9232 546.8644 546.6782 546.4059 546.1431 546.0274 546.1587 546.5731 547.2598 548.1794 549.0279 549.6656 549.9147 550.0017 549.988 549.8929 549.7213 549.4863 549.3149 549.2132 549.1523 549.1033 549.0364 548.9413 548.821 548.6844 548.5417 548.4111 548.3207 548.2871 548.2977 548.3148 548.3998 548.4973 548.587 548.6615 548.7201 548.77 548.8038 548.8062 548.7661 548.6827 548.5626 548.4003 548.1281 547.7786 547.4055 547.0792 546.8701 546.5488 546.2255 545.9191 545.6337 545.3603 545.0781 544.7864 544.4974 544.2217 543.967 543.7406 543.5498 543.4022 543.3014 543.2449 543.2255 543.2358 543.267 543.3152 543.3679 543.441 543.5228 543.6219 543.7489 543.8689 543.9844 544.1539 544.3781 544.5852 544.7096 544.7516 544.7577 544.7764 544.8112 544.8279 544.8483 544.9409 545.056 545.2214 545.3957 545.5443 545.6074 545.5746 545.4514 545.1777 544.8007 544.7053 544.8685 545.1507 545.3599 545.3754 545.3406 545.3598 545.4471 545.6533 545.9075 546.1458 546.3506 546.6016 546.8842 547.1483 547.3263 547.5967 547.9681 548.3395 548.4733 548.9092 549.4216 549.9157 550.2858 550.6575 551.1168 551.4768 551.6977 551.7773 552.2985 553.953 557.3754 562.4045 569.147 576.6972 584.2295 591.0275 596.5319 -9999 -9999 -9999 -9999 -9999 -9999 -9999 -9999 -9999 -9999 -9999 -9999 -9999 -9999 -9999 -9999 -9999 -9999 -9999 -9999 -9999 -9999 -9999 -9999 -9999
-9999 -9999 -9999 -9999 -9999 -9999 -9999 -9999 -9999 -9999 -9999 -9999 -9999 -9999 -9999 562.3425 561.8839 560.4916 558.6371 556.6776 555.0425 553.7855 552.9719 552.5494 552.4169 552.4581 552.4692 552.2434 551.8837 551.4711 551.2159 550.9899 550.7756 550.5699 550.3702 550.1653 549.9365 549.7286 549.3262 548.8409 548.3988 548.113 547.9286 547.8104 547.7308 547.6589 547.5776 547.4955 547.4293 547.3788 547.3323 547.283 547.2376 547.2135 547.2246 547.2714 547.3367 547.394 547.4177 547.3929 547.3215 547.22 547.1151 547.0314 546.9778 546.9503 546.9338 546.9129 546.88 546.8422 546.8185 546.8262 546.8433 546.8687 546.8905 546.9004 546.8802 546.8765 546.7224 546.5897 546.4946 546.442 546.3575 546.2977 546.2672 546.2621 546.2845 546.3437 546.4464 546.5291 546.6063 546.7089 546.872 546.8821 546.9672 546.9601 546.9236 546.8064 546.5922 546.3292 546.1356 546.1992 546.6532 547.5236 548.7536 549.8552 550.6265 551.0122 551.081 551.0107 550.86 550.6426 550.3468 550.0498 549.8357 549.6919 549.5688 549.4595 549.3358 549.1884 549.0202 548.8394 548.6532 548.4802 548.3689 548.3501 548.3992 548.4021 548.5169 548.6334 548.7288 548.8014 548.855 548.8928 548.9091 548.8925 548.8334 548.7291 548.5828 548.3993 548.1744 547.8655 547.5125 547.1749 546.8818 546.5721 546.2576 545.9506 545.6533 545.36 545.0642 544.7664 544.4748 544.1975 543.9424 543.7174 543.5303 543.3888 543.297 543.2522 543.2457 543.2686 543.3134 543.376 543.4473 543.5338 543.6308 543.7476 543.9047 544.0532 544.1753 544.3351 544.556 544.774 544.9136 544.9695 544.9757 545.0012 545.0623 545.0637 545.0541 545.0651 545.0762 545.1683 545.2692 545.403 545.4781 545.5178 545.5148 545.4508 545.3525 545.3408 545.3518 545.3598 545.3816 545.3631 545.3363 545.332 545.3607 545.5314 545.7522 545.9785 546.1932 546.4218 546.6597 546.8687 546.9011 547.1691 547.5042 547.8179 548.0357 548.4128 548.8916 549.4121 549.9168 550.3933 550.9373 551.4237 551.4792 551.5176 551.9889 553.4548 556.5319 561.2327 567.5506 574.9957 582.7064 589.9209 596.0076 -9999 -9999 -9999 -9999 -9999 -9999 -9999 -9999 -9999 -9999 -9999 -9999 -9999 -9999 -9999 -9999 -9999 -9999 -9999 -9999 -9999 -9999 -9999 -9999 -9999
-9999 -9999 -9999 -9999 -9999 -9999 -9999 -9999 -9999 -9999 -9999 -9999 -9999 -9999 -9999 563.1633 563.3523 562.1625 560.2446 557.9886 555.821 554.1898 553.0959 552.6283 552.5546 552.7316 552.812 552.5726 552.1916 551.7734 551.4509 551.1957 550.9728 550.7581 550.5425 550.3265 550.1161 549.9083 549.4281 548.8865 548.402 548.0728 547.8644 547.7412 547.6683 547.6084 547.5397 547.4703 547.4169 547.3781 547.3394 547.2929 547.2495 547.2325 547.2624 547.338 547.4336 547.5167 547.5562 547.5326 547.4476 547.3235 547.1989 547.108 547.0609 547.0441 547.0305 547.0004 546.9467 546.8799 546.8255 546.8263 546.8202 546.8339 546.8488 546.8715 546.8943 546.9161 546.8801 546.879 546.8782 546.8712 546.7451 546.6779 546.6492 546.6456 546.6689 546.7351 546.8704 546.8792 546.8791 546.8809 546.9633 546.9786 546.9994 546.9702 546.9003 546.77 546.5767 546.3778 546.3052 546.6396 547.5765 549.144 550.7275 551.8373 552.4361 552.4849 552.2783 552.0131 551.7223 551.3877 551.014 550.6615 550.3947 550.1842 549.9669 549.7725 549.569 549.3561 549.1385 548.9222 548.7064 548.4992 548.3813 548.4005 548.5123 548.6063 548.7296 548.8434 548.9312 548.9924 549.0313 549.0508 549.046 549.0073 548.9257 548.7964 548.6195 548.4047 548.2468 547.9536 547.5912 547.2231 546.8812 546.5684 546.2632 545.9615 545.6616 545.3599 545.0528 544.7484 544.4542 544.1772 543.9248 543.7046 543.5247 543.3924 543.3116 543.2789 543.2853 543.3199 543.376 543.4495 543.5381 543.6414 543.7563 543.8829 544.0639 544.2484 544.3898 544.539 544.7387 544.9489 545.0895 545.1711 545.18 545.2172 545.3527 545.3602 545.3588 545.3586 545.3571 545.3553 545.2838 545.3598 545.36 545.3641 545.3916 545.3994 545.3967 545.4073 545.3873 545.3588 545.3424 545.3315 545.3398 545.3599 545.3906 545.517 545.7034 545.9106 546.1151 546.3119 546.4921 546.6304 546.6976 546.8808 547.1366 547.3977 547.6459 547.9709 548.4035 548.8778 549.4285 550.0148 550.6722 551.2117 551.4486 551.4786 551.8599 553.142 555.8185 560.0851 565.9419 573.197 580.9636 588.4592 595.0135 600.1455 -9999 -9999 -9999 -9999 -9999 -9999 -9999 -9999 -9999 -9999 -9999 -9999 -9999 -9999 -9999 -9999 -9999 -9999 -9999 -9999 -9999 -9999 -9999 -9999
-9999 -9999 -9999 -9999 -9999 -9999 -9999 -9999 -9999 -9999 -9999 -9999 -9999 -9999 -9999 -9999 564.0433 563.4695 561.8243 559.4346 556.9349 554.9597 553.6403 552.9438 552.8359 553.1605 553.2062 552.9742 552.5929 552.1494 551.7568 551.45 551.2065 550.9772 550.7392 550.489 550.2256 549.9255 549.4788 548.9237 548.401 548.0442 547.8195 547.6913 547.6204 547.5654 547.5038 547.4436 547.3998 547.3685 547.3334 547.2869 547.2432 547.2302 547.274 547.3752 547.5042 547.6239 547.6941 547.6847 547.5911 547.4414 547.2943 547.2034 547.1815 547.1987 547.2032 547.171 547.0945 546.9833 546.8812 546.8795 546.8251 546.8224 546.8063 546.8192 546.8464 546.8654 546.8774 546.9119 546.9421 546.9429 546.8802 546.8796 546.8796 546.8796 546.8795 546.8805 546.9592 546.9717 546.958 546.9462 546.9741 546.9836 546.9792 546.9401 546.8708 546.7719 546.6466 546.564 546.6252 547.3014 548.8813 550.9172 552.6639 553.6277 554.0689 553.7914 553.3358 552.928 552.5485 552.1394 551.6935 551.2686 550.9171 550.6246 550.3005 549.9598 549.6512 549.3701 549.1136 548.8796 548.6669 548.4692 548.4005 548.5331 548.7222 548.8838 549.0165 549.118 549.1883 549.2298 549.2462 549.2424 549.2144 549.1534 549.0519 548.9089 548.7348 548.5535 548.3918 548.0444 547.6462 547.248 546.8809 546.5636 546.2642 545.967 545.6661 545.3596 545.0439 544.7341 544.4391 544.1649 543.918 543.7059 543.5363 543.4154 543.3468 543.326 543.3436 543.3887 543.4543 543.5369 543.6375 543.7574 543.8976 544.0339 544.2262 544.448 544.6259 544.7759 544.941 545.1306 545.2362 545.3575 545.3601 545.3679 545.533 545.6208 545.6633 545.6843 545.6853 545.6497 545.5695 545.5369 545.4626 545.3651 545.3618 545.3618 545.3608 545.36 545.3126 545.2996 545.2982 545.3094 545.3599 545.3984 545.4532 545.568 545.7341 545.9238 546.1096 546.2749 546.4104 546.5088 546.5814 546.7053 546.8807 547.0902 547.314 547.5966 547.9539 548.4109 548.993 549.7818 550.416 551.0297 551.446 551.5208 551.8186 552.8701 555.1195 558.9572 564.3403 571.3961 579.1246 586.767 593.6489 599.2659 -9999 -9999 -9999 -9999 -9999 -9999 -9999 -9999 -9999 -9999 -9999 -9999 -9999 -9999 -9999 -9999 -9999 -9999 -9999 -9999 -9999 -9999 -9999 -9999
-9999 -9999 -9999 -9999 -9999 -9999 -9999 -9999 -9999 -9999 -9999 -9999 -9999 -9999 -9999 -9999 563.9771 563.9764 563.0262 560.8292 558.3308 556.1708 554.4916 553.3293 553.1769 553.7855 553.7156 553.4461 553.0587 552.5526 552.0704 551.7043 551.4473 551.2106 550.9516 550.6609 550.3332 549.9521 549.5812 548.993 548.4019 548.0359 547.798 547.6587 547.5822 547.5258 547.4664 547.4121 547.3754 547.3472 547.3104 547.2592 547.2126 547.2034 547.2601 547.3842 547.55 547.7224 547.8499 547.881 547.7906 547.608 547.4269 547.3377 547.3621 547.4451 547.481 547.4559 547.366 547.2128 547.0718 546.9844 546.8829 546.879 546.801 546.7963 546.8119 546.7939 546.803 546.8388 546.8768 546.8955 546.89 546.9065 546.9189 546.9265 546.9175 546.9092 546.9351 546.9397 546.9301 546.9225 546.9336 546.9384 546.9283 546.8948 546.8485 546.8118 546.7782 546.8645 547.0283 548.084 549.9125 552.099 553.5475 554.436 554.691 554.4849 554.0167 553.6548 553.2861 552.8326 552.2907 551.742 551.257 550.8287 550.3167 549.851 549.4657 549.1442 548.881 548.6209 548.4064 548.4001 548.5219 548.7649 549.0277 549.2271 549.3501 549.4272 549.4733 549.4919 549.4818 549.4534 549.4029 549.3213 549.1996 549.0372 548.844 548.634 548.4005 548.0596 547.661 547.2532 546.88 546.5686 546.2756 545.9783 545.6725 545.3595 545.0369 544.7245 544.4317 544.1635 543.9254 543.7244 543.5673 543.459 543.4023 543.3925 543.4189 543.4722 543.5457 543.6377 543.7489 543.8817 544.0477 544.2052 544.3969 544.6467 544.8735 545.0468 545.1632 545.3515 545.3688 545.5151 545.6027 545.6831 545.8175 545.9191 545.9865 546.0372 546.0697 546.0455 545.9821 545.9214 545.8452 545.7683 545.7385 545.702 545.6185 545.51 545.3688 545.3608 545.3604 545.3615 545.4268 545.4857 545.5575 545.6707 545.8259 546.0013 546.1691 546.3082 546.4105 546.4811 546.5376 546.6172 546.7303 546.8801 547.0608 547.2926 547.6023 548.0078 548.5249 549.3257 550.0356 550.7872 551.4036 551.526 551.744 552.5629 554.4634 558.0574 563.089 569.7772 577.2979 584.9294 592.0048 597.9991 -9999 -9999 -9999 -9999 -9999 -9999 -9999 -9999 -9999 -9999 -9999 -9999 -9999 -9999 -9999 -9999 -9999 -9999 -9999 -9999 -9999 -9999 -9999 -9999
-9999 -9999 -9999 -9999 -9999 -9999 -9999 -9999 -9999 -9999 -9999 -9999 -9999 -9999 -9999 -9999 -9999 564.0001 563.6223 561.8386 559.6513 557.6031 555.8137 554.3838 553.6625 554.2642 554.1531 553.9344 553.5953 552.9822 552.3754 551.9344 551.657 551.4454 551.1873 550.8821 550.5471 550.2 549.849 549.1621 548.4641 548.1066 547.8328 547.6614 547.5627 547.4939 547.4313 547.3799 547.3467 547.3173 547.2728 547.2124 547.1607 547.155 547.2258 547.3729 547.5813 547.8288 548.0569 548.1796 548.1187 547.8884 547.6439 547.5431 547.6274 547.8171 547.884 547.8713 547.7814 547.5696 547.3947 547.2762 547.1593 547.0366 546.8868 546.8807 546.8785 546.7775 546.7643 546.7874 546.817 546.8397 546.8546 546.8738 546.8801 546.8976 546.8798 546.8643 546.8669 546.8669 546.8652 546.8707 546.887 546.8885 546.8807 546.8615 546.8448 546.8795 546.8826 547.0682 547.4778 548.5321 550.157 551.9688 553.3229 554.1779 554.5236 554.5814 554.2629 554.1706 553.9086 553.404 552.6875 551.9106 551.1896 550.5616 549.9805 549.4817 549.1009 548.7937 548.6093 548.4023 548.3163 548.4254 548.6877 549.0443 549.3851 549.5996 549.6812 549.7207 549.741 549.7421 549.705 549.6584 549.5919 549.4961 549.3562 549.1681 548.9387 548.6811 548.399 548.0598 547.6692 547.2569 546.8785 546.5957 546.3099 546.0033 545.6837 545.3595 545.0317 544.7205 544.434 544.1756 543.9496 543.7622 543.6187 543.5231 543.4772 543.4759 543.5097 543.5688 543.6486 543.7498 543.8764 544.0251 544.2068 544.3992 544.5876 544.8472 545.1215 545.347 545.38 545.5807 545.6871 545.8174 545.9373 546.0591 546.1672 546.2485 546.3148 546.3909 546.4813 546.4811 546.4461 546.4069 546.3647 546.3287 546.308 546.2542 546.0847 545.9276 545.7896 545.7067 545.6536 545.6187 545.6277 545.6583 545.7182 545.8215 545.9656 546.1287 546.2815 546.4005 546.4762 546.5217 546.5559 546.5977 546.6563 546.744 546.8796 547.0639 547.3613 547.8119 548.4049 549.1028 549.8347 550.4573 551.0932 551.4485 551.7068 552.4215 554.1544 557.5706 562.2506 568.3152 575.4759 582.9621 590.0917 596.3244 -9999 -9999 -9999 -9999 -9999 -9999 -9999 -9999 -9999 -9999 -9999 -9999 -9999 -9999 -9999 -9999 -9999 -9999 -9999 -9999 -9999 -9999 -9999 -9999
-9999 -9999 -9999 -9999 -9999 -9999 -9999 -9999 -9999 -9999 -9999 -9999 -9999 -9999 -9999 -9999 -9999 563.9994 563.8461 562.4468 560.6788 558.964 557.3772 555.951 555.0297 554.771 554.6378 554.5135 554.2648 553.4722 552.7089 552.1866 551.8851 551.6694 551.4451 551.1368 550.7841 550.4038 549.9656 549.4279 548.8108 548.3596 547.9628 547.7316 547.5879 547.4894 547.4153 547.3633 547.3296 547.2914 547.2331 547.1599 547.1028 547.1021 547.1874 547.3579 547.6135 547.9618 548.3555 548.6633 548.6924 548.3936 548.0386 547.883 548.001 548.337 548.4117 548.4131 548.3453 548.0439 547.8621 547.7563 547.6445 547.4349 547.2682 547.1981 547.101 546.8985 546.8807 546.8816 546.8809 546.8805 546.8802 546.8799 546.8461 546.88 546.8436 546.8253 546.8218 546.8224 546.8259 546.8416 546.88 546.88 546.88 546.8799 546.8817 546.9868 547.079 547.2809 547.7155 548.5975 549.8892 551.3135 552.5078 553.368 553.9309 554.322 554.2692 554.4996 554.3884 553.8064 552.8163 551.7416 550.7792 550.0115 549.4247 548.9611 548.6829 548.4183 548.3904 548.2568 548.2546 548.4526 548.8245 549.2919 549.72 549.926 549.9306 549.9298 549.9299 549.9293 549.8706 549.8263 549.7579 549.6638 549.5152 549.3039 549.0336 548.7219 548.3978 548.0853 547.7166 547.3012 546.8967 546.6772 546.381 546.0447 545.6995 545.3597 545.0293 544.7239 544.4482 544.2034 543.9921 543.8196 543.6902 543.6066 543.5697 543.5747 543.6138 543.6787 543.765 543.8757 544.0198 544.2009 544.3962 544.6224 544.8114 545.0679 545.3635 545.6343 545.7893 545.9768 546.0954 546.2006 546.3224 546.4708 546.5384 546.5769 546.6152 546.6926 546.8665 546.8803 546.8783 546.8766 546.875 546.8748 546.8754 546.8376 546.5776 546.4331 546.3289 546.1779 546.0682 545.9731 545.9136 545.8944 545.9243 546.0082 546.1382 546.2901 546.432 546.537 546.5884 546.6111 546.6252 546.6365 546.64 546.6626 546.7317 546.8793 547.1401 547.6469 548.3079 548.8331 549.4557 550.0578 550.8356 551.4277 551.7496 552.4333 554.0833 557.329 561.4522 566.8503 573.5995 580.8619 587.9388 594.2902 -9999 -9999 -9999 -9999 -9999 -9999 -9999 -9999 -9999 -9999 -9999 -9999 -9999 -9999 -9999 -9999 -9999 -9999 -9999 -9999 -9999 -9999 -9999 -9999
-9999 -9999 -9999 -9999 -9999 -9999 -9999 -9999 -9999 -9999 -9999 -9999 -9999 -9999 -9999 -9999 -9999 -9999 563.958 563.1329 561.8501 560.3784 558.9536 557.6952 556.6836 556.1418 555.829 555.3857 554.9196 554.0945 553.2181 552.5916 552.2493 551.9868 551.758 551.4488 551.0837 550.716 550.3446 549.8835 549.2534 548.6186 548.1732 547.9175 547.7058 547.549 547.452 547.3974 547.3575 547.2977 547.2155 547.1277 547.0692 547.0785 547.1805 547.3717 547.6648 548.1266 548.765 549.4189 549.6689 549.2979 548.8157 548.5209 548.5231 548.882 549.0549 549.0798 548.9657 548.6473 548.5306 548.4276 548.3154 547.9747 547.8032 547.7383 547.6379 547.4081 547.3042 547.252 547.1845 547.1277 547.075 547.001 546.8877 546.9128 546.8813 546.8804 546.8806 546.8806 546.8802 546.8807 546.9244 546.9442 546.9647 547.0109 547.09 547.2134 547.3199 547.4789 547.8041 548.4386 549.37 550.4247 551.3827 552.1373 552.7102 553.1866 553.5953 554.2803 554.4872 553.9201 552.5917 551.2133 550.0656 549.2668 548.8108 548.4417 548.3853 548.2051 548.1371 548.083 548.1544 548.4163 548.8579 549.4033 549.9095 550.0435 550.0151 549.9865 549.9717 549.9656 549.9301 549.9298 549.8771 549.8121 549.673 549.4542 549.1538 548.7928 548.4156 548.1801 547.8496 547.4653 547.1091 546.8641 546.4803 546.0895 545.713 545.3598 545.032 544.7379 544.4774 544.2489 544.0538 543.8966 543.7806 543.7076 543.6781 543.6878 543.7319 543.8038 543.8993 544.0242 544.1875 544.4099 544.6548 544.9082 545.082 545.3629 545.6961 546.0071 546.2303 546.4347 546.5178 546.5755 546.6719 546.8643 546.8795 546.8788 546.8785 546.8941 547.0798 547.1696 547.2092 547.2313 547.2478 547.2563 547.2372 547.1389 546.9064 546.8773 546.8477 546.6216 546.4971 546.3449 546.2206 546.152 546.1479 546.2095 546.3241 546.4661 546.6022 546.7028 546.7289 546.7334 546.7355 546.7309 546.6772 546.6304 546.633 546.7113 546.9025 547.3666 547.9465 548.4803 549.1737 549.9332 550.7307 551.4266 551.7776 552.4158 553.9614 557.0146 560.4001 565.1248 571.5376 578.5845 585.561 591.9677 597.5414 -9999 -9999 -9999 -9999 -9999 -9999 -9999 -9999 -9999 -9999 -9999 -9999 -9999 -9999 -9999 -9999 -9999 -9999 -9999 -9999 -9999 -9999 -9999
-9999 -9999 -9999 -9999 -9999 -9999 -9999 -9999 -9999 -9999 -9999 -9999 -9999 -9999 -9999 -9999 -9999 -9999 -9999 563.8702 563.0208 561.899 560.571 559.4521 558.4411 557.8673 557.3497 556.6089 556.145 555.4918 554.4106 553.3807 552.8781 552.4708 552.2238 551.8608 551.4511 551.0925 550.8296 550.4283 549.957 549.5022 548.7346 548.3668 548 547.7295 547.5925 547.5367 547.4868 547.3804 547.2593 547.1571 547.105 547.134 547.2614 547.4725 547.7642 548.3083 549.241 550.4664 551.1686 550.8251 550.4918 549.8926 549.6042 549.7834 549.8796 549.9051 549.8856 549.7887 549.6633 549.296 548.988 548.5322 548.4175 548.3932 548.3195 547.9984 547.8574 547.7806 547.627 547.5195 547.4479 547.3748 547.2852 547.2261 547.1663 547.144 547.1407 547.1339 547.1155 547.0919 547.0979 547.1089 547.1342 547.2097 547.3417 547.4877 547.5751 547.6616 547.8435 548.2246 548.8199 549.5203 550.1868 550.7306 551.1536 551.5436 552.05 552.9844 553.7614 553.5212 551.8425 550.3338 549.1769 548.5075 548.3795 548.1989 548.1435 548.0477 547.9833 547.9611 548.0558 548.3262 548.7636 549.2836 549.7357 549.9292 549.9304 549.9301 549.9301 549.9503 549.9447 549.9493 549.9301 549.9295 549.8206 549.6232 549.324 548.9666 548.6241 548.3834 548.0329 547.6328 547.235 546.8806 546.4988 546.1031 545.7149 545.3591 545.0444 544.7679 544.5252 544.3139 544.1348 543.9923 543.8889 543.8258 543.8027 543.8171 543.8682 543.9518 544.0635 544.2061 544.3944 544.657 544.9974 545.3207 545.4334 545.7681 546.1071 546.4299 546.6315 546.861 546.8793 546.8782 546.8912 547.0516 547.116 547.148 547.1942 547.276 547.4053 547.486 547.5277 547.5524 547.572 547.5847 547.5707 547.4901 547.3287 547.2416 547.1232 546.8992 546.8641 546.665 546.494 546.3896 546.3599 546.4017 546.5021 546.6342 546.7654 546.8785 546.8806 546.8804 546.8809 546.8783 546.7625 546.6514 546.6039 546.6648 546.8697 547.1628 547.6788 548.3134 548.9482 549.7921 550.5442 551.3416 551.6874 552.1694 553.3024 555.4792 558.7618 563.3027 569.3701 576.175 583.0181 589.4307 595.1913 -9999 -9999 -9999 -9999 -9999 -9999 -9999 -9999 -9999 -9999 -9999 -9999 -9999 -9999 -9999 -9999 -9999 -9999 -9999 -9999 -9999 -9999 -9999
-9999 -9999 -9999 -9999 -9999 -9999 -9999 -9999 -9999 -9999 -9999 -9999 -9999 -9999 -9999 -9999 -9999 -9999 -9999 -9999 564.2031 563.3859 562.1948 561.0975 560.2473 559.6791 558.9755 558.3096 557.9054 557.2744 556.0046 554.651 553.7045 553.097 552.8751 552.3889 551.8804 551.4871 551.3768 551.0093 550.6729 550.2647 549.6976 549.0887 548.5319 548.0959 547.9076 547.8497 547.7889 547.5941 547.4209 547.311 547.2744 547.3304 547.4976 547.7502 547.9752 548.5159 549.6883 551.6118 552.854 553.0567 552.6287 551.5618 550.8648 550.7285 550.6707 550.6713 550.6887 550.6446 550.4799 550.0544 549.792 549.3483 549.174 549.0122 548.8123 548.4702 548.399 548.3499 548.0864 547.9652 547.9185 547.8828 547.8206 547.6821 547.5799 547.5355 547.5278 547.519 547.481 547.4101 547.3707 547.3622 547.3793 547.4567 547.6056 547.7686 547.8373 547.8578 547.9213 548.0972 548.4053 548.7899 549.1587 549.4502 549.6486 549.8385 550.2675 551.0288 551.9079 552.1559 550.4729 549.1152 548.4407 548.1726 548.1645 548.1434 548.1292 548.0783 548.0192 547.9863 548.0463 548.2666 548.6462 549.1044 549.5105 549.7479 549.8342 549.8736 549.8995 549.93 549.93 549.9488 549.9648 549.9777 549.9301 549.7886 549.4985 549.1333 548.7599 548.4174 548.1682 547.7711 547.3155 546.8792 546.5144 546.124 545.7222 545.3576 545.0763 544.823 544.5963 544.3999 544.2351 544.1063 544.0154 543.9626 543.9466 543.9681 544.0311 544.1354 544.2775 544.449 544.6514 544.9722 545.3881 545.8138 546.0928 546.329 546.5555 546.8494 546.8932 547.053 547.1188 547.1688 547.2407 547.3431 547.4051 547.4651 547.5782 547.7499 547.8461 547.8879 547.9068 547.9189 547.9317 547.9463 547.9493 547.8995 547.7392 547.6111 547.4447 547.2365 547.0926 546.8817 546.7015 546.5836 546.5396 546.566 546.6526 546.7727 546.8804 546.9912 547.0453 547.076 547.0796 547.0309 546.8811 546.718 546.6069 546.6001 546.7092 546.902 547.3548 547.928 548.5236 549.3521 550.0949 550.9498 551.4586 551.8358 552.5833 554.1734 557.1393 561.4298 567.0562 573.6329 580.3647 586.7764 592.674 -9999 -9999 -9999 -9999 -9999 -9999 -9999 -9999 -9999 -9999 -9999 -9999 -9999 -9999 -9999 -9999 -9999 -9999 -9999 -9999 -9999 -9999 -9999
-9999 -9999 -9999 -9999 -9999 -9999 -9999 -9999 -9999 -9999 -9999 -9999 -9999 -9999 -9999 -9999 -9999 -9999 -9999 -9999 -9999 564.4956 563.5788 562.5945 562.04 561.5657 560.7969 560.2734 559.9052 559.2375 557.8312 556.1832 554.8121 553.991 553.6236 552.9876 552.3808 551.9503 551.7737 551.5601 551.4567 551.0789 550.5568 549.976 549.4893 548.767 548.5082 548.4014 548.3169 547.983 547.7795 547.6892 547.6731 547.7397 547.9355 548.2864 548.4159 548.9418 550.4182 552.4297 552.8524 553.5814 553.7653 553.4233 552.6787 552.0811 551.7106 551.5925 551.5728 551.4951 551.3268 550.8302 550.393 549.9778 549.8562 549.584 549.3834 549.0914 548.925 548.7341 548.4432 548.3973 548.3978 548.3982 548.3632 548.126 548.0127 547.9725 547.9683 547.9665 547.9238 547.7839 547.698 547.6741 547.6829 547.7456 547.8883 548.0638 548.1128 548.0991 548.0994 548.1459 548.2495 548.3844 548.5107 548.5903 548.5895 548.5028 548.6522 549.2136 550.23 551.3866 550.2402 549.1472 548.5804 548.39 548.3903 548.4101 548.4168 548.3901 548.3287 548.2522 548.2206 548.3404 548.6266 549.0037 549.3615 549.6123 549.7486 549.819 549.8569 549.8864 549.9041 549.93 549.9619 549.9832 550.0013 549.9272 549.6377 549.2774 548.9205 548.6149 548.3786 547.9268 547.4147 546.9111 546.6058 546.2101 545.7781 545.3745 545.1586 544.9165 544.6943 544.5079 544.3551 544.2396 544.1629 544.1235 544.1174 544.1499 544.2327 544.3689 544.5673 544.7973 545.0018 545.412 545.9812 546.4069 546.7908 546.8649 546.9059 547.1321 547.2219 547.3165 547.3991 547.5219 547.6952 547.7827 547.833 547.8914 548.0454 548.3383 548.4072 548.4128 548.4109 548.4104 548.4125 548.4183 548.4187 548.3697 548.1261 547.9911 547.7855 547.5488 547.3279 547.0916 546.8809 546.7417 546.6821 546.6897 546.7607 546.8792 546.9779 547.1 547.2119 547.2987 547.3339 547.2817 547.1166 546.8842 546.6854 546.6003 546.662 546.8687 547.1533 547.6969 548.3918 549.1563 549.9604 550.782 551.3979 551.6249 552.0705 553.2392 555.6932 559.5635 564.739 571.0551 577.6367 583.9725 589.8774 595.22 -9999 -9999 -9999 -9999 -9999 -9999 -9999 -9999 -9999 -9999 -9999 -9999 -9999 -9999 -9999 -9999 -9999 -9999 -9999 -9999 -9999 -9999
-9999 -9999 -9999 -9999 -9999 -9999 -9999 -9999 -9999 -9999 -9999 -9999 -9999 -9999 -9999 -9999 -9999 -9999 -9999 -9999 -9999 -9999 -9999 -9999 -9999 -9999 562.947 562.5056 562.0669 561.3043 559.8019 557.9645 556.2429 555.0374 554.5711 553.6586 552.9363 552.4703 552.3829 552.4821 552.5823 552.1428 551.5745 550.9492 550.4545 549.9375 549.5996 549.1884 548.9178 548.59 548.4825 548.4587 548.4548 548.473 548.5687 548.8719 549.1669 549.8395 550.938 552.5721 553.2917 553.9702 554.4296 554.4836 554.1556 553.7675 553.1739 552.891 552.754 552.4357 552.0792 551.5201 550.9628 550.4979 550.218 549.9526 549.8915 549.6195 549.4493 549.2124 548.984 548.8788 548.8328 548.7814 548.6569 548.4224 548.3964 548.3971 548.399 548.4011 548.3754 548.1454 548.0403 548.0168 548.0233 548.0616 548.174 548.3865 548.4026 548.4017 548.3986 548.3972 548.3982 548.4009 548.4045 548.4042 548.4002 548.3434 548.4532 548.9254 549.7249 550.31 549.9265 549.4182 549.1125 549.0056 549.0102 549.0302 549.0452 549.0431 548.9812 548.8363 548.65 548.6304 548.8005 549.0756 549.3597 549.5803 549.7184 549.7933 549.8238 549.8473 549.8716 549.9001 549.9299 549.9302 549.9877 549.9287 549.6678 549.3359 548.9987 548.6891 548.3998 548.0392 547.5973 547.1618 546.845 546.3962 545.9582 545.5814 545.3448 545.048 544.8143 544.6385 544.4962 544.3945 544.3378 544.3198 544.3273 544.3765 544.4887 544.6594 544.947 545.3 545.4871 546.0701 546.7056 546.9308 547.1694 547.2624 547.3638 547.5929 547.6951 547.7515 547.8203 547.9905 548.3108 548.4174 548.5062 548.5413 548.6364 548.9563 549.089 549.1186 549.1202 549.1199 549.1246 549.1254 549.0595 548.8093 548.4512 548.3749 548.1174 547.8401 547.5732 547.309 547.0658 546.8808 546.7925 546.766 546.7994 546.8803 547.0112 547.1824 547.3699 547.5387 547.6426 547.6346 547.4925 547.2339 546.8956 546.6776 546.6256 546.7108 546.9133 547.4851 548.2684 548.9946 549.8916 550.6167 551.1715 551.4521 551.7463 552.566 554.4457 557.855 562.5452 568.5141 574.8661 581.0196 586.7618 591.9842 -9999 -9999 -9999 -9999 -9999 -9999 -9999 -9999 -9999 -9999 -9999 -9999 -9999 -9999 -9999 -9999 -9999 -9999 -9999 -9999 -9999 -9999
-9999 -9999 -9999 -9999 -9999 -9999 -9999 -9999 -9999 -9999 -9999 -9999 -9999 -9999 -9999 -9999 -9999 -9999 -9999 -9999 -9999 -9999 -9999 -9999 -9999 -9999 -9999 564.9904 564.3901 563.4819 561.9086 559.9776 557.9999 556.3203 555.1506 554.26 553.5439 553.1091 553.1377 553.4993 553.9527 553.6819 552.9052 552.0821 551.5751 551.1159 550.562 550.1393 550.0024 549.912 549.8894 549.874 549.8397 549.8095 549.8214 549.9487 550.2667 551.1032 552.0114 553.0757 553.8091 554.4424 554.9811 555.2727 555.2156 554.9415 554.4076 553.9285 553.6702 553.2985 552.9131 552.3688 551.6229 551.0083 550.5883 550.3008 550.1495 549.9469 549.9019 549.6542 549.4887 549.3335 549.2429 549.1589 549.0101 548.8389 548.7889 548.7828 548.7751 548.7433 548.6458 548.4265 548.3986 548.3993 548.3997 548.3974 548.4147 548.6021 548.7101 548.7821 548.7959 548.7843 548.7891 548.8505 548.9603 548.9874 548.9705 548.9365 549.0184 549.3433 549.8717 549.9332 549.9368 549.9026 549.8793 549.9194 549.9853 550.0174 550.0546 550.1024 550.038 549.7826 549.3572 549.1866 549.2363 549.3784 549.5461 549.6841 549.775 549.8241 549.8181 549.826 549.8457 549.8608 549.877 549.894 549.9292 549.825 549.5973 549.3092 549.0056 548.7059 548.4089 548.1741 547.7916 547.3496 546.9123 546.5604 546.1638 545.7532 545.3781 545.1383 544.9404 544.7985 544.6641 544.5753 544.549 544.569 544.5925 544.6646 544.8276 545.0088 545.394 545.8864 546.2329 546.8319 547.3832 547.5858 547.6874 547.7519 547.9225 548.2799 548.4236 548.4945 548.524 548.6284 548.9767 549.2653 549.6313 549.7411 549.7853 549.8785 549.9114 549.9116 549.9091 549.9114 549.9247 549.941 549.8423 549.4044 548.9609 548.6945 548.4017 548.111 547.8257 547.5402 547.2585 547.0217 546.8792 546.8113 546.8163 546.8802 547.0151 547.234 547.504 547.7717 547.9728 548.0422 547.9668 547.7636 547.3452 546.9067 546.7011 546.682 546.8676 547.2264 547.8845 548.636 549.697 550.3931 551.0164 551.4407 551.6135 552.1532 553.6076 556.5146 560.7457 566.1181 572.1099 577.9953 583.4573 588.3832 -9999 -9999 -9999 -9999 -9999 -9999 -9999 -9999 -9999 -9999 -9999 -9999 -9999 -9999 -9999 -9999 -9999 -9999 -9999 -9999 -9999 -9999
-9999 -9999 -9999 -9999 -9999 -9999 -9999 -9999 -9999 -9999 -9999 -9999 -9999 -9999 -9999 -9999 -9999 -9999 -9999 -9999 -9999 -9999 -9999 -9999 -9999 -9999 -9999 -9999 -9999 565.7957 564.2012 562.2872 560.1953 558.2582 556.7117 555.5815 554.7473 554.3089 554.138 554.3043 554.3257 554.209 554.0162 553.5017 552.8992 552.1942 551.6583 551.5451 551.6766 551.778 551.8041 551.718 551.5403 551.3801 551.3079 551.377 551.7349 552.6167 553.5381 554.0629 554.4994 554.9814 555.5313 555.9973 556.0908 555.9 555.2961 554.6703 554.4664 554.2953 553.7888 553.3947 552.5657 551.641 551.0265 550.655 550.4436 550.28 550.1616 549.9503 549.9062 549.7013 549.6125 549.543 549.3784 549.2373 549.1782 549.1633 549.1498 549.1139 549.0352 548.9167 548.8821 548.8696 548.8516 548.8297 548.8374 548.9529 549.103 549.2693 549.3121 549.3043 549.34 549.5085 549.8168 549.8957 549.8879 549.8673 549.9086 550.1088 550.4371 550.4953 550.5212 550.5743 550.7321 551.0433 551.3132 551.4224 551.5436 551.7144 551.5767 551.0055 550.3228 550.0568 549.9925 549.9361 549.9247 549.9288 549.9308 549.9288 549.8499 549.8411 549.8524 549.8325 549.8091 549.7933 549.7723 549.6649 549.4741 549.2377 548.9894 548.7526 548.5462 548.3859 548.0286 547.6254 547.2256 546.875 546.4843 546.0619 545.6592 545.3578 545.1315 545.0249 544.8699 544.7856 544.8029 544.8971 544.9313 545.0269 545.3055 545.4802 546.0441 546.6695 547.0183 547.6816 548.3336 548.5223 548.545 548.5488 548.6769 549.1063 549.5025 549.7926 549.8746 549.9113 550.0245 550.1779 550.4923 550.6319 550.6729 550.6935 550.6832 550.6542 550.6463 550.6586 550.6995 550.7664 550.5809 550.002 549.4586 549.058 548.7169 548.4019 548.0997 547.7948 547.4572 547.1344 546.8832 546.8239 546.8194 546.8795 546.9812 547.2405 547.588 547.9522 548.2555 548.3966 548.4048 548.3502 547.9141 547.3467 546.8713 546.6657 546.696 546.9255 547.5684 548.4052 549.3025 550.0516 550.8471 551.419 551.549 551.9016 553.025 555.3923 559.124 563.9316 569.4939 575.0565 580.1829 584.6807 588.4062 -9999 -9999 -9999 -9999 -9999 -9999 -9999 -9999 -9999 -9999 -9999 -9999 -9999 -9999 -9999 -9999 -9999 -9999 -9999 -9999 -9999
-9999 -9999 -9999 -9999 -9999 -9999 -9999 -9999 -9999 -9999 -9999 -9999 -9999 -9999 -9999 -9999 -9999 -9999 -9999 -9999 -9999 -9999 -9999 -9999 -9999 -9999 -9999 -9999 -9999 -9999 566.7194 564.879 562.8917 560.925 559.2814 557.9305 556.8383 556.2047 555.9099 555.8096 555.595 555.2384 555.0323 554.7319 554.2181 553.3704 553.0369 553.3143 553.8303 554.1272 554.1911 553.9617 553.4974 553.0631 552.8522 552.8975 553.2817 554.0671 554.7042 555.0303 555.2509 555.5797 556.171 556.8466 557.0327 556.7396 556.0644 555.3274 554.6766 554.0471 554.1112 554.2992 553.5117 552.4415 551.5475 551.0518 550.7878 550.639 550.4957 550.3171 550.1708 549.9497 549.9303 549.9137 549.706 549.5956 549.5545 549.5448 549.5385 549.5205 549.4854 549.4399 549.4175 549.4008 549.3763 549.3485 549.3416 549.4012 549.5659 549.8766 549.9445 549.9478 549.9918 550.1969 550.5735 550.7068 550.7114 550.7155 550.8467 551.1902 551.3567 551.366 551.3592 551.4294 551.7399 552.3464 552.7144 552.8629 553.1097 553.5377 553.3661 552.5366 551.7905 551.4154 551.1429 550.7161 550.4269 550.2859 550.1993 550.0803 549.9349 549.9301 549.9291 549.8458 549.7615 549.6946 549.6338 549.5217 549.3542 549.1575 548.9573 548.7676 548.5897 548.4044 548.1971 547.902 547.5696 547.236 546.8724 546.4533 546.0254 545.6545 545.3798 545.3382 545.1141 545.03 545.0939 545.3243 545.3687 545.4587 545.8801 546.2343 546.811 547.4002 547.924 548.7374 549.6586 549.9781 550.0627 550.062 550.1266 550.4093 550.907 551.3093 551.4289 551.4417 551.4542 551.4893 551.575 551.6076 551.6093 551.5981 551.5599 551.4862 551.4727 551.4698 551.4833 551.661 551.3973 550.7194 549.9988 549.4801 549.0862 548.7441 548.4071 548.0839 547.6808 547.2966 547.0082 546.8795 546.8022 546.8027 546.8841 547.1974 547.5995 548.0219 548.3908 548.5151 548.625 548.6453 548.3721 547.7723 546.9982 546.6992 546.6449 546.8616 547.3438 548.2105 549.0133 549.9173 550.7092 551.2437 551.4517 551.7006 552.5269 554.393 557.7141 562.0366 567.0558 572.2183 576.9984 581.0531 584.2535 -9999 -9999 -9999 -9999 -9999 -9999 -9999 -9999 -9999 -9999 -9999 -9999 -9999 -9999 -9999 -9999 -9999 -9999 -9999 -9999 -9999
-9999 -9999 -9999 -9999 -9999 -9999 -9999 -9999 -9999 -9999 -9999 -9999 -9999 -9999 -9999 -9999 -9999 -9999 -9999 -9999 -9999 -9999 -9999 -9999 -9999 -9999 -9999 -9999 -9999 -9999 569.4931 567.803 566.0482 564.2189 562.5959 561.0956 559.7869 558.8058 558.1578 557.6144 556.926 556.3249 556.0618 555.8943 555.4981 554.7038 554.4608 555.0855 555.8547 556.3237 556.4649 556.1129 555.4821 554.7955 554.4857 554.4952 554.7795 555.3909 555.9542 556.1797 556.2083 556.3503 557.0707 557.8026 557.9283 557.5175 556.8072 555.9674 555.047 554.1098 554.1082 554.4997 554.048 553.0296 552.0809 551.4607 551.1518 551.0371 550.8799 550.7169 550.5411 550.356 550.2584 550.1489 549.9479 549.9283 549.9291 549.9301 549.9303 549.9295 549.9274 549.9246 549.924 549.9244 549.9258 549.9258 549.9303 549.9423 550.0612 550.5051 550.6874 550.7558 550.8934 551.2402 551.4032 551.4285 551.424 551.4525 551.6074 551.9083 552.0402 552.0723 552.1484 552.4424 553.12 553.9738 554.0451 554.0422 554.2547 554.4814 554.3553 553.9308 553.3157 552.758 552.1074 551.4647 550.9922 550.782 550.6553 550.441 550.266 550.1821 550.0806 549.9301 549.7802 549.6594 549.5781 549.4526 549.2855 549.1058 548.937 548.7874 548.6548 548.529 548.3977 548.1746 547.8971 547.5903 547.2498 546.8693 546.4456 546.0584 545.7916 545.6383 545.4024 545.3635 545.4144 545.7318 546.0035 546.2479 546.7394 547.0898 547.6233 548.2799 548.9637 550.0888 551.1228 551.659 551.8978 551.9318 551.9608 552.142 552.5477 552.7982 552.866 552.868 552.8634 552.8649 552.8713 552.8489 552.8288 552.8066 552.7373 552.5541 552.5659 552.5272 552.3619 552.6537 552.2288 551.4487 550.6369 549.9703 549.5087 549.1285 548.7399 548.3669 547.8698 547.4277 547.0892 546.8803 546.7753 546.7692 546.8802 547.171 547.5524 547.9415 548.2523 548.4069 548.6592 548.79 548.6719 548.2643 547.4302 546.868 546.6117 546.6577 546.9639 547.7672 548.6512 549.8146 550.6184 551.1493 551.4406 551.5809 552.1938 553.7183 556.6138 560.4438 564.7543 569.4815 573.9542 577.7105 580.5758 582.6138 -9999 -9999 -9999 -9999 -9999 -9999 -9999 -9999 -9999 -9999 -9999 -9999 -9999 -9999 -9999 -9999 -9999 -9999 -9999 -9999
-9999 -9999 -9999 -9999 -9999 -9999 -9999 -9999 -9999 -9999 -9999 -9999 -9999 -9999 -9999 -9999 -9999 -9999 -9999 -9999 -9999 -9999 -9999 -9999 -9999 -9999 -9999 -9999 -9999 -9999 -9999 570.9818 569.4854 567.8458 566.2613 564.7321 563.3179 561.976 560.819 559.6727 558.4966 557.7059 557.1744 556.8635 556.4415 555.9853 556.0295 556.754 557.6738 558.2309 558.413 558.1382 557.5358 556.6552 556.298 556.3649 556.6272 557.0527 557.5867 557.8168 557.6732 557.4993 557.9086 558.2661 558.2893 557.9648 557.3514 556.5449 555.6444 554.546 554.0197 554.3312 554.1691 553.2161 552.3651 551.7793 551.4637 551.4304 551.2397 551.1118 550.9354 550.7723 550.6328 550.4993 550.3646 550.3309 550.3276 550.3239 550.3147 550.3032 550.2914 550.2866 550.2985 550.3427 550.4229 550.5125 550.6348 550.701 550.8773 551.3181 551.4332 551.4388 551.4597 551.6162 551.7107 551.7903 551.937 552.2263 552.6672 552.9353 553.0756 553.199 553.3892 553.8409 554.7867 555.7726 555.5461 555.3681 555.415 555.6588 555.6993 555.2004 554.4933 553.9122 553.0906 552.3431 551.7167 551.4829 551.3333 550.9801 550.775 550.6395 550.4178 550.1706 549.9281 549.7354 549.6588 549.499 549.3018 549.111 548.9501 548.8229 548.7227 548.6375 548.5455 548.3986 548.1787 547.9089 547.5945 547.2417 546.866 546.4972 546.3057 546.1968 546.079 546.05 546.1077 546.3597 546.76 547.0241 547.5967 548.128 548.5312 549.2997 550.3509 551.7612 552.8831 553.3215 553.4351 553.4248 553.41 553.4871 553.6801 553.793 553.8051 553.8014 553.8036 553.7985 553.7481 553.5968 553.5054 553.5155 553.5934 553.6461 553.9431 553.9536 553.486 553.3297 552.8636 552.0396 551.2161 550.5057 549.951 549.502 548.9553 548.4084 547.9247 547.4899 547.1296 546.8801 546.7589 546.757 546.8802 547.1472 547.4955 547.8547 548.1625 548.4011 548.6819 548.8452 548.767 548.3781 547.6303 546.8999 546.5955 546.5952 546.887 547.5632 548.5231 549.7469 550.5009 551.0039 551.2865 551.4581 551.9883 553.2747 555.7534 559.1898 562.8126 566.946 571.1783 574.9247 577.9136 580.2368 -9999 -9999 -9999 -9999 -9999 -9999 -9999 -9999 -9999 -9999 -9999 -9999 -9999 -9999 -9999 -9999 -9999 -9999 -9999 -9999
-9999 -9999 -9999 -9999 -9999 -9999 -9999 -9999 -9999 -9999 -9999 -9999 -9999 -9999 -9999 -9999 -9999 -9999 -9999 -9999 -9999 -9999 -9999 -9999 -9999 -9999 -9999 -9999 -9999 -9999 -9999 -9999 -9999 571.1514 569.7731 568.3766 567.0001 565.3747 563.6785 561.9293 560.2853 559.083 558.2822 557.8233 557.2889 556.9805 557.2351 558.0444 559.0554 559.7524 559.9482 559.8042 559.3333 558.5326 558.3264 558.6421 559.0281 559.3394 559.566 559.5297 558.9485 558.347 -9999 -9999 -9999 558.026 557.6459 556.8831 555.9545 555.0179 554.4202 554.1851 553.3755 552.8972 552.4041 551.999 551.749 551.6272 551.4583 551.4391 551.2654 551.1488 551.0023 550.8811 550.7904 550.7523 550.7367 550.7199 550.6943 550.6631 550.631 550.6098 550.6257 550.7163 550.8984 551.0748 551.3743 551.4509 551.5297 551.8241 551.9352 551.916 551.8604 551.8656 551.9429 552.1672 552.5575 553.175 553.9185 554.4775 554.9252 555.371 555.7804 556.272 557.0196 557.7648 557.9131 557.9479 557.9565 557.9573 557.7164 556.9534 556.1255 555.3046 554.4166 553.6238 552.9457 552.5061 552.0875 551.6536 551.4997 551.3617 550.9918 550.6348 550.256 549.9605 549.9113 549.6721 549.415 549.1892 549.0126 548.8843 548.7935 548.7242 548.6538 548.5524 548.3991 548.1803 547.9042 547.5844 547.2438 546.9246 546.8702 546.8646 546.8538 546.8512 546.8671 546.9875 547.3835 547.7959 548.3349 548.811 549.3611 550.3101 551.7173 553.2935 553.9985 554.1932 554.4479 554.5097 554.5137 554.546 554.6505 554.6561 554.5602 554.5164 554.5125 554.5065 554.4312 554.132 554.0148 554.1685 554.6461 555.2769 555.7824 555.6542 554.7599 554.0519 553.2558 552.4305 551.6564 550.9475 550.3604 549.8469 549.1091 548.4187 547.9641 547.542 547.1601 546.88 546.7513 546.7548 546.8801 547.1265 547.449 547.7944 548.1165 548.4022 548.705 548.8754 548.8104 548.4372 547.8414 547.0034 546.6763 546.62 546.8633 547.372 548.3336 549.5007 550.2631 550.8172 551.1847 551.448 551.8735 552.8897 554.895 558.1109 561.0475 564.5739 568.7457 572.8856 576.6046 579.9411 -9999 -9999 -9999 -9999 -9999 -9999 -9999 -9999 -9999 -9999 -9999 -9999 -9999 -9999 -9999 -9999 -9999 -9999 -9999 -9999
-9999 -9999 -9999 -9999 -9999 -9999 -9999 -9999 -9999 -9999 -9999 -9999 -9999 -9999 -9999 -9999 -9999 -9999 -9999 -9999 -9999 -9999 -9999 -9999 -9999 -9999 -9999 -9999 -9999 -9999 -9999 -9999 -9999 -9999 -9999 571.3655 570.2037 568.5365 566.4797 564.2909 -9999 560.6287 559.5944 558.7424 558.0097 557.6534 557.994 558.8433 559.8583 560.4346 560.6207 560.5547 560.3126 560.0037 560.1049 560.6576 561.2527 561.5326 561.5062 561.0034 560.1171 -9999 -9999 -9999 -9999 -9999 -9999 557.1172 556.1736 555.4417 554.8522 554.3826 553.5591 552.9929 552.5804 552.2545 552.0507 551.8832 551.712 551.6056 551.4553 551.4426 551.2964 551.2152 551.1671 551.1412 551.1232 551.1021 551.0726 551.036 550.9967 550.9653 550.9739 551.0928 551.3928 551.567 552.0161 552.1938 552.264 552.3814 552.4231 552.3795 552.2858 552.2407 552.4099 552.9378 553.7131 554.8589 555.9951 556.9298 557.836 558.6846 559.421 560.0621 560.6898 561.1493 561.2626 561.2454 561.0894 560.8424 560.395 559.4858 558.424 557.3325 556.3126 555.2761 554.3039 553.7415 553.1478 552.8 552.6169 552.3484 551.856 551.4381 550.9017 550.5153 550.2355 549.9238 549.6147 549.3464 549.1368 548.9851 548.8794 548.8025 548.7349 548.6573 548.5516 548.3988 548.1823 547.9292 547.6895 547.4954 547.4343 547.4426 547.4806 547.5342 547.603 547.7595 547.9996 548.3735 548.7949 549.2736 549.9567 551.171 552.6576 554.1277 554.6243 554.8389 555.1014 555.2864 555.3901 555.5131 555.8101 555.8085 555.4714 555.2845 555.2246 555.1751 555.0262 554.7134 554.6804 554.9751 555.8538 556.7927 557.4952 557.3511 556.2598 554.9626 553.6179 552.7513 551.9662 551.2283 550.5594 549.9175 549.1663 548.4643 548.0881 547.6441 547.2076 546.8799 546.7544 546.762 546.8801 547.1049 547.4065 547.7469 548.0886 548.4064 548.7229 548.9031 548.9087 548.7075 548.2826 547.4112 546.8763 546.6225 546.6673 546.98 547.8034 548.7961 549.8707 550.5792 551.085 551.4484 551.7552 552.4388 553.8553 556.3005 559.0094 562.3638 566.7198 571.5568 576.3579 580.955 585.4545 -9999 -9999 -9999 -9999 -9999 -9999 -9999 -9999 -9999 -9999 -9999 -9999 -9999 -9999 -9999 -9999 -9999 -9999 -9999
-9999 -9999 -9999 -9999 -9999 -9999 -9999 -9999 -9999 -9999 -9999 -9999 -9999 -9999 -9999 -9999 -9999 -9999 -9999 -9999 -9999 -9999 -9999 -9999 -9999 -9999 -9999 -9999 -9999 -9999 -9999 -9999 -9999 -9999 -9999 -9999 -9999 -9999 -9999 -9999 -9999 -9999 -9999 559.8232 558.7886 558.1519 558.4081 559.1131 559.9456 560.4107 560.5447 560.5687 560.6219 560.7448 561.1627 561.8536 562.3663 562.6008 562.4586 -9999 -9999 -9999 -9999 -9999 -9999 -9999 -9999 557.2938 556.6269 555.9827 555.3436 554.6963 553.9871 553.4166 552.967 552.6084 552.4348 552.2103 551.9859 551.8146 551.6616 551.5738 551.452 551.4485 551.4482 551.448 551.4478 551.4473 551.4462 551.4449 551.444 551.4415 551.4515 551.55 551.9419 552.2959 552.8046 552.9351 552.9443 552.9558 552.9557 552.9351 552.9006 552.9504 553.3745 554.4442 555.8816 557.5483 559.1346 560.5126 561.7272 562.8478 563.8064 564.5435 565.0151 565.0957 564.8693 564.5261 564.066 563.7097 563.2676 562.4554 561.365 560.2275 558.9998 557.5773 556.1191 554.8853 554.2656 554.0346 553.92 553.6927 553.296 552.699 551.8851 551.3729 550.7993 550.2985 549.915 549.5901 549.3323 549.1384 548.9961 548.8878 548.8008 548.7262 548.6469 548.5402 548.3982 548.2209 548.0995 548.0061 547.9221 547.9135 547.9695 548.0699 548.166 548.3616 548.4114 548.6856 549.0702 549.5674 550.2399 551.4688 552.9105 554.1938 554.6016 554.9639 555.3884 555.7639 555.9794 556.1588 556.6529 556.756 556.2992 556.0626 555.998 555.9863 555.9713 555.9597 556.0979 556.3722 557.0721 557.8968 558.4231 558.313 557.451 555.9116 554.3929 553.2418 552.2814 551.4257 550.6527 549.9366 549.2715 548.717 548.3539 547.7997 547.28 546.8879 546.7853 546.7855 546.8804 547.0717 547.3438 547.6725 548.0302 548.3916 548.6634 548.796 548.825 548.7042 548.2815 547.431 546.8668 546.5422 546.5248 546.8412 547.4656 548.5084 549.6633 550.351 550.9415 551.4216 551.6323 552.0571 553.0177 554.7607 557.1617 560.3815 564.981 570.5223 576.3812 582.1693 587.8062 -9999 -9999 -9999 -9999 -9999 -9999 -9999 -9999 -9999 -9999 -9999 -9999 -9999 -9999 -9999 -9999 -9999 -9999 -9999
-9999 -9999 -9999 -9999 -9999 -9999 -9999 -9999 -9999 -9999 -9999 -9999 -9999 -9999 -9999 -9999 -9999 -9999 -9999 -9999 -9999 -9999 -9999 -9999 -9999 -9999 -9999 -9999 -9999 -9999 -9999 -9999 -9999 -9999 -9999 -9999 -9999 -9999 -9999 -9999 -9999 -9999 -9999 -9999 -9999 -9999 -9999 -9999 -9999 -9999 -9999 -9999 -9999 -9999 -9999 -9999 -9999 -9999 -9999 -9999 -9999 -9999 -9999 -9999 -9999 -9999 -9999 557.5677 557.1926 556.6652 556.1019 555.5978 554.7588 554.1202 553.5392 553.0592 552.9189 552.5912 552.2903 552.0756 551.8868 551.74 551.6113 551.5668 551.5676 551.601 551.6545 551.7199 551.7964 551.8969 552.0215 552.1469 552.2894 552.4884 552.8484 553.0828 553.3844 553.4808 553.4791 553.49 553.5059 553.5356 553.6963 554.1859 555.2172 556.8846 558.9626 561.1901 563.1562 564.682 565.9189 567.0252 567.9976 568.6692 568.9358 568.6736 567.9908 567.2719 566.512 566.121 565.8245 565.3052 564.4614 563.5151 562.2692 560.6285 558.7505 556.9991 555.7863 555.0081 554.9482 554.9655 554.6404 554.1548 553.3705 552.6663 551.7008 550.8817 550.295 549.9097 549.5964 549.3508 549.1561 548.993 548.8634 548.7717 548.6991 548.6138 548.5068 548.4015 548.3989 548.3909 548.2603 548.2311 548.2786 548.3945 548.4026 548.5243 548.6136 548.8536 549.2678 549.8894 550.7033 551.6263 552.7952 553.9132 554.1112 554.6992 555.3513 555.9489 556.27 556.7986 557.4995 557.8072 557.3724 556.991 556.8168 556.8218 556.9882 557.3554 557.8303 557.9744 558.1264 558.5078 558.7874 558.6441 557.8655 556.3495 554.8474 553.6136 552.5206 551.5502 550.6927 549.9416 549.3308 548.8251 548.3965 547.8669 547.3722 547.0154 546.8793 546.8212 546.8796 547.0084 547.2303 547.5133 547.8177 548.1154 548.3545 548.397 548.4003 548.288 547.704 546.9706 546.552 546.3149 546.2964 546.5514 547.1051 548.2807 549.2922 549.9996 550.6436 551.1624 551.4563 551.7734 552.406 553.6372 555.7912 558.9286 563.4322 569.3305 575.941 582.6957 589.2919 595.514 -9999 -9999 -9999 -9999 -9999 -9999 -9999 -9999 -9999 -9999 -9999 -9999 -9999 -9999 -9999 -9999 -9999 -9999
-9999 -9999 -9999 -9999 -9999 -9999 -9999 -9999 -9999 -9999 -9999 -9999 -9999 -9999 -9999 -9999 -9999 -9999 -9999 -9999 -9999 -9999 -9999 -9999 -9999 -9999 -9999 -9999 -9999 -9999 -9999 -9999 -9999 -9999 -9999 -9999 -9999 -9999 -9999 -9999 -9999 -9999 -9999 -9999 -9999 -9999 -9999 -9999 -9999 -9999 -9999 -9999 -9999 -9999 -9999 -9999 -9999 -9999 -9999 -9999 -9999 -9999 -9999 -9999 -9999 -9999 -9999 558.0164 557.9109 557.4904 557.0336 556.4993 555.8314 555.1304 554.4079 553.7607 553.3394 552.963 552.6307 552.4259 552.1818 551.9796 551.7979 551.6974 551.6909 551.7748 551.9237 552.1042 552.3094 552.5799 552.923 553.2541 553.5891 553.8773 554.233 554.4136 554.528 554.5562 554.5589 554.6434 554.754 554.9064 555.3374 556.3505 558.1376 560.4548 562.8872 565.2508 567.2155 568.5526 569.4979 570.2559 571.0112 571.4177 571.4315 571.0729 570.0306 569.0754 -9999 -9999 -9999 567.6613 567.2859 566.7173 565.6865 564.1198 562.127 560.0174 558.2396 557.0171 556.537 556.3717 556.2038 555.9399 555.374 554.5278 553.1985 551.86 550.8873 550.2755 549.9109 549.616 549.3652 549.1241 548.9296 548.8052 548.7278 548.6556 548.5788 548.5266 548.533 548.5135 548.403 548.3995 548.4013 548.4778 548.499 548.5614 548.6594 548.8914 549.3282 550.038 551.1377 551.8336 552.4899 553.0848 553.6239 554.4114 555.1091 555.6782 556.1277 556.9971 557.9304 558.2229 557.9746 557.6331 557.4602 557.5152 557.8297 558.5554 559.3656 559.2938 558.8877 558.6548 558.6138 558.3934 557.691 556.4385 555.1393 553.809 552.6106 551.5721 550.6838 549.9387 549.3607 548.8604 548.3937 547.8873 547.4272 547.0789 546.8802 546.7809 546.7882 546.8803 547.0602 547.2795 547.4727 547.6063 547.6433 547.6504 547.6334 547.481 546.9774 546.5343 546.2426 546.0969 546.126 546.39 546.9819 548.1127 548.9797 549.8022 550.3868 550.9824 551.4402 551.6738 552.1142 553.0707 554.8278 557.6284 561.786 567.7155 574.7035 582.0652 589.3223 596.1296 -9999 -9999 -9999 -9999 -9999 -9999 -9999 -9999 -9999 -9999 -9999 -9999 -9999 -9999 -9999 -9999 -9999 -9999
-9999 -9999 -9999 -9999 -9999 -9999 -9999 -9999 -9999 -9999 -9999 -9999 -9999 -9999 -9999 -9999 -9999 -9999 -9999 -9999 -9999 -9999 -9999 -9999 -9999 -9999 -9999 -9999 -9999 -9999 -9999 -9999 -9999 -9999 -9999 -9999 -9999 -9999 -9999 -9999 -9999 -9999 -9999 -9999 -9999 -9999 -9999 -9999 -9999 -9999 -9999 -9999 -9999 -9999 -9999 -9999 -9999 -9999 -9999 -9999 -9999 -9999 -9999 -9999 -9999 -9999 -9999 558.6686 558.6597 558.403 558.1028 557.5135 556.9359 556.3011 555.5648 554.6901 553.9503 553.4398 553.1173 552.9706 552.5975 552.3447 552.0804 551.9249 551.9264 552.0991 552.4036 552.7651 553.1475 553.658 554.3332 554.9442 555.5255 556.0051 556.4168 556.6408 556.7302 556.7748 556.8772 557.0425 557.3234 557.6903 558.3929 559.7876 561.9815 564.4437 566.6501 568.7291 570.3517 571.287 571.7742 572.0591 -9999 -9999 -9999 -9999 -9999 -9999 -9999 -9999 -9999 -9999 -9999 569.525 568.9309 567.7319 565.9044 563.7225 561.6519 560.0723 559.2025 558.7526 558.5554 558.4178 558.0486 557.1665 555.4346 553.5139 551.8849 550.8412 550.2494 549.9143 549.6172 549.2744 548.9979 548.8314 548.7427 548.6776 548.6221 548.5993 548.6182 548.6256 548.5823 548.5592 548.5366 548.5411 548.5328 548.5541 548.6409 548.8661 549.3078 550.0529 551.2657 552.1249 552.9556 553.8589 554.1582 554.5668 555.0127 555.4609 555.985 556.8109 557.8134 558.1794 558.0046 -9999 557.8336 557.9852 558.3795 559.5181 560.0618 559.8989 558.9463 558.1488 557.8217 557.4504 556.6007 555.7576 554.8076 553.5676 552.4242 551.441 550.6129 549.9324 549.4119 548.9043 548.3903 547.911 547.4802 547.1244 546.8779 546.7247 546.6827 546.7401 546.8804 547.0474 547.1277 547.1157 546.9335 546.9028 546.9048 546.8551 546.536 546.235 546.0369 545.9683 546.0555 546.3394 546.8895 547.7518 548.5301 549.3734 550.0345 550.7926 551.4055 551.6129 551.9697 552.761 554.1046 556.5209 560.2852 565.881 572.8161 580.4042 588.0483 595.2978 -9999 -9999 -9999 -9999 -9999 -9999 -9999 -9999 -9999 -9999 -9999 -9999 -9999 -9999 -9999 -9999 -9999 -9999
-9999 -9999 -9999 -9999 -9999 -9999 -9999 -9999 -9999 -9999 -9999 -9999 -9999 -9999 -9999 -9999 -9999 -9999 -9999 -9999 -9999 -9999 -9999 -9999 -9999 -9999 -9999 -9999 -9999 -9999 -9999 -9999 -9999 -9999 -9999 -9999 -9999 -9999 -9999 -9999 -9999 -9999 -9999 -9999 -9999 -9999 -9999 -9999 -9999 -9999 -9999 -9999 -9999 -9999 -9999 -9999 -9999 -9999 -9999 -9999 -9999 -9999 -9999 -9999 -9999 -9999 -9999 -9999 559.5454 559.6917 559.446 558.6788 558.2961 557.9604 557.3204 556.1227 554.9193 554.25 554.0953 553.8192 553.1403 552.8853 552.5248 552.3298 552.3568 552.6643 553.2051 553.839 554.4641 555.288 556.4205 557.5051 558.4514 559.2494 559.9275 560.3246 560.4658 560.5078 560.5683 560.7137 561.0325 561.5143 562.3355 563.8155 565.8745 567.8555 569.1262 570.6597 571.7655 572.2611 -9999 -9999 -9999 -9999 -9999 -9999 -9999 -9999 -9999 -9999 -9999 -9999 -9999 -9999 -9999 570.9905 569.5691 567.5862 565.4787 563.7518 562.6631 562.0554 561.782 561.6777 561.362 560.3646 558.3542 555.8456 553.4757 551.7619 550.7548 550.2072 549.8788 549.4161 549.0639 548.8572 548.7529 548.6896 548.6514 548.651 548.6862 548.7203 548.7175 548.6892 548.6433 548.5996 548.5579 548.5497 548.6295 548.8657 549.3212 550.068 551.313 552.3439 553.2869 554.3284 554.6138 554.7765 554.96 555.207 -9999 -9999 -9999 -9999 -9999 -9999 -9999 -9999 -9999 -9999 560.0051 559.5845 558.3176 557.2258 556.4543 555.814 554.799 554.3821 553.684 552.8086 551.9408 551.1639 550.501 549.9526 549.565 549.0599 548.4617 548.031 547.6146 547.2229 546.8889 546.71 546.6161 546.6254 546.7352 546.877 546.8823 546.8691 546.6542 546.5393 546.4922 546.4297 546.2485 546.062 545.9514 545.9514 546.0928 546.3845 546.8715 547.6027 548.394 549.2034 549.9352 550.6317 551.1776 551.4583 551.7864 552.3696 553.4473 555.5864 558.9792 563.9705 570.5326 578.0441 585.837 593.3911 -9999 -9999 -9999 -9999 -9999 -9999 -9999 -9999 -9999 -9999 -9999 -9999 -9999 -9999 -9999 -9999 -9999 -9999
-9999 -9999 -9999 -9999 -9999 -9999 -9999 -9999 -9999 -9999 -9999 -9999 -9999 -9999 -9999 -9999 -9999 -9999 -9999 -9999 -9999 -9999 -9999 -9999 -9999 -9999 -9999 -9999 -9999 -9999 -9999 -9999 -9999 -9999 -9999 -9999 -9999 -9999 -9999 -9999 -9999 -9999 -9999 -9999 -9999 -9999 -9999 -9999 -9999 -9999 -9999 -9999 -9999 -9999 -9999 -9999 -9999 -9999 -9999 -9999 -9999 -9999 -9999 -9999 -9999 -9999 -9999 -9999 -9999 560.2448 560.2195 559.956 559.8488 559.7019 559.1512 557.8536 556.3141 555.2334 555.1273 554.4556 553.8549 553.5451 553.2228 553.0397 553.0682 553.526 554.3719 555.3562 556.4569 557.7759 559.3105 560.749 561.9164 562.8942 563.8807 564.549 564.788 564.8387 564.8333 564.873 565.0929 565.5417 566.2407 567.4281 568.9638 570.0748 569.7027 570.8356 571.8551 -9999 -9999 -9999 -9999 -9999 -9999 -9999 -9999 -9999 -9999 -9999 -9999 -9999 -9999 -9999 -9999 -9999 -9999 -9999 -9999 -9999 566.3873 565.8018 565.5644 565.4988 565.1775 563.9478 561.5828 558.5802 555.568 553.1725 551.5607 550.5963 549.9705 549.5209 549.1523 548.9124 548.7819 548.709 548.6827 548.6998 548.741 548.7778 548.7852 548.7572 548.7048 548.6454 548.5895 548.5679 548.6608 548.9538 549.5004 550.3028 551.533 552.6928 553.763 554.5851 554.8618 554.8903 554.8773 554.9445 -9999 -9999 -9999 -9999 -9999 -9999 -9999 -9999 -9999 -9999 559.7457 558.7181 557.556 556.3593 555.501 554.5621 553.0342 552.6736 552.3427 551.8729 551.3423 550.8411 550.4261 550.1215 549.9031 549.4637 548.9044 548.4011 547.9377 547.5183 547.1711 546.8813 546.6661 546.5743 546.6201 546.6991 546.6814 546.6202 546.4714 546.3609 546.2972 546.2356 546.1341 546.0302 545.9877 546.0554 546.243 546.5399 546.9204 547.5995 548.3827 549.1724 549.9193 550.5187 551.0498 551.4459 551.7103 552.1575 553.0656 554.8015 557.6737 562.0032 568.0845 575.3408 583.114 590.8435 -9999 -9999 -9999 -9999 -9999 -9999 -9999 -9999 -9999 -9999 -9999 -9999 -9999 -9999 -9999 -9999 -9999 -9999
-9999 -9999 -9999 -9999 -9999 -9999 -9999 -9999 -9999 -9999 -9999 -9999 -9999 -9999 -9999 -9999 -9999 -9999 -9999 -9999 -9999 -9999 -9999 -9999 -9999 -9999 -9999 -9999 -9999 -9999 -9999 -9999 -9999 -9999 -9999 -9999 -9999 -9999 -9999 -9999 -9999 -9999 -9999 -9999 -9999 -9999 -9999 -9999 -9999 -9999 -9999 -9999 -9999 -9999 -9999 -9999 -9999 -9999 -9999 -9999 -9999 -9999 -9999 -9999 -9999 -9999 -9999 -9999 -9999 -9999 -9999 560.77 560.8817 560.917 560.6077 559.6033 558.0276 556.5754 555.7169 555.1959 554.9197 554.7946 554.6644 554.3423 554.1852 554.7281 555.8884 557.3262 558.9609 560.7233 562.5114 564.0523 565.1267 565.9055 567.1324 568.1693 568.5842 568.7045 568.6552 568.5314 568.5466 568.7768 569.1303 569.7532 570.7158 571.6696 571.6561 -9999 -9999 -9999 -9999 -9999 -9999 -9999 -9999 -9999 -9999 -9999 -9999 -9999 -9999 -9999 -9999 -9999 -9999 -9999 -9999 -9999 -9999 -9999 -9999 -9999 569.4458 569.445 569.1445 567.7875 565.194 561.7998 558.2067 555.0773 552.8434 551.4082 550.4867 549.8928 549.4087 549.0712 548.8715 548.7618 548.7317 548.754 548.7824 548.7946 548.7888 548.7639 548.7237 548.6792 548.6305 548.6004 548.7156 549.1073 549.8767 551.0093 552.1582 553.2243 554.3194 554.9037 555.0499 554.9376 554.7601 554.6806 -9999 -9999 -9999 -9999 -9999 -9999 -9999 -9999 -9999 -9999 558.9766 558.1653 557.1619 556.0463 555.0583 553.959 552.2448 551.6779 551.4214 551.1531 550.8473 550.565 550.3588 550.2411 550.1476 549.9011 549.4218 548.8923 548.3932 547.9609 547.6497 547.2604 546.8936 546.6554 546.6376 546.6705 546.5947 546.51 546.4126 546.3375 546.288 546.2449 546.1909 546.1471 546.1496 546.262 546.5273 546.8616 547.2012 547.7225 548.3956 549.1273 549.853 550.3395 550.9012 551.4162 551.6419 552.0142 552.7853 554.0831 556.4263 560.1271 565.6909 572.5719 580.1921 588.0187 595.5965 -9999 -9999 -9999 -9999 -9999 -9999 -9999 -9999 -9999 -9999 -9999 -9999 -9999 -9999 -9999 -9999 -9999
-9999 -9999 -9999 -9999 -9999 -9999 -9999 -9999 -9999 -9999 -9999 -9999 -9999 -9999 -9999 -9999 -9999 -9999 -9999 -9999 -9999 -9999 -9999 -9999 -9999 -9999 -9999 -9999 -9999 -9999 -9999 -9999 -9999 -9999 -9999 -9999 -9999 -9999 -9999 -9999 -9999 -9999 -9999 -9999 -9999 -9999 -9999 -9999 -9999 -9999 -9999 -9999 -9999 -9999 -9999 -9999 -9999 -9999 -9999 -9999 -9999 -9999 -9999 -9999 -9999 -9999 -9999 -9999 -9999 -9999 -9999 -9999 561.4679 561.7112 561.818 561.2837 560.0265 558.7224 557.8445 557.3722 557.0776 556.8156 556.4302 556.0005 555.8536 556.378 557.7186 559.5052 561.5227 563.5209 565.389 566.8961 567.8794 568.6222 569.2708 -9999 -9999 -9999 -9999 -9999 -9999 -9999 -9999 -9999 -9999 -9999 -9999 -9999 -9999 -9999 -9999 -9999 -9999 -9999 -9999 -9999 -9999 -9999 -9999 -9999 -9999 -9999 -9999 -9999 -9999 -9999 -9999 -9999 -9999 -9999 -9999 -9999 -9999 573.037 572.7908 571.5323 568.9597 565.41 561.4512 557.697 554.7056 552.7233 551.4232 550.5635 549.9042 549.394 549.066 548.8779 548.8148 548.8187 548.8129 548.7823 548.7565 548.744 548.7316 548.7166 548.6826 548.6278 548.7384 549.1649 550.0233 551.4058 552.8287 553.8778 554.7656 555.1918 555.2012 554.9491 554.6207 554.3976 -9999 -9999 -9999 -9999 -9999 -9999 -9999 -9999 -9999 -9999 558.4607 558.0024 557.0762 555.9941 554.9186 553.9265 552.4639 551.5444 551.1435 550.8514 550.6012 550.4263 550.3528 550.3688 550.3805 550.2482 549.9067 549.402 548.8944 548.4802 548.2911 547.8397 547.4188 546.9687 546.8877 546.8677 546.6736 546.5807 546.5295 546.4955 546.4732 546.4532 546.4323 546.4148 546.434 546.5497 546.8664 547.2002 547.491 547.8741 548.3902 548.9798 549.5528 549.9982 550.6206 551.1506 551.4615 551.7933 552.3665 553.3798 555.3383 558.5151 563.5136 569.9368 577.3063 585.1234 592.929 -9999 -9999 -9999 -9999 -9999 -9999 -9999 -9999 -9999 -9999 -9999 -9999 -9999 -9999 -9999 -9999 -9999
-9999 -9999 -9999 -9999 -9999 -9999 -9999 -9999 -9999 -9999 -9999 -9999 -9999 -9999 -9999 -9999 -9999 -9999 -9999 -9999 -9999 -9999 -9999 -9999 -9999 -9999 -9999 -9999 -9999 -9999 -9999 -9999 -9999 -9999 -9999 -9999 -9999 -9999 -9999 -9999 -9999 -9999 -9999 -9999 -9999 -9999 -9999 -9999 -9999 -9999 -9999 -9999 -9999 -9999 -9999 -9999 -9999 -9999 -9999 -9999 -9999 -9999 -9999 -9999 -9999 -9999 -9999 -9999 -9999 -9999 -9999 -9999 -9999 562.0068 562.438 562.5515 562.0656 561.3553 560.7833 560.3309 559.8065 559.1936 558.3832 557.8317 557.6267 558.2284 559.7082 561.7268 563.8292 565.7927 567.5513 568.9133 -9999 -9999 -9999 -9999 -9999 -9999 -9999 -9999 -9999 -9999 -9999 -9999 -9999 -9999 -9999 -9999 -9999 -9999 -9999 -9999 -9999 -9999 -9999 -9999 -9999 -9999 -9999 -9999 -9999 -9999 -9999 -9999 -9999 -9999 -9999 -9999 -9999 -9999 -9999 -9999 -9999 -9999 575.6865 574.7414 572.4904 569.0659 565.0242 560.907 557.2975 554.6709 552.8945 551.72 550.7268 549.9389 549.4096 549.0905 548.9514 548.9037 548.8402 548.7634 548.7331 548.7538 548.7744 548.7765 548.7111 548.6572 548.7751 549.2289 550.1583 551.7725 553.5613 554.5745 555.2416 555.4778 555.3418 554.9634 554.5007 -9999 -9999 -9999 -9999 -9999 -9999 -9999 -9999 -9999 -9999 -9999 558.0374 557.9492 557.0027 555.9064 554.6638 553.803 552.8999 552.0704 551.4554 550.9869 550.654 550.491 550.4844 550.6021 550.7097 550.6483 550.3624 549.9188 549.4581 549.1492 548.859 548.485 548.2349 547.7413 547.483 547.2184 546.9238 546.8798 546.8798 546.8819 546.8818 546.8807 546.8782 546.8736 546.8709 546.9276 547.2721 547.6451 547.8646 548.0684 548.4166 548.9179 549.4288 549.9242 550.4745 550.9982 551.4231 551.6497 552.113 552.993 554.5499 557.235 561.6301 567.5729 574.6384 582.3533 590.2716 -9999 -9999 -9999 -9999 -9999 -9999 -9999 -9999 -9999 -9999 -9999 -9999 -9999 -9999 -9999 -9999 -9999
-9999 -9999 -9999 -9999 -9999 -9999 -9999 -9999 -9999 -9999 -9999 -9999 -9999 -9999 -9999 -9999 -9999 -9999 -9999 -9999 -9999 -9999 -9999 -9999 -9999 -9999 -9999 -9999 -9999 -9999 -9999 -9999 -9999 -9999 -9999 -9999 -9999 -9999 -9999 -9999 -9999 -9999 -9999 -9999 -9999 -9999 -9999 -9999 -9999 -9999 -9999 -9999 -9999 -9999 -9999 -9999 -9999 -9999 -9999 -9999 -9999 -9999 -9999 -9999 -9999 -9999 -9999 -9999 -9999 -9999 -9999 -9999 -9999 -9999 562.8409 563.7059 564.0376 563.9879 563.7195 563.259 562.485 561.502 560.3836 559.6741 559.3441 560.0361 561.7083 563.7395 565.727 -9999 -9999 -9999 -9999 -9999 -9999 -9999 -9999 -9999 -9999 -9999 -9999 -9999 -9999 -9999 -9999 -9999 -9999 -9999 -9999 -9999 -9999 -9999 -9999 -9999 -9999 -9999 -9999 -9999 -9999 -9999 -9999 -9999 -9999 -9999 -9999 -9999 -9999 -9999 -9999 -9999 -9999 -9999 -9999 -9999 -9999 576.9017 575.2747 572.3235 568.6487 564.5595 560.5671 557.2819 554.9938 553.5894 551.9999 550.7634 549.9391 549.4338 549.1654 549.0261 548.8847 548.7664 548.7609 548.8527 548.8977 548.8943 548.8232 548.7716 548.9238 549.4635 550.5197 552.238 553.9572 555.0346 555.6273 555.7129 555.4666 555.0168 554.4751 -9999 -9999 -9999 -9999 -9999 -9999 -9999 -9999 -9999 -9999 -9999 557.4117 557.6515 556.6697 555.6725 554.3362 553.7938 553.5321 552.8748 552.1298 551.4694 551.0012 550.8114 550.823 551.0349 551.2422 551.2142 550.9077 550.4489 550.0071 549.8335 549.4856 549.2332 548.9987 548.5273 548.2766 547.8776 547.6095 547.5234 547.5214 547.5477 547.5583 547.5583 547.5551 547.5479 547.5486 547.6182 547.8945 548.2983 548.3963 548.4415 548.7002 549.0587 549.4609 549.9166 550.3777 550.8307 551.2062 551.4657 551.9324 552.7382 553.9487 556.2523 560.0417 565.535 572.2817 579.8254 587.7388 -9999 -9999 -9999 -9999 -9999 -9999 -9999 -9999 -9999 -9999 -9999 -9999 -9999 -9999 -9999 -9999 -9999
-9999 -9999 -9999 -9999 -9999 -9999 -9999 -9999 -9999 -9999 -9999 -9999 -9999 -9999 -9999 -9999 -9999 -9999 -9999 -9999 -9999 -9999 -9999 -9999 -9999 -9999 -9999 -9999 -9999 -9999 -9999 -9999 -9999 -9999 -9999 -9999 -9999 -9999 -9999 -9999 -9999 -9999 -9999 -9999 -9999 -9999 -9999 -9999 -9999 -9999 -9999 -9999 -9999 -9999 -9999 -9999 -9999 -9999 -9999 -9999 -9999 -9999 -9999 -9999 -9999 -9999 -9999 -9999 -9999 -9999 -9999 -9999 -9999 -9999 -9999 564.4838 565.7021 566.248 566.2444 565.7676 564.7814 563.5652 562.275 561.4348 561.053 561.8818 563.4301 565.2762 -9999 -9999 -9999 -9999 -9999 -9999 -9999 -9999 -9999 -9999 -9999 -9999 -9999 -9999 -9999 -9999 -9999 -9999 -9999 -9999 -9999 -9999 -9999 -9999 -9999 -9999 -9999 -9999 -9999 -9999 -9999 -9999 -9999 -9999 -9999 -9999 -9999 -9999 -9999 -9999 -9999 -9999 -9999 -9999 -9999 -9999 -9999 -9999 576.9906 574.6632 571.9473 568.3667 564.2996 560.5416 557.7448 556.0206 553.632 551.7814 550.6382 549.925 549.4834 549.2141 548.9779 548.8193 548.8546 549.0623 549.1256 549.1483 549.08 549.017 549.2292 549.9548 551.3603 553.1713 554.4305 555.4615 555.9802 555.8882 555.5792 555.1475 -9999 -9999 -9999 -9999 -9999 -9999 -9999 -9999 -9999 -9999 -9999 555.9313 556.2855 556.6867 556.243 555.2556 553.6456 553.7518 554.2993 553.7758 552.9882 552.2557 551.6813 551.4864 551.4409 551.7457 552.0714 552.0179 551.5916 551.0615 550.6415 550.3477 550.0035 549.9174 549.8055 549.3625 549.0536 548.6677 548.5045 548.3955 548.3958 548.4801 548.5128 548.5157 548.5137 548.5095 548.502 548.5185 548.6401 548.9634 549.0809 549.1177 549.2326 549.4011 549.6168 549.9379 550.3408 550.7441 551.1134 551.4426 551.7788 552.3521 553.3499 555.3899 558.7305 563.7807 570.1832 577.5085 585.3276 -9999 -9999 -9999 -9999 -9999 -9999 -9999 -9999 -9999 -9999 -9999 -9999 -9999 -9999 -9999 -9999 -9999
-9999 -9999 -9999 -9999 -9999 -9999 -9999 -9999 -9999 -9999 -9999 -9999 -9999 -9999 -9999 -9999 -9999 -9999 -9999 -9999 -9999 -9999 -9999 -9999 -9999 -9999 -9999 -9999 -9999 -9999 -9999 -9999 -9999 -9999 -9999 -9999 -9999 -9999 -9999 -9999 -9999 -9999 -9999 -9999 -9999 -9999 -9999 -9999 -9999 -9999 -9999 -9999 -9999 -9999 -9999 -9999 -9999 -9999 -9999 -9999 -9999 -9999 -9999 -9999 -9999 -9999 -9999 -9999 -9999 -9999 -9999 -9999 -9999 -9999 -9999 -9999 -9999 -9999 -9999 -9999 -9999 -9999 -9999 -9999 -9999 -9999 -9999 -9999 -9999 -9999 -9999 -9999 -9999 -9999 -9999 -9999 -9999 -9999 -9999 -9999 -9999 -9999 -9999 -9999 -9999 -9999 -9999 -9999 -9999 -9999 -9999 -9999 -9999 -9999 -9999 -9999 -9999 -9999 -9999 -9999 -9999 -9999 -9999 -9999 -9999 -9999 -9999 -9999 -9999 -9999 -9999 -9999 -9999 -9999 -9999 -9999 -9999 575.8642 574.8364 572.1787 568.2721 564.0966 560.4703 557.4936 554.8422 552.7887 551.4344 550.5535 549.9327 549.5052 549.1656 548.9494 548.9668 549.2244 549.3708 549.5088 549.4773 549.3738 549.6421 550.5168 552.1293 553.8636 555.1353 556.0233 556.3062 556.0028 555.6998 -9999 -9999 -9999 -9999 -9999 -9999 -9999 -9999 -9999 -9999 -9999 -9999 -9999 555.426 555.9911 555.9308 555.1011 554.0662 554.0672 554.573 554.452 553.8501 553.3051 552.9297 552.7391 552.4485 552.7946 553.2436 553.0449 552.3315 551.644 551.2734 550.9521 550.629 550.4377 550.236 549.9534 549.8762 549.7761 549.6545 549.3682 549.3743 549.661 549.7683 549.7891 549.794 549.7984 549.7971 549.7944 549.8221 549.9058 549.9283 549.9246 549.9317 549.938 549.9575 550.1669 550.4461 550.7594 551.0966 551.4426 551.7137 552.1689 553.0391 554.7679 557.6526 562.2619 568.3251 575.4046 583.0598 590.7925 -9999 -9999 -9999 -9999 -9999 -9999 -9999 -9999 -9999 -9999 -9999 -9999 -9999 -9999 -9999 -9999
-9999 -9999 -9999 -9999 -9999 -9999 -9999 -9999 -9999 -9999 -9999 -9999 -9999 -9999 -9999 -9999 -9999 -9999 -9999 -9999 -9999 -9999 -9999 -9999 -9999 -9999 -9999 -9999 -9999 -9999 -9999 -9999 -9999 -9999 -9999 -9999 -9999 -9999 -9999 -9999 -9999 -9999 -9999 -9999 -9999 -9999 -9999 -9999 -9999 -9999 -9999 -9999 -9999 -9999 -9999 -9999 -9999 -9999 -9999 -9999 -9999 -9999 -9999 -9999 -9999 -9999 -9999 -9999 -9999 -9999 -9999 -9999 -9999 -9999 -9999 -9999 -9999 -9999 -9999 -9999 -9999 -9999 -9999 -9999 -9999 -9999 -9999 -9999 -9999 -9999 -9999 -9999 -9999 -9999 -9999 -9999 -9999 -9999 -9999 -9999 -9999 -9999 -9999 -9999 -9999 -9999 -9999 -9999 -9999 -9999 -9999 -9999 -9999 -9999 -9999 -9999 -9999 -9999 -9999 -9999 -9999 -9999 -9999 -9999 -9999 -9999 -9999 -9999 -9999 -9999 -9999 -9999 -9999 -9999 -9999 -9999 -9999 -9999 578.0649 576.0191 572.3109 567.7977 563.3529 559.4267 556.1495 553.8108 552.3019 551.3323 550.567 549.9602 549.5193 549.2395 549.1215 549.2838 549.5526 549.896 549.9761 549.8157 550.257 551.4802 553.2043 554.5685 555.9022 556.8209 556.9014 556.2414 -9999 -9999 -9999 -9999 -9999 -9999 -9999 -9999 -9999 -9999 -9999 -9999 -9999 -9999 555.0092 555.5988 555.6693 555.226 554.7304 554.7742 555.1285 555.1439 554.6708 554.3834 554.3129 554.4354 554.199 554.1931 554.6382 554.1043 552.9413 552.0522 551.8896 551.5676 551.1696 550.8647 550.5791 550.3771 550.3365 550.3295 550.2733 550.1207 550.1965 550.5247 550.6789 550.7047 550.7106 550.7279 550.742 550.7438 550.7449 550.7567 550.7518 550.7393 550.7231 550.6738 550.5588 550.5782 550.6724 550.8455 551.105 551.4426 551.7467 552.201 552.9766 554.4383 556.8551 561.002 566.6786 573.4626 580.9016 588.5058 -9999 -9999 -9999 -9999 -9999 -9999 -9999 -9999 -9999 -9999 -9999 -9999 -9999 -9999 -9999 -9999
-9999 -9999 -9999 -9999 -9999 -9999 -9999 -9999 -9999 -9999 -9999 -9999 -9999 -9999 -9999 -9999 -9999 -9999 -9999 -9999 -9999 -9999 -9999 -9999 -9999 -9999 -9999 -9999 -9999 -9999 -9999 -9999 -9999 -9999 -9999 -9999 -9999 -9999 -9999 -9999 -9999 -9999 -9999 -9999 -9999 -9999 -9999 -9999 -9999 -9999 -9999 -9999 -9999 -9999 -9999 -9999 -9999 -9999 -9999 -9999 -9999 -9999 -9999 -9999 -9999 -9999 -9999 -9999 -9999 -9999 -9999 -9999 -9999 -9999 -9999 -9999 -9999 -9999 -9999 -9999 -9999 -9999 -9999 -9999 -9999 -9999 -9999 -9999 -9999 -9999 -9999 -9999 -9999 -9999 -9999 -9999 -9999 -9999 -9999 -9999 -9999 -9999 -9999 -9999 -9999 -9999 -9999 -9999 -9999 -9999 -9999 -9999 -9999 -9999 -9999 -9999 -9999 -9999 -9999 -9999 -9999 -9999 -9999 -9999 -9999 -9999 -9999 -9999 -9999 -9999 -9999 -9999 -9999 -9999 -9999 -9999 -9999 -9999 -9999 579.2515 575.9652 571.392 566.3718 561.6153 557.6735 554.9399 553.2568 552.2006 551.4198 550.6986 550.1396 549.8229 549.4803 549.4698 549.6677 550.0022 550.4253 550.2778 551.1299 552.3329 553.8672 555.2763 556.6204 557.7516 557.8404 557.0493 -9999 -9999 -9999 -9999 -9999 -9999 -9999 -9999 -9999 -9999 -9999 -9999 -9999 -9999 555.2996 555.6663 555.6938 555.4686 555.2639 555.3873 555.747 555.9174 555.5431 555.287 555.2832 555.4386 555.4858 555.6194 555.3656 554.5295 553.2653 552.2892 552.5179 551.9628 551.5579 551.1779 550.9257 550.8014 550.8156 550.9206 551.0723 551.3035 551.4948 551.6724 551.6906 551.5724 551.4785 551.4478 551.442 551.4417 551.4426 551.4452 551.4462 551.4465 551.4406 551.3864 551.1281 551.0272 550.9442 550.9674 551.1221 551.443 551.8822 552.4374 553.1398 554.4359 556.3224 560.0118 565.2783 571.7271 578.9337 586.4306 -9999 -9999 -9999 -9999 -9999 -9999 -9999 -9999 -9999 -9999 -9999 -9999 -9999 -9999 -9999 -9999
-9999 -9999 -9999 -9999 -9999 -9999 -9999 -9999 -9999 -9999 -9999 -9999 -9999 -9999 -9999 -9999 -9999 -9999 -9999 -9999 -9999 -9999 -9999 -9999 -9999 -9999 -9999 -9999 -9999 -9999 -9999 -9999 -9999 -9999 -9999 -9999 -9999 -9999 -9999 -9999 -9999 -9999 -9999 -9999 -9999 -9999 -9999 -9999 -9999 -9999 -9999 -9999 -9999 -9999 -9999 -9999 -9999 -9999 -9999 -9999 -9999 -9999 -9999 -9999 -9999 -9999 -9999 -9999 -9999 -9999 -9999 -9999 -9999 -9999 -9999 -9999 -9999 -9999 -9999 -9999 -9999 -9999 -9999 -9999 -9999 -9999 -9999 -9999 -9999 -9999 -9999 -9999 -9999 -9999 -9999 -9999 -9999 -9999 -9999 -9999 -9999 -9999 -9999 -9999 -9999 -9999 -9999 -9999 -9999 -9999 -9999 -9999 -9999 -9999 -9999 -9999 -9999 -9999 -9999 -9999 -9999 -9999 -9999 -9999 -9999 -9999 -9999 -9999 -9999 -9999 -9999 -9999 -9999 -9999 -9999 -9999 -9999 -9999 -9999 -9999 578.7225 574.4576 569.2682 563.9988 559.4542 556.2717 554.3497 553.2369 552.5327 551.7632 551.2064 550.6127 550.0928 549.9128 549.9114 549.9634 550.2803 551.0623 551.9158 552.9171 554.1224 555.6783 557.1762 558.1166 558.2175 557.67 -9999 -9999 -9999 -9999 -9999 -9999 -9999 -9999 -9999 -9999 -9999 -9999 -9999 -9999 -9999 555.9291 555.8334 555.653 555.5176 555.6382 555.9901 556.1119 556.0038 555.9046 555.9016 555.9741 555.9965 555.9768 555.6266 554.9188 554.0815 553.5696 553.0386 552.3236 552.0278 551.7524 551.6042 551.5575 551.6486 551.8658 552.1497 552.6479 553.0151 553.2107 553.118 552.6807 552.2778 552.0479 551.9305 551.8906 551.897 551.921 551.9412 551.9373 551.8812 551.7372 551.4766 551.4247 551.2118 551.1381 551.1992 551.5023 552.1338 552.8476 553.5449 554.7408 556.0475 559.2824 564.1678 570.309 577.2945 584.6874 -9999 -9999 -9999 -9999 -9999 -9999 -9999 -9999 -9999 -9999 -9999 -9999 -9999 -9999 -9999 -9999
-9999 -9999 -9999 -9999 -9999 -9999 -9999 -9999 -9999 -9999 -9999 -9999 -9999 -9999 -9999 -9999 -9999 -9999 -9999 -9999 -9999 -9999 -9999 -9999 -9999 -9999 -9999 -9999 -9999 -9999 -9999 -9999 -9999 -9999 -9999 -9999 -9999 -9999 -9999 -9999 -9999 -9999 -9999 -9999 -9999 -9999 -9999 -9999 -9999 -9999 -9999 -9999 -9999 -9999 -9999 -9999 -9999 -9999 -9999 -9999 -9999 -9999 -9999 -9999 -9999 -9999 -9999 -9999 -9999 -9999 -9999 -9999 -9999 -9999 -9999 -9999 -9999 -9999 -9999 -9999 -9999 -9999 -9999 -9999 -9999 -9999 -9999 -9999 -9999 -9999 -9999 -9999 -9999 -9999 -9999 -9999 -9999 -9999 -9999 -9999 -9999 -9999 -9999 -9999 -9999 -9999 -9999 -9999 -9999 -9999 -9999 -9999 -9999 -9999 -9999 -9999 -9999 -9999 -9999 -9999 -9999 -9999 -9999 -9999 -9999 -9999 -9999 -9999 -9999 -9999 -9999 -9999 -9999 -9999 -9999 -9999 -9999 -9999 -9999 -9999 -9999 576.5969 571.573 566.1568 561.2589 557.5892 555.4059 554.2798 553.7957 553.0716 552.3407 551.6342 551.1697 550.7411 550.5989 550.7245 551.2495 551.9797 552.7153 553.4321 554.2403 555.4791 556.6736 557.9246 558.0081 -9999 -9999 -9999 -9999 -9999 -9999 -9999 -9999 -9999 -9999 -9999 -9999 -9999 -9999 -9999 -9999 -9999 -9999 555.7059 555.4514 555.4308 555.7355 556.0106 556.2018 556.2281 556.1843 556.1351 556.0019 555.9344 555.6277 555.0824 554.4526 553.9987 553.7676 553.8069 553.6953 553.2841 553.0681 552.9886 553.2026 553.5886 553.8407 554.087 554.2855 554.394 554.2513 553.5206 552.887 552.5308 552.3051 552.2209 552.2303 552.2754 552.3146 552.3101 552.2227 552.0635 551.8533 551.6981 551.4728 551.4432 551.494 551.9039 552.4747 552.9878 553.5519 554.4404 555.7867 558.8259 563.3935 569.2582 576.0428 583.313 -9999 -9999 -9999 -9999 -9999 -9999 -9999 -9999 -9999 -9999 -9999 -9999 -9999 -9999 -9999 -9999
-9999 -9999 -9999 -9999 -9999 -9999 -9999 -9999 -9999 -9999 -9999 -9999 -9999 -9999 -9999 -9999 -9999 -9999 -9999 -9999 -9999 -9999 -9999 -9999 -9999 -9999 -9999 -9999 -9999 -9999 -9999 -9999 -9999 -9999 -9999 -9999 -9999 -9999 -9999 -9999 -9999 -9999 -9999 -9999 -9999 -9999 -9999 -9999 -9999 -9999 -9999 -9999 -9999 -9999 -9999 -9999 -9999 -9999 -9999 -9999 -9999 -9999 -9999 -9999 -9999 -9999 -9999 -9999 -9999 -9999 -9999 -9999 -9999 -9999 -9999 -9999 -9999 -9999 -9999 -9999 -9999 -9999 -9999 -9999 -9999 -9999 -9999 -9999 -9999 -9999 -9999 -9999 -9999 -9999 -9999 -9999 -9999 -9999 -9999 -9999 -9999 -9999 -9999 -9999 -9999 -9999 -9999 -9999 -9999 -9999 -9999 -9999 -9999 -9999 -9999 -9999 -9999 -9999 -9999 -9999 -9999 -9999 -9999 -9999 -9999 -9999 -9999 -9999 -9999 -9999 -9999 -9999 -9999 -9999 -9999 -9999 -9999 -9999 -9999 -9999 -9999 -9999 573.0574 567.9387 563.0121 558.9778 556.4146 555.0789 554.4517 554.1647 553.4662 552.761 552.2407 551.7907 551.6512 551.795 552.3654 553.0035 553.5524 554.0002 554.6291 555.5486 556.5356 557.8055 557.7332 -9999 -9999 -9999 -9999 -9999 -9999 -9999 -9999 -9999 -9999 -9999 -9999 -9999 -9999 -9999 -9999 -9999 -9999 -9999 -9999 554.9089 555.3322 555.9766 556.3072 556.3531 556.2358 556.1594 555.9991 555.8275 555.5413 555.1048 554.5668 554.0412 553.8815 553.9263 554.0189 554.3508 554.5062 554.4507 554.756 554.9321 555.0027 554.8932 554.4152 554.0659 554.0077 553.72 553.2949 553.0148 552.6781 552.5522 552.5564 552.6029 552.6456 552.6439 552.5283 552.3889 552.2413 552.1107 551.9817 551.9745 552.1002 552.4819 552.9288 553.1932 553.612 554.4378 555.9679 558.8042 563.018 568.5794 575.1453 582.2366 -9999 -9999 -9999 -9999 -9999 -9999 -9999 -9999 -9999 -9999 -9999 -9999 -9999 -9999 -9999 -9999
-9999 -9999 -9999 -9999 -9999 -9999 -9999 -9999 -9999 -9999 -9999 -9999 -9999 -9999 -9999 -9999 -9999 -9999 -9999 -9999 -9999 -9999 -9999 -9999 -9999 -9999 -9999 -9999 -9999 -9999 -9999 -9999 -9999 -9999 -9999 -9999 -9999 -9999 -9999 -9999 -9999 -9999 -9999 -9999 -9999 -9999 -9999 -9999 -9999 -9999 -9999 -9999 -9999 -9999 -9999 -9999 -9999 -9999 -9999 -9999 -9999 -9999 -9999 -9999 -9999 -9999 -9999 -9999 -9999 -9999 -9999 -9999 -9999 -9999 -9999 -9999 -9999 -9999 -9999 -9999 -9999 -9999 -9999 -9999 -9999 -9999 -9999 -9999 -9999 -9999 -9999 -9999 -9999 -9999 -9999 -9999 -9999 -9999 -9999 -9999 -9999 -9999 -9999 -9999 -9999 -9999 -9999 -9999 -9999 -9999 -9999 -9999 -9999 -9999 -9999 -9999 -9999 -9999 -9999 -9999 -9999 -9999 -9999 -9999 -9999 -9999 -9999 -9999 -9999 -9999 -9999 -9999 -9999 -9999 -9999 -9999 -9999 -9999 -9999 -9999 -9999 -9999 -9999 569.241 564.5895 560.4354 557.5014 556.0425 555.558 555.1325 554.4528 553.8473 553.5021 553.3177 553.226 553.2865 553.6236 554.0052 554.1375 554.5765 555.2176 556.0242 556.8821 557.6518 -9999 -9999 -9999 -9999 -9999 -9999 -9999 -9999 -9999 -9999 -9999 -9999 -9999 -9999 -9999 -9999 -9999 -9999 -9999 -9999 -9999 -9999 554.7312 555.7109 556.2064 556.2585 556.0221 555.9774 555.7832 555.6099 555.4189 555.1625 554.8148 554.3935 554.0319 553.9011 554.1514 554.9602 555.6745 555.7673 555.7572 555.9787 556.1407 556.1583 555.7192 554.8763 554.1559 553.9935 554.2739 553.8659 553.2092 553.0294 552.9926 552.9835 552.9826 552.9696 552.7947 552.6973 552.6284 552.5704 552.5231 552.5327 552.6449 552.9515 553.1736 553.3768 553.8112 554.7845 556.738 559.2397 563.0313 568.2141 574.4928 581.3414 -9999 -9999 -9999 -9999 -9999 -9999 -9999 -9999 -9999 -9999 -9999 -9999 -9999 -9999 -9999 -9999
-9999 -9999 -9999 -9999 -9999 -9999 -9999 -9999 -9999 -9999 -9999 -9999 -9999 -9999 -9999 -9999 -9999 -9999 -9999 -9999 -9999 -9999 -9999 -9999 -9999 -9999 -9999 -9999 -9999 -9999 -9999 -9999 -9999 -9999 -9999 -9999 -9999 -9999 -9999 -9999 -9999 -9999 -9999 -9999 -9999 -9999 -9999 -9999 -9999 -9999 -9999 -9999 -9999 -9999 -9999 -9999 -9999 -9999 -9999 -9999 -9999 -9999 -9999 -9999 -9999 -9999 -9999 -9999 -9999 -9999 -9999 -9999 -9999 -9999 -9999 -9999 -9999 -9999 -9999 -9999 -9999 -9999 -9999 -9999 -9999 -9999 -9999 -9999 -9999 -9999 -9999 -9999 -9999 -9999 -9999 -9999 -9999 -9999 -9999 -9999 -9999 -9999 -9999 -9999 -9999 -9999 -9999 -9999 -9999 -9999 -9999 -9999 -9999 -9999 -9999 -9999 -9999 -9999 -9999 -9999 -9999 -9999 -9999 -9999 -9999 -9999 -9999 -9999 -9999 -9999 -9999 -9999 -9999 -9999 -9999 -9999 -9999 -9999 -9999 -9999 -9999 -9999 -9999 -9999 565.9279 561.976 558.8853 557.0775 556.621 555.8037 555.169 554.7802 554.7073 554.7819 554.7319 554.6285 554.6231 554.735 554.9325 555.4165 556.1541 556.9195 557.551 557.961 -9999 -9999 -9999 -9999 -9999 -9999 -9999 -9999 -9999 -9999 -9999 -9999 -9999 -9999 -9999 -9999 -9999 -9999 -9999 -9999 -9999 -9999 -9999 -9999 -9999 555.9146 555.6238 -9999 -9999 -9999 555.25 555.2698 555.2394 555.0637 554.6864 554.2973 554.7389 555.3594 555.8042 555.9551 556.1854 556.8583 557.43 557.8387 557.4857 556.2742 554.9751 554.1082 554.3136 554.4644 554.0164 553.8505 553.653 553.472 553.3378 553.2024 552.9952 552.9786 552.978 552.9764 552.9733 552.9712 552.9866 553.1801 553.3667 553.6086 554.1118 555.1909 557.2611 559.749 563.2292 568.021 573.9398 -9999 -9999 -9999 -9999 -9999 -9999 -9999 -9999 -9999 -9999 -9999 -9999 -9999 -9999 -9999 -9999 -9999
-9999 -9999 -9999 -9999 -9999 -9999 -9999 -9999 -9999 -9999 -9999 -9999 -9999 -9999 -9999 -9999 -9999 -9999 -9999 -9999 -9999 -9999 -9999 -9999 -9999 -9999 -9999 -9999 -9999 -9999 -9999 -9999 -9999 -9999 -9999 -9999 -9999 -9999 -9999 -9999 -9999 -9999 -9999 -9999 -9999 -9999 -9999 -9999 -9999 -9999 -9999 -9999 -9999 -9999 -9999 -9999 -9999 -9999 -9999 -9999 -9999 -9999 -9999 -9999 -9999 -9999 -9999 -9999 -9999 -9999 -9999 -9999 -9999 -9999 -9999 -9999 -9999 -9999 -9999 -9999 -9999 -9999 -9999 -9999 -9999 -9999 -9999 -9999 -9999 -9999 -9999 -9999 -9999 -9999 -9999 -9999 -9999 -9999 -9999 -9999 -9999 -9999 -9999 -9999 -9999 -9999 -9999 -9999 -9999 -9999 -9999 -9999 -9999 -9999 -9999 -9999 -9999 -9999 -9999 -9999 -9999 -9999 -9999 -9999 -9999 -9999 -9999 -9999 -9999 -9999 -9999 -9999 -9999 -9999 -9999 -9999 -9999 -9999 -9999 -9999 -9999 -9999 -9999 -9999 -9999 563.4815 560.4446 558.264 556.882 556.069 555.7137 555.8078 555.7803 555.5115 555.6222 555.7187 555.4961 555.5286 555.9431 556.6456 557.6812 558.3673 558.6321 -9999 -9999 -9999 -9999 -9999 -9999 -9999 -9999 -9999 -9999 -9999 -9999 -9999 -9999 -9999 -9999 -9999 -9999 -9999 -9999 -9999 -9999 -9999 -9999 -9999 -9999 -9999 -9999 -9999 -9999 -9999 -9999 -9999 -9999 555.9117 555.7604 555.4302 555.7503 555.9803 556.0531 556.2193 556.9369 557.8751 558.6244 559.365 559.1672 557.9053 556.2165 554.7213 554.265 554.2369 554.2482 554.4594 554.2137 553.918 553.7157 553.5558 553.3788 553.3024 553.2539 553.2175 553.1976 553.204 553.2623 553.4329 553.6467 553.9691 554.5558 555.782 557.7439 560.1116 563.3547 567.7863 573.2948 -9999 -9999 -9999 -9999 -9999 -9999 -9999 -9999 -9999 -9999 -9999 -9999 -9999 -9999 -9999 -9999 -9999
-9999 -9999 -9999 -9999 -9999 -9999 -9999 -9999 -9999 -9999 -9999 -9999 -9999 -9999 -9999 -9999 -9999 -9999 -9999 -9999 -9999 -9999 -9999 -9999 -9999 -9999 -9999 -9999 -9999 -9999 -9999 -9999 -9999 -9999 -9999 -9999 -9999 -9999 -9999 -9999 -9999 -9999 -9999 -9999 -9999 -9999 -9999 -9999 -9999 -9999 -9999 -9999 -9999 -9999 -9999 -9999 -9999 -9999 -9999 -9999 -9999 -9999 -9999 -9999 -9999 -9999 -9999 -9999 -9999 -9999 -9999 -9999 -9999 -9999 -9999 -9999 -9999 -9999 -9999 -9999 -9999 -9999 -9999 -9999 -9999 -9999 -9999 -9999 -9999 -9999 -9999 -9999 -9999 -9999 -9999 -9999 -9999 -9999 -9999 -9999 -9999 -9999 -9999 -9999 -9999 -9999 -9999 -9999 -9999 -9999 -9999 -9999 -9999 -9999 -9999 -9999 -9999 -9999 -9999 -9999 -9999 -9999 -9999 -9999 -9999 -9999 -9999 -9999 -9999 -9999 -9999 -9999 -9999 -9999 -9999 -9999 -9999 -9999 -9999 -9999 -9999 -9999 -9999 -9999 -9999 -9999 562.0019 559.8315 558.0422 556.681 556.1256 556.1896 556.2343 556.1719 556.2615 556.3549 556.2954 556.5383 557.3635 558.5359 559.8719 -9999 -9999 -9999 -9999 -9999 -9999 -9999 -9999 -9999 -9999 -9999 -9999 -9999 -9999 -9999 -9999 -9999 -9999 -9999 -9999 -9999 -9999 -9999 -9999 -9999 -9999 -9999 -9999 -9999 -9999 -9999 -9999 -9999 -9999 -9999 -9999 -9999 556.3723 556.2737 556.6583 556.8768 556.9338 557.1927 557.9818 558.9438 559.6913 -9999 559.9839 559.2944 557.7783 556.0074 554.6503 554.1088 554.0327 554.4427 554.4873 554.2318 554.0842 553.9777 553.7929 553.6577 553.5211 553.4064 553.3547 553.3954 553.5407 553.7887 554.0643 554.4621 555.0353 556.1821 558.1088 560.2738 563.2355 567.328 -9999 -9999 -9999 -9999 -9999 -9999 -9999 -9999 -9999 -9999 -9999 -9999 -9999 -9999 -9999 -9999 -9999 -9999
-9999 -9999 -9999 -9999 -9999 -9999 -9999 -9999 -9999 -9999 -9999 -9999 -9999 -9999 -9999 -9999 -9999 -9999 -9999 -9999 -9999 -9999 -9999 -9999 -9999 -9999 -9999 -9999 -9999 -9999 -9999 -9999 -9999 -9999 -9999 -9999 -9999 -9999 -9999 -9999 -9999 -9999 -9999 -9999 -9999 -9999 -9999 -9999 -9999 -9999 -9999 -9999 -9999 -9999 -9999 -9999 -9999 -9999 -9999 -9999 -9999 -9999 -9999 -9999 -9999 -9999 -9999 -9999 -9999 -9999 -9999 -9999 -9999 -9999 -9999 -9999 -9999 -9999 -9999 -9999 -9999 -9999 -9999 -9999 -9999 -9999 -9999 -9999 -9999 -9999 -9999 -9999 -9999 -9999 -9999 -9999 -9999 -9999 -9999 -9999 -9999 -9999 -9999 -9999 -9999 -9999 -9999 -9999 -9999 -9999 -9999 -9999 -9999 -9999 -9999 -9999 -9999 -9999 -9999 -9999 -9999 -9999 -9999 -9999 -9999 -9999 -9999 -9999 -9999 -9999 -9999 -9999 -9999 -9999 -9999 -9999 -9999 -9999 -9999 -9999 -9999 -9999 -9999 -9999 -9999 -9999 -9999 561.4916 559.7001 558.1004 557.1152 556.7819 556.7281 556.7882 556.9508 557.2854 557.7517 558.2964 559.3629 560.9443 -9999 -9999 -9999 -9999 -9999 -9999 -9999 -9999 -9999 -9999 -9999 -9999 -9999 -9999 -9999 -9999 -9999 -9999 -9999 -9999 -9999 -9999 -9999 -9999 -9999 -9999 -9999 -9999 -9999 -9999 -9999 -9999 -9999 -9999 -9999 -9999 -9999 -9999 -9999 -9999 557.8448 558.0874 558.061 558.2507 559.0043 -9999 -9999 -9999 -9999 560.2709 559.3104 557.6905 556.0005 554.8326 554.7059 554.9351 554.9144 554.5869 554.5097 554.4591 554.2023 554.0469 553.8136 553.6019 553.5223 553.625 553.9026 554.3218 554.6645 555.057 555.5238 556.4864 558.228 560.1769 562.8389 -9999 -9999 -9999 -9999 -9999 -9999 -9999 -9999 -9999 -9999 -9999 -9999 -9999 -9999 -9999 -9999 -9999 -9999 -9999
-9999 -9999 -9999 -9999 -9999 -9999 -9999 -9999 -9999 -9999 -9999 -9999 -9999 -9999 -9999 -9999 -9999 -9999 -9999 -9999 -9999 -9999 -9999 -9999 -9999 -9999 -9999 -9999 -9999 -9999 -9999 -9999 -9999 -9999 -9999 -9999 -9999 -9999 -9999 -9999 -9999 -9999 -9999 -9999 -9999 -9999 -9999 -9999 -9999 -9999 -9999 -9999 -9999 -9999 -9999 -9999 -9999 -9999 -9999 -9999 -9999 -9999 -9999 -9999 -9999 -9999 -9999 -9999 -9999 -9999 -9999 -9999 -9999 -9999 -9999 -9999 -9999 -9999 -9999 -9999 -9999 -9999 -9999 -9999 -9999 -9999 -9999 -9999 -9999 -9999 -9999 -9999 -9999 -9999 -9999 -9999 -9999 -9999 -9999 -9999 -9999 -9999 -9999 -9999 -9999 -9999 -9999 -9999 -9999 -9999 -9999 -9999 -9999 -9999 -9999 -9999 -9999 -9999 -9999 -9999 -9999 -9999 -9999 -9999 -9999 -9999 -9999 -9999 -9999 -9999 -9999 -9999 -9999 -9999 -9999 -9999 -9999 -9999 -9999 -9999 -9999 -9999 -9999 -9999 -9999 -9999 -9999 -9999 -9999 559.6257 558.2707 557.5488 557.3499 557.4713 557.7104 558.3891 559.4432 560.4103 -9999 -9999 -9999 -9999 -9999 -9999 -9999 -9999 -9999 -9999 -9999 -9999 -9999 -9999 -9999 -9999 -9999 -9999 -9999 -9999 -9999 -9999 -9999 -9999 -9999 -9999 -9999 -9999 -9999 -9999 -9999 -9999 -9999 -9999 -9999 -9999 -9999 -9999 -9999 -9999 -9999 -9999 -9999 -9999 -9999 -9999 -9999 -9999 -9999 -9999 -9999 -9999 560.6069 559.4111 557.8324 556.5244 556.1168 556.0685 555.8484 555.3772 555.1359 554.87 554.5367 554.4587 554.1387 553.8325 553.7552 553.9561 554.3853 555.1129 555.7003 555.9647 556.2238 557.0448 558.2982 560.0035 562.3591 -9999 -9999 -9999 -9999 -9999 -9999 -9999 -9999 -9999 -9999 -9999 -9999 -9999 -9999 -9999 -9999 -9999 -9999 -9999
-9999 -9999 -9999 -9999 -9999 -9999 -9999 -9999 -9999 -9999 -9999 -9999 -9999 -9999 -9999 -9999 -9999 -9999 -9999 -9999 -9999 -9999 -9999 -9999 -9999 -9999 -9999 -9999 -9999 -9999 -9999 -9999 -9999 -9999 -9999 -9999 -9999 -9999 -9999 -9999 -9999 -9999 -9999 -9999 -9999 -9999 -9999 -9999 -9999 -9999 -9999 -9999 -9999 -9999 -9999 -9999 -9999 -9999 -9999 -9999 -9999 -9999 -9999 -9999 -9999 -9999 -9999 -9999 -9999 -9999 -9999 -9999 -9999 -9999 -9999 -9999 -9999 -9999 -9999 -9999 -9999 -9999 -9999 -9999 -9999 -9999 -9999 -9999 -9999 -9999 -9999 -9999 -9999 -9999 -9999 -9999 -9999 -9999 -9999 -9999 -9999 -9999 -9999 -9999 -9999 -9999 -9999 -9999 -9999 -9999 -9999 -9999 -9999 -9999 -9999 -9999 -9999 -9999 -9999 -9999 -9999 -9999 -9999 -9999 -9999 -9999 -9999 -9999 -9999 -9999 -9999 -9999 -9999 -9999 -9999 -9999 -9999 -9999 -9999 -9999 -9999 -9999 -9999 -9999 -9999 -9999 -9999 -9999 -9999 -9999 -9999 -9999 -9999 -9999 -9999 -9999 -9999 -9999 -9999 -9999 -9999 -9999 -9999 -9999 -9999 -9999 -9999 -9999 -9999 -9999 -9999 -9999 -9999 -9999 -9999 -9999 -9999 -9999 -9999 -9999 -9999 -9999 -9999 -9999 -9999 -9999 -9999 -9999 -9999 -9999 -9999 -9999 -9999 -9999 -9999 -9999 -9999 -9999 -9999 -9999 -9999 -9999 -9999 -9999 -9999 -9999 -9999 -9999 -9999 -9999 -9999 -9999 559.6086 558.3848 557.8059 557.4935 556.8921 556.2204 555.914 555.4625 555.0018 554.7284 554.4581 554.1351 554.1561 554.5201 554.9678 555.8143 556.4965 556.9221 557.2106 557.8405 558.7043 560.0004 -9999 -9999 -9999 -9999 -9999 -9999 -9999 -9999 -9999 -9999 -9999 -9999 -9999 -9999 -9999 -9999 -9999 -9999 -9999 -9999
-9999 -9999 -9999 -9999 -9999 -9999 -9999 -9999 -9999 -9999 -9999 -9999 -9999 -9999 -9999 -9999 -9999 -9999 -9999 -9999 -9999 -9999 -9999 -9999 -9999 -9999 -9999 -9999 -9999 -9999 -9999 -9999 -9999 -9999 -9999 -9999 -9999 -9999 -9999 -9999 -9999 -9999 -9999 -9999 -9999 -9999 -9999 -9999 -9999 -9999 -9999 -9999 -9999 -9999 -9999 -9999 -9999 -9999 -9999 -9999 -9999 -9999 -9999 -9999 -9999 -9999 -9999 -9999 -9999 -9999 -9999 -9999 -9999 -9999 -9999 -9999 -9999 -9999 -9999 -9999 -9999 -9999 -9999 -9999 -9999 -9999 -9999 -9999 -9999 -9999 -9999 -9999 -9999 -9999 -9999 -9999 -9999 -9999 -9999 -9999 -9999 -9999 -9999 -9999 -9999 -9999 -9999 -9999 -9999 -9999 -9999 -9999 -9999 -9999 -9999 -9999 -9999 -9999 -9999 -9999 -9999 -9999 -9999 -9999 -9999 -9999 -9999 -9999 -9999 -9999 -9999 -9999 -9999 -9999 -9999 -9999 -9999 -9999 -9999 -9999 -9999 -9999 -9999 -9999 -9999 -9999 -9999 -9999 -9999 -9999 -9999 -9999 -9999 -9999 -9999 -9999 -9999 -9999 -9999 -9999 -9999 -9999 -9999 -9999 -9999 -9999 -9999 -9999 -9999 -9999 -9999 -9999 -9999 -9999 -9999 -9999 -9999 -9999 -9999 -9999 -9999 -9999 -9999 -9999 -9999 -9999 -9999 -9999 -9999 -9999 -9999 -9999 -9999 -9999 -9999 -9999 -9999 -9999 -9999 -9999 -9999 -9999 -9999 -9999 -9999 -9999 -9999 -9999 -9999 -9999 -9999 -9999 -9999 559.9276 559.1111 558.5076 557.8816 557.2051 556.7942 556.2376 555.6038 555.14 554.827 554.6799 554.9806 555.725 556.2618 556.8433 557.3549 557.8292 558.0092 558.4377 559.1313 -9999 -9999 -9999 -9999 -9999 -9999 -9999 -9999 -9999 -9999 -9999 -9999 -9999 -9999 -9999 -9999 -9999 -9999 -9999 -9999 -9999
-9999 -9999 -9999 -9999 -9999 -9999 -9999 -9999 -9999 -9999 -9999 -9999 -9999 -9999 -9999 -9999 -9999 -9999 -9999 -9999 -9999 -9999 -9999 -9999 -9999 -9999 -9999 -9999 -9999 -9999 -9999 -9999 -9999 -9999 -9999 -9999 -9999 -9999 -9999 -9999 -9999 -9999 -9999 -9999 -9999 -9999 -9999 -9999 -9999 -9999 -9999 -9999 -9999 -9999 -9999 -9999 -9999 -9999 -9999 -9999 -9999 -9999 -9999 -9999 -9999 -9999 -9999 -9999 -9999 -9999 -9999 -9999 -9999 -9999 -9999 -9999 -9999 -9999 -9999 -9999 -9999 -9999 -9999 -9999 -9999 -9999 -9999 -9999 -9999 -9999 -9999 -9999 -9999 -9999 -9999 -9999 -9999 -9999 -9999 -9999 -9999 -9999 -9999 -9999 -9999 -9999 -9999 -9999 -9999 -9999 -9999 -9999 -9999 -9999 -9999 -9999 -9999 -9999 -9999 -9999 -9999 -9999 -9999 -9999 -9999 -9999 -9999 -9999 -9999 -9999 -9999 -9999 -9999 -9999 -9999 -9999 -9999 -9999 -9999 -9999 -9999 -9999 -9999 -9999 -9999 -9999 -9999 -9999 -9999 -9999 -9999 -9999 -9999 -9999 -9999 -9999 -9999 -9999 -9999 -9999 -9999 -9999 -9999 -9999 -9999 -9999 -9999 -9999 -9999 -9999 -9999 -9999 -9999 -9999 -9999 -9999 -9999 -9999 -9999 -9999 -9999 -9999 -9999 -9999 -9999 -9999 -9999 -9999 -9999 -9999 -9999 -9999 -9999 -9999 -9999 -9999 -9999 -9999 -9999 -9999 -9999 -9999 -9999 -9999 -9999 -9999 -9999 -9999 -9999 -9999 -9999 -9999 -9999 -9999 -9999 559.3159 558.6912 558.1124 557.8602 557.4426 556.5627 555.9984 555.7679 556.0564 556.6674 557.4658 557.7971 557.9338 558.0299 558.2712 558.4691 558.8474 -9999 -9999 -9999 -9999 -9999 -9999 -9999 -9999 -9999 -9999 -9999 -9999 -9999 -9999 -9999 -9999 -9999 -9999 -9999 -9999 -9999 -9999
-9999 -9999 -9999 -9999 -9999 -9999 -9999 -9999 -9999 -9999 -9999 -9999 -9999 -9999 -9999 -9999 -9999 -9999 -9999 -9999 -9999 -9999 -9999 -9999 -9999 -9999 -9999 -9999 -9999 -9999 -9999 -9999 -9999 -9999 -9999 -9999 -9999 -9999 -9999 -9999 -9999 -9999 -9999 -9999 -9999 -9999 -9999 -9999 -9999 -9999 -9999 -9999 -9999 -9999 -9999 -9999 -9999 -9999 -9999 -9999 -9999 -9999 -9999 -9999 -9999 -9999 -9999 -9999 -9999 -9999 -9999 -9999 -9999 -9999 -9999 -9999 -9999 -9999 -9999 -9999 -9999 -9999 -9999 -9999 -9999 -9999 -9999 -9999 -9999 -9999 -9999 -9999 -9999 -9999 -9999 -9999 -9999 -9999 -9999 -9999 -9999 -9999 -9999 -9999 -9999 -9999 -9999 -9999 -9999 -9999 -9999 -9999 -9999 -9999 -9999 -9999 -9999 -9999 -9999 -9999 -9999 -9999 -9999 -9999 -9999 -9999 -9999 -9999 -9999 -9999 -9999 -9999 -9999 -9999 -9999 -9999 -9999 -9999 -9999 -9999 -9999 -9999 -9999 -9999 -9999 -9999 -9999 -9999 -9999 -9999 -9999 -9999 -9999 -9999 -9999 -9999 -9999 -9999 -9999 -9999 -9999 -9999 -9999 -9999 -9999 -9999 -9999 -9999 -9999 -9999 -9999 -9999 -9999 -9999 -9999 -9999 -9999 -9999 -9999 -9999 -9999 -9999 -9999 -9999 -9999 -9999 -9999 -9999 -9999 -9999 -9999 -9999 -9999 -9999 -9999 -9999 -9999 -9999 -9999 -9999 -9999 -9999 -9999 -9999 -9999 -9999 -9999 -9999 -9999 -9999 -9999 -9999 -9999 -9999 -9999 -9999 -9999 559.0095 558.8599 558.6297 558.0261 557.4108 557.2533 558.0508 558.9279 559.4373 559.2444 558.8848 558.6339 558.6512 -9999 -9999 -9999 -9999 -9999 -9999 -9999 -9999 -9999 -9999 -9999 -9999 -9999 -9999 -9999 -9999 -9999 -9999 -9999 -9999 -9999 -9999 -9999 -9999
