ncols         309
nrows         38
xllcorner     328250
yllcorner     6106150
cellsize      50
NODATA_value  -9999
-9999 -9999 -9999 -9999 -9999 -9999 -9999 -9999 -9999 -9999 -9999 -9999 -9999 -9999 -9999 -9999 -9999 -9999 -9999 -9999 -9999 -9999 -9999 -9999 -9999 -9999 -9999 -9999 -9999 -9999 -9999 -9999 -9999 -9999 -9999 -9999 -9999 -9999 -9999 -9999 -9999 -9999 -9999 -9999 -9999 -9999 -9999 -9999 -9999 -9999 -9999 -9999 -9999 679.016 677.7304 676.2882 675.0746 676.0168 676.9949 676.8032 676.1024 675.7548 675.6305 675.6437 675.7205 675.8123 675.8983 675.9691 676.0131 676.0109 675.9219 675.751 675.5432 675.3156 675.0786 674.873 674.7072 674.6283 674.6417 674.7178 674.8932 675.0775 675.1863 675.2013 675.1605 675.1251 675.1196 675.1278 675.1354 675.1333 675.1147 675.098 675.1166 675.1947 675.3458 675.5657 675.8159 676.0262 676.0875 676.2036 676.7751 677.2032 677.351 677.0814 677.7708 678.7008 679.8287 681.3959 683.5236 686.0473 688.516 690.1923 690.189 688.5018 686.0248 683.5465 681.8131 -9999 -9999 -9999 -9999 -9999 683.4783 684.2526 685.0313 685.4406 685.2224 684.4201 683.2906 682.2984 681.8159 681.7808 681.4651 680.912 680.0338 678.8681 677.5877 676.3366 675.5123 675.0828 675.2706 675.5114 675.8352 675.998 675.9925 675.9076 675.6084 675.4705 675.4252 675.4073 675.4065 675.436 675.5278 675.7648 676.1833 676.759 677.5022 678.2505 678.959 679.4635 679.6397 679.3546 678.6464 677.6578 676.6076 675.6387 674.8275 674.0993 673.4389 672.885 672.3735 672.0124 671.7257 671.3074 671.0482 670.752 670.2847 669.9144 669.4841 669.1533 668.785 668.4298 668.1732 668.0591 668.0001 667.9999 667.9834 667.972 667.9678 667.9672 667.9719 667.978 667.9998 668 668.0001 668.0177 668.0001 668 667.9999 667.9998 667.9994 667.9985 667.9976 667.9987 667.9996 668.0704 668.3298 668.8809 669.1868 669.1659 668.9495 668.8324 668.8715 668.9982 669 668.9845 668.9678 668.9722 668.995 669.0281 669.064 669.0989 669.1342 669.1682 669.1971 669.2246 669.2568 669.292 669.3175 669.3263 669.3315 669.3494 669.3816 669.417 669.4402 669.4425 669.4252 669.4065 669.4238 669.5334 669.8182 670.3613 671.2225 671.8765 671.9535 671.5851 671.0519 670.5624 670.2487 670.0193 669.9987 670.1682 670.6309 671.2831 671.9454 672.4221 672.6799 672.9462 673.0226 672.9908 672.7806 672.2889 671.9869 671.6179 671.2532 671.0253 671.0026 671.0605 671.1722 671.5653 672.2298 672.9366 673.311 673.4891 673.5728 673.6189 673.6517 673.7487 674.0057 674.4844 674.9743 675.2573 675.5483 676.0394 676.9515 678.3687 680.3184 682.3528 684.1573 685.4166 685.793 -9999 -9999 -9999 -9999 -9999 -9999 -9999 -9999 -9999 -9999 -9999 -9999 -9999 -9999 -9999 -9999 -9999 -9999
-9999 -9999 -9999 -9999 -9999 -9999 -9999 -9999 -9999 -9999 -9999 -9999 -9999 -9999 -9999 -9999 -9999 -9999 -9999 -9999 -9999 -9999 -9999 -9999 -9999 -9999 -9999 -9999 -9999 -9999 -9999 -9999 -9999 -9999 -9999 -9999 -9999 -9999 -9999 -9999 -9999 -9999 -9999 -9999 -9999 -9999 -9999 -9999 -9999 -9999 -9999 -9999 -9999 679.6799 678.292 676.8435 675.7083 675.7598 677.0131 676.7602 676.0814 675.6982 675.5393 675.5422 675.6295 675.7339 675.8209 675.8787 675.9031 675.8907 675.8154 675.6559 675.4575 675.2572 675.0491 674.8438 674.6749 674.5826 674.5763 674.6058 674.6648 674.7629 674.8638 674.9308 674.9614 674.9907 675.0449 675.1019 675.1376 675.1481 675.1328 675.1019 675.0908 675.1262 675.2247 675.387 675.5868 675.7947 675.9612 675.9364 676.1175 676.4175 676.8566 677.187 677.4093 678.1026 679.1369 680.5809 682.4744 684.67 686.7959 688.2506 688.2951 686.9689 684.9484 682.8519 681.2473 680.3298 680.288 -9999 681.3323 681.785 682.1158 682.5535 683.0934 683.4414 683.3878 682.9116 682.0973 681.3022 680.915 680.843 680.5579 679.7971 678.6644 677.3268 676.223 675.3555 675.4647 675.687 675.7941 675.9166 675.9979 675.8196 675.5896 675.3943 675.0892 675.0026 674.9883 674.9778 674.9558 674.9158 674.8347 674.8436 675.0193 675.4305 675.9805 676.5195 677.0742 677.4366 677.5186 677.2615 676.6514 675.7973 674.9224 674.0681 673.4009 672.8081 672.2147 671.8175 671.4221 671.0296 670.731 670.2851 670.0522 669.8289 669.4697 669.0861 668.7718 668.5496 668.352 668.1536 668.0041 667.9983 667.9586 667.9453 667.9274 667.9125 667.9084 667.913 667.9191 667.921 667.9266 667.9339 667.9589 667.9996 667.9775 667.9493 667.9098 667.8669 667.8252 667.7906 667.7897 667.8657 668.0536 668.4559 669.2336 670.027 670.3291 670.0983 669.5118 669.1287 669.0039 669.0131 668.9941 668.9681 668.9508 668.9526 668.9725 669.0039 669.0397 669.0751 669.1104 669.1454 669.1751 669.2006 669.2291 669.2626 669.2892 669.2985 669.2993 669.3128 669.3449 669.3857 669.4185 669.4272 669.4121 669.387 669.3842 669.4513 669.6548 670.0706 670.7815 671.3352 671.4067 671.0364 670.5271 670.0968 669.9406 669.7118 669.627 669.7343 670.0913 670.6411 671.3337 671.8299 672.0673 672.3547 672.4672 672.4016 672.1393 671.8637 671.6412 671.3585 671.0256 670.8027 670.7135 670.7196 670.8246 671.147 671.9005 672.6901 673.1447 673.3643 673.4652 673.5352 673.6091 673.7404 674.0095 674.4827 674.9801 675.2595 675.5153 675.9316 676.6337 677.8917 679.6912 681.7955 683.7944 685.4481 686.364 686.5988 -9999 -9999 -9999 -9999 -9999 -9999 -9999 -9999 -9999 -9999 -9999 -9999 -9999 -9999 -9999 -9999 -9999
-9999 -9999 -9999 -9999 -9999 -9999 -9999 -9999 -9999 -9999 -9999 -9999 -9999 -9999 -9999 -9999 -9999 -9999 -9999 -9999 -9999 -9999 -9999 -9999 -9999 -9999 -9999 -9999 -9999 -9999 -9999 -9999 -9999 -9999 -9999 -9999 -9999 -9999 -9999 -9999 -9999 -9999 -9999 -9999 -9999 -9999 -9999 -9999 -9999 -9999 -9999 -9999 -9999 681.1369 679.6339 678.0739 676.7289 676.118 676.9933 676.6089 676.042 675.6439 675.4359 675.3956 675.4601 675.5543 675.6295 675.6666 675.6643 675.6306 675.563 675.4264 675.2405 675.0671 674.911 674.749 674.5989 674.5029 674.4922 674.505 674.5171 674.5532 674.6177 674.6895 674.7529 674.8198 674.9136 675.0173 675.0891 675.119 675.1153 675.0868 675.0581 675.0577 675.1045 675.2172 675.3538 675.4912 675.5892 675.5933 675.6757 675.8713 676.1694 676.5394 676.7736 677.2776 678.1158 679.271 680.7573 682.4664 684.0927 685.2331 685.4407 684.7289 683.4802 682.0555 680.8325 680.1569 679.9871 680.1353 680.5253 680.8433 681.0224 681.2883 681.6626 681.8882 681.865 681.5425 680.9592 680.277 679.8438 679.7152 679.4453 678.6926 677.5781 676.3611 675.7269 675.5818 676.3108 676.7444 676.3129 675.9982 675.7435 675.4099 675.0917 674.97 674.7625 674.6542 674.594 674.5266 674.4369 674.3339 674.1156 674.0349 674.1156 674.4427 674.8676 675.2705 675.6473 675.8412 675.8242 675.5246 674.982 674.226 673.4789 672.8216 672.2531 671.7775 671.2385 670.9277 670.6735 670.2217 669.93 669.575 669.3607 669.1175 668.9299 668.6256 668.3735 668.209 668.1167 667.9995 667.9037 667.8837 667.8666 667.8583 667.8439 667.8292 667.8267 667.836 667.8427 667.8358 667.8243 667.826 667.855 667.8983 667.9028 667.8701 667.7999 667.7122 667.6329 667.5883 667.6335 667.8684 668.3928 669.3774 670.6064 671.6375 671.9565 671.5363 670.6304 669.7717 669.395 669.2039 669.0858 669.0135 668.9776 668.9703 668.9839 669.0104 669.042 669.0739 669.1051 669.1365 669.1646 669.187 669.2103 669.2396 669.267 669.278 669.2759 669.2826 669.312 669.3563 669.399 669.4225 669.4172 669.3957 669.3826 669.4163 669.5416 669.8052 670.223 670.7469 670.8221 670.4999 670.0637 669.7627 669.601 669.4384 669.3624 669.4337 669.6913 670.1169 670.7166 671.0405 671.2084 671.5405 671.6904 671.684 671.515 671.4301 671.3405 671.1852 670.9612 670.7175 670.6348 670.6759 670.8071 671.0411 671.6155 672.2434 672.8879 673.1882 673.3369 673.4731 673.6046 673.7567 674.0117 674.4606 674.9777 675.2429 675.4335 675.7122 676.2283 677.3024 678.8764 680.9693 683.0594 684.9993 686.4547 687.0542 -9999 -9999 -9999 -9999 -9999 -9999 -9999 -9999 -9999 -9999 -9999 -9999 -9999 -9999 -9999 -9999 -9999
-9999 -9999 -9999 -9999 -9999 -9999 -9999 -9999 -9999 -9999 -9999 -9999 -9999 -9999 -9999 -9999 -9999 -9999 -9999 -9999 -9999 -9999 -9999 -9999 -9999 -9999 -9999 -9999 -9999 -9999 -9999 -9999 -9999 -9999 -9999 -9999 -9999 -9999 -9999 -9999 -9999 -9999 -9999 -9999 -9999 -9999 -9999 -9999 -9999 -9999 -9999 -9999 -9999 683.0581 681.495 679.8273 678.1876 676.9307 676.4388 676.1992 675.941 675.5669 675.3267 675.2384 675.2609 675.3291 675.387 675.4059 675.3802 675.3221 675.2479 675.1371 674.967 674.8052 674.687 674.5894 674.4841 674.4084 674.3925 674.4132 674.4231 674.4346 674.4732 674.5361 674.6073 674.6856 674.7889 674.9128 675.0148 675.0653 675.0739 675.055 675.023 675 675.0007 675.0741 675.1432 675.2042 675.248 675.2833 675.3451 675.4803 675.6907 675.9348 676.0554 676.3663 677.0688 677.9178 678.9269 680.0859 681.1741 681.9794 682.2845 682.1171 681.6379 680.9871 680.4539 680.1484 680.0223 679.9924 680.0173 680.0427 680.0794 680.2548 680.4133 680.4131 680.3157 680.0045 679.6727 679.0721 678.6611 678.4868 678.2102 677.6595 676.8483 675.9706 676.066 676.6002 677.179 676.8511 676.1619 675.7189 675.3595 675.0287 674.7958 674.6614 674.5145 674.4026 674.3027 674.1766 674.0294 673.9636 673.7341 673.5642 673.5286 673.6539 673.9109 674.1785 674.3503 674.408 674.3303 674.0037 673.4899 672.8891 672.2598 671.8337 671.4214 670.9874 670.5145 670.1584 669.9661 669.6445 669.3514 669.0592 668.9479 668.7332 668.5479 668.3284 668.1367 668.0051 667.9944 667.8942 667.8093 667.7706 667.756 667.7535 667.7451 667.7319 667.7303 667.7434 667.7511 667.7349 667.704 667.6891 667.7106 667.759 667.7901 667.7698 667.6874 667.5692 667.4667 667.4375 667.5797 668.0515 669.0467 670.4697 671.9608 673.0335 673.2866 672.9003 671.9424 670.8607 670.0983 669.6088 669.3182 669.1558 669.075 669.0445 669.0428 669.057 669.0775 669.0991 669.1204 669.1428 669.1644 669.1823 669.1993 669.2227 669.249 669.2633 669.2606 669.2605 669.2831 669.3282 669.3795 669.4192 669.4325 669.4225 669.4095 669.4208 669.485 669.6266 669.8408 670.0626 670.1006 669.9883 669.7349 669.5168 669.3634 669.237 669.1738 669.2128 669.3752 669.6465 669.9724 670.1347 670.1436 670.332 670.4725 670.5883 670.6629 670.8361 670.8851 670.8257 670.6118 670.5193 670.5912 670.7641 670.9782 671.16 671.5504 672.0424 672.6074 672.982 673.183 673.4349 673.6422 673.7883 673.9938 674.3691 674.9543 675.2278 675.3845 675.5979 676.0339 676.9193 678.2627 680.192 682.2642 684.3287 686.0753 687.0606 -9999 -9999 -9999 -9999 -9999 -9999 -9999 -9999 -9999 -9999 -9999 -9999 -9999 -9999 -9999 -9999 -9999
-9999 -9999 -9999 -9999 -9999 -9999 -9999 -9999 -9999 -9999 -9999 -9999 -9999 -9999 -9999 -9999 -9999 -9999 -9999 -9999 -9999 -9999 -9999 -9999 -9999 -9999 -9999 -9999 -9999 -9999 -9999 -9999 -9999 -9999 -9999 -9999 -9999 -9999 -9999 -9999 -9999 -9999 -9999 -9999 -9999 -9999 -9999 -9999 -9999 -9999 -9999 -9999 -9999 685.0335 683.4929 681.8195 680.0234 678.3423 677.1301 676.2743 675.8304 675.4789 675.2407 675.1169 675.0885 675.1174 675.1531 675.1609 675.1244 675.0515 674.9627 674.8671 674.7253 674.5626 674.4573 674.3979 674.354 674.3081 674.3048 674.3401 674.3735 674.3974 674.433 674.488 674.5531 674.6241 674.7141 674.8297 674.9408 675.009 675.03 675.0215 675 674.9763 674.9705 674.9997 675.0002 675.0004 675.0044 675.0709 675.1202 675.2081 675.3273 675.4554 675.5487 675.7657 676.2224 676.8991 677.4751 678.1039 678.6947 679.1376 679.3688 679.4712 679.5496 679.6156 679.7552 679.9476 679.9902 679.886 679.6091 679.3254 679.1322 679.1472 678.9636 678.7422 678.4023 678.1556 678.0197 677.6211 677.3553 677.2208 677.0844 676.9054 676.8342 677.1672 677.3405 677.3247 676.986 676.3217 675.7058 675.3278 675.0398 674.8231 674.635 674.4911 674.3604 674.2513 674.1466 674.0047 673.8427 673.6952 673.4837 673.298 673.1468 673.0425 673.0699 673.1337 673.1525 673.0945 672.9655 672.6716 672.2034 671.7805 671.2764 671.0004 670.7676 670.412 670.015 669.7084 669.4977 669.2505 668.996 668.76 668.6171 668.453 668.2976 668.1381 667.9984 667.8867 667.8407 667.7695 667.7012 667.6575 667.6412 667.6429 667.6409 667.63 667.6283 667.6434 667.6537 667.6312 667.582 667.5451 667.5526 667.6016 667.6551 667.6582 667.5845 667.4554 667.343 667.3344 667.5618 668.2177 669.5507 671.2589 672.8369 673.7917 674.1021 673.8253 673.0471 671.9442 670.9131 670.1332 669.6617 669.391 669.2488 669.1825 669.1557 669.1485 669.1492 669.1519 669.1558 669.1628 669.173 669.1832 669.1937 669.2102 669.2338 669.2515 669.2518 669.2466 669.2601 669.3007 669.3571 669.4109 669.4457 669.4547 669.4509 669.4536 669.4805 669.54 669.63 669.714 669.7238 669.6549 669.5058 669.3499 669.2178 669.1117 669.0515 669.057 669.1292 669.2354 669.2943 669.1968 669.1426 669.2033 669.3331 669.5988 669.8315 670.0268 670.0929 670.0879 670.0625 670.2267 670.5216 670.8289 671.0143 671.2491 671.5801 671.9969 672.4533 672.8047 673.0403 673.4707 673.7577 673.8334 673.9035 674.1605 674.8903 675.2167 675.3795 675.5809 675.9905 676.7531 677.9397 679.5975 681.5375 683.5975 685.4581 686.7189 -9999 -9999 -9999 -9999 -9999 -9999 -9999 -9999 -9999 -9999 -9999 -9999 -9999 -9999 -9999 -9999 -9999
-9999 -9999 -9999 -9999 -9999 -9999 -9999 -9999 -9999 -9999 -9999 -9999 -9999 -9999 -9999 -9999 -9999 -9999 -9999 -9999 -9999 -9999 -9999 -9999 -9999 -9999 -9999 -9999 -9999 -9999 -9999 -9999 -9999 -9999 -9999 -9999 -9999 -9999 -9999 -9999 -9999 -9999 -9999 -9999 -9999 -9999 -9999 -9999 -9999 -9999 -9999 -9999 -9999 686.6793 685.2034 683.6144 681.8423 679.9332 678.1905 676.848 675.9966 675.5252 675.2488 675.0791 674.9884 674.9615 674.9658 674.9639 674.9313 674.8605 674.7678 674.6704 674.5626 674.4148 674.2982 674.2511 674.2385 674.2388 674.2441 674.2871 674.3496 674.4081 674.4652 674.5267 674.5886 674.6462 674.7128 674.8009 674.8982 674.9704 675.0011 675 674.988 674.9708 674.9576 674.9545 674.9401 674.9318 674.9454 674.9995 675.0005 675.0521 675.1047 675.1682 675.2355 675.3909 675.7054 676.1751 676.7198 676.8818 677.0809 677.1676 677.1699 677.3027 677.625 678.009 678.5583 679.2068 679.4756 679.4453 678.9537 678.4348 677.9952 677.7567 677.4449 677.1225 676.7333 676.5188 676.4217 676.257 676.147 676.0992 676.0645 676.0262 676.0392 676.2527 676.3622 676.3034 676.0355 675.5869 675.1381 675.0072 674.9835 674.7721 674.5737 674.4117 674.2764 674.171 674.0913 673.99 673.7577 673.5361 673.3212 673.1434 672.9844 672.7637 672.6268 672.5253 672.3755 672.1209 671.8771 671.5697 671.2072 670.951 670.6198 670.3573 670.1149 669.9508 669.6592 669.4056 669.2045 668.9929 668.7554 668.5448 668.3911 668.2538 668.1259 667.9993 667.8784 667.7773 667.7098 667.6473 667.5911 667.5485 667.5306 667.535 667.5393 667.5317 667.5286 667.5437 667.5577 667.5354 667.4738 667.415 667.4038 667.4488 667.5148 667.5454 667.4954 667.3765 667.2648 667.2689 667.5396 668.2773 669.7385 671.5844 673.1995 674.0774 674.4436 674.2898 673.6778 672.7028 671.5871 670.719 670.0844 669.6989 669.4877 669.3783 669.3186 669.2818 669.2545 669.2297 669.2075 669.1925 669.1864 669.1862 669.1896 669.2001 669.2193 669.2399 669.2462 669.2401 669.2443 669.2756 669.3311 669.3945 669.448 669.4796 669.4923 669.4993 669.51 669.5273 669.5468 669.5577 669.5385 669.4783 669.3746 669.2572 669.1461 669.053 668.9932 668.9764 668.9979 669.0251 669.0015 668.8862 668.7971 668.7758 668.8433 669.0225 669.2593 669.4587 669.5774 669.6625 669.7808 670.0378 670.4977 670.9628 671.1526 671.3508 671.6364 672.0056 672.4301 672.814 673.1081 673.672 673.9846 673.9374 673.8934 674.1065 674.8693 675.224 675.3993 675.601 675.9929 676.6807 677.6781 679.1099 680.8928 682.834 684.6473 686.0241 -9999 -9999 -9999 -9999 -9999 -9999 -9999 -9999 -9999 -9999 -9999 -9999 -9999 -9999 -9999 -9999 -9999
-9999 -9999 -9999 -9999 -9999 -9999 -9999 -9999 -9999 -9999 -9999 -9999 -9999 -9999 -9999 -9999 -9999 -9999 -9999 -9999 -9999 -9999 -9999 -9999 -9999 -9999 -9999 -9999 -9999 -9999 -9999 -9999 -9999 -9999 -9999 -9999 -9999 -9999 -9999 -9999 -9999 -9999 -9999 -9999 -9999 -9999 -9999 -9999 -9999 -9999 -9999 -9999 -9999 -9999 686.2021 684.7521 683.129 681.1724 679.1428 677.4081 676.2265 675.6732 675.3578 675.1346 674.9729 674.8771 674.8367 674.8182 674.7938 674.7416 674.6637 674.5699 674.4779 674.3706 674.256 674.1974 674.1955 674.2167 674.2512 674.2933 674.3579 674.4368 674.5199 674.6013 674.6702 674.7228 674.7671 674.8248 674.896 674.9592 674.9944 675 674.9911 674.9784 674.9635 674.9481 674.9313 674.9237 674.9338 674.9609 674.9709 674.9999 675.0002 675.0325 675.0721 675.1651 675.3596 675.6484 675.9526 675.999 675.9969 675.9512 675.9011 675.9828 676.215 676.5964 677.228 677.8615 678.2917 678.2147 677.7973 677.2851 676.7906 676.3483 676.0698 675.8727 675.6529 675.5328 675.4839 675.4305 675.3951 675.3807 675.3628 675.302 675.1622 675.1912 675.234 675.2164 675.1262 674.9936 674.8217 674.7882 674.7963 674.6849 674.5294 674.3696 674.2188 674.0905 673.9983 673.8586 673.6359 673.3947 673.1686 672.9954 672.7971 672.5729 672.3807 672.1987 671.9552 671.564 671.161 670.9225 670.6749 670.4711 670.2437 670.0193 669.8087 669.6165 669.382 669.178 668.9956 668.7883 668.5723 668.3779 668.2268 668.1096 667.9994 667.8835 667.7739 667.6779 667.6008 667.5385 667.4884 667.4489 667.4297 667.4352 667.4456 667.4426 667.4381 667.451 667.4686 667.4528 667.3885 667.3138 667.2823 667.3169 667.3898 667.4418 667.4232 667.3281 667.2279 667.2358 667.5056 668.221 669.6104 671.4339 673.0764 673.9691 674.3954 674.332 673.8907 673.0652 672.1537 671.2693 670.5706 670.0428 669.7604 669.6105 669.5159 669.4456 669.3849 669.3252 669.2687 669.2247 669.1983 669.1865 669.1833 669.1885 669.2044 669.2261 669.2402 669.2385 669.236 669.2557 669.3038 669.3698 669.4363 669.4884 669.5212 669.5414 669.5536 669.5558 669.5437 669.5165 669.4725 669.4089 669.3224 669.2249 669.1294 669.0464 668.9889 668.9644 668.9711 668.9936 668.9995 668.9016 668.8242 668.7476 668.7428 668.8413 669.0042 669.1686 669.3068 669.4566 669.6718 670.0034 670.4442 670.9376 671.1592 671.3591 671.6461 672.0147 672.4434 672.9186 673.2976 673.8802 674.079 674.0004 673.9304 674.1519 674.8851 675.2395 675.4244 675.6301 676.025 676.7425 677.642 678.8528 680.5008 682.2554 683.918 685.2582 -9999 -9999 -9999 -9999 -9999 -9999 -9999 -9999 -9999 -9999 -9999 -9999 -9999 -9999 -9999 -9999 -9999
-9999 -9999 -9999 -9999 -9999 -9999 -9999 -9999 -9999 -9999 -9999 -9999 -9999 -9999 -9999 -9999 -9999 -9999 -9999 -9999 -9999 -9999 -9999 -9999 -9999 -9999 -9999 -9999 -9999 -9999 -9999 -9999 -9999 -9999 -9999 -9999 -9999 -9999 -9999 -9999 -9999 -9999 -9999 -9999 -9999 -9999 -9999 -9999 -9999 -9999 -9999 -9999 -9999 687.2897 686.0463 684.8116 683.4201 681.5462 679.4775 677.6586 676.4573 675.9081 675.5511 675.26 675.0215 674.854 674.7599 674.715 674.6893 674.6601 674.6084 674.5406 674.4575 674.3868 674.3095 674.2537 674.2476 674.2778 674.3245 674.3832 674.4476 674.5204 674.603 674.6887 674.7635 674.8145 674.8464 674.877 674.9208 674.9679 675 675.004 674.9985 674.9922 674.9807 674.965 674.9502 674.944 674.9487 674.9604 674.9675 674.9783 674.981 675 675.007 675.0405 675.1212 675.2481 675.3884 675.3892 675.3259 675.2476 675.2061 675.2649 675.4125 675.627 675.9752 676.3311 676.611 676.5281 676.2968 676.0275 675.7211 675.2862 675.0925 675.0285 674.9896 674.9769 674.9819 674.9904 674.9985 674.9991 674.9988 674.9809 674.8295 674.7977 674.8436 674.8507 674.7947 674.7351 674.6746 674.6761 674.6906 674.6339 674.515 674.3593 674.1838 674.0037 673.8717 673.7074 673.5002 673.264 673.0157 672.8303 672.6202 672.4019 672.197 671.984 671.6854 671.333 670.9973 670.7039 670.4564 670.2682 670.1098 669.9772 669.6913 669.4218 669.1738 668.9968 668.8188 668.627 668.4297 668.2474 668.0991 667.9991 667.894 667.7865 667.6837 667.5911 667.5109 667.4464 667.3986 667.3617 667.3414 667.3459 667.3615 667.3647 667.3605 667.3697 667.3892 667.3838 667.3275 667.2468 667.1981 667.218 667.2913 667.361 667.3702 667.3066 667.2228 667.2297 667.4702 668.1078 669.3085 670.9608 672.5872 673.6182 674.1249 674.0537 673.647 672.9504 672.1959 671.5978 670.9023 670.3339 670.0037 669.8372 669.7174 669.6199 669.5266 669.427 669.3286 669.2494 669.2007 669.1783 669.1713 669.1737 669.1868 669.2089 669.2303 669.2375 669.2347 669.2432 669.2792 669.3403 669.4124 669.4792 669.5308 669.5677 669.592 669.5988 669.5804 669.538 669.4789 669.4085 669.3264 669.2377 669.1512 669.0761 669.0215 668.9945 668.9944 669.0117 669.0245 669.0002 668.9948 668.8858 668.8246 668.8701 668.9976 669.0904 669.2142 669.3865 669.6302 669.9634 670.2565 670.6721 670.9849 671.2296 671.5639 671.9597 672.2924 672.6879 673.0605 673.5732 673.9526 674.0193 674.0203 674.3682 674.9513 675.2588 675.4424 675.6558 676.074 676.8943 677.8034 678.809 680.3632 681.968 683.416 684.7026 -9999 -9999 -9999 -9999 -9999 -9999 -9999 -9999 -9999 -9999 -9999 -9999 -9999 -9999 -9999 -9999 -9999
-9999 -9999 -9999 -9999 -9999 -9999 -9999 -9999 -9999 -9999 -9999 -9999 -9999 -9999 -9999 -9999 -9999 -9999 -9999 -9999 -9999 -9999 -9999 -9999 -9999 -9999 -9999 -9999 -9999 -9999 -9999 -9999 -9999 -9999 -9999 -9999 -9999 -9999 -9999 -9999 -9999 -9999 -9999 -9999 -9999 -9999 -9999 -9999 -9999 -9999 -9999 -9999 687.1903 686.0234 684.8538 683.7628 682.4746 680.8026 678.9938 677.4487 676.7076 676.1958 675.772 675.3994 675.0883 674.8628 674.7219 674.6464 674.608 674.587 674.5631 674.5242 674.4778 674.4265 674.401 674.3843 674.3894 674.4247 674.4778 674.5421 674.6128 674.6811 674.7469 674.8137 674.8749 674.9159 674.9341 674.9423 674.9576 674.9814 675 675.0031 675.002 675.0035 674.9977 674.9876 674.9781 674.974 674.9753 674.9794 674.9807 674.9822 674.9857 675 674.9946 674.9901 674.9973 675.0042 675.0771 675.0503 674.975 674.9061 674.8946 674.9622 675.0367 675.0085 675.035 675.1136 675.1996 675.1799 675.1265 675.0722 674.9858 674.8058 674.7385 674.7236 674.7062 674.6842 674.7036 674.772 674.8564 674.8688 674.8632 674.8552 674.8005 674.8259 674.9545 674.969 674.8491 674.7612 674.6896 674.675 674.6831 674.6506 674.5516 674.3966 674.2058 673.998 673.7821 673.5699 673.3669 673.1727 672.9795 672.7083 672.4485 672.2162 671.9929 671.7426 671.4692 671.2009 670.9675 670.6389 670.3719 670.1769 670.0059 669.8394 669.5692 669.283 669.0126 668.8524 668.6879 668.5107 668.3293 668.1561 668.0023 667.9102 667.8134 667.7108 667.61 667.5181 667.4368 667.3704 667.3226 667.2881 667.2669 667.2687 667.2867 667.2974 667.2959 667.3023 667.3213 667.3263 667.2855 667.2101 667.1518 667.1561 667.2249 667.3073 667.3419 667.3085 667.2433 667.2396 667.4243 667.9418 668.868 670.2538 671.8221 673.1183 673.8427 673.9286 673.316 672.5197 671.7451 671.1646 670.703 670.3383 670.1136 669.9964 669.8796 669.7785 669.6648 669.5214 669.3729 669.2543 669.1854 669.1564 669.1502 669.1543 669.1665 669.1883 669.2144 669.2327 669.2365 669.2392 669.2615 669.3115 669.3813 669.4552 669.5209 669.5737 669.6132 669.6343 669.6276 669.5887 669.5261 669.4506 669.3678 669.2822 669.2003 669.1301 669.0782 669.0496 669.0443 669.0557 669.0701 669.0718 669.0641 668.9988 668.9222 668.9292 668.9991 669.0889 669.2293 669.4105 669.6208 669.8558 670.0526 670.4413 670.7563 671.0259 671.3945 671.7577 672.0426 672.4008 672.7319 673.1085 673.577 673.9807 674.1866 674.5381 674.9905 675.265 675.442 675.6505 676.0358 676.7574 677.6557 678.8457 680.4601 682.0079 683.2704 684.3726 -9999 -9999 -9999 -9999 -9999 -9999 -9999 -9999 -9999 -9999 -9999 -9999 -9999 -9999 -9999 -9999 -9999
-9999 -9999 -9999 -9999 -9999 -9999 -9999 -9999 -9999 -9999 -9999 -9999 -9999 -9999 -9999 -9999 -9999 -9999 -9999 -9999 -9999 -9999 -9999 -9999 -9999 -9999 -9999 -9999 -9999 -9999 -9999 -9999 -9999 -9999 -9999 -9999 -9999 -9999 -9999 -9999 -9999 -9999 -9999 -9999 -9999 -9999 -9999 -9999 -9999 -9999 -9999 686.0871 685.2023 684.0671 682.9235 681.8653 680.7261 679.3536 677.9481 676.8271 676.7522 676.3381 675.8916 675.4714 675.1204 674.8682 674.7061 674.6082 674.5549 674.5265 674.5114 674.4976 674.4852 674.4836 674.4954 674.5348 674.5852 674.6398 674.6986 674.7625 674.8299 674.8923 674.9406 674.978 675.0082 675.0265 675.0251 675.012 675.0009 674.9995 675 674.9938 674.9906 675 675 675 675 675 675 675 674.9966 674.9895 674.9855 674.9911 675 674.9965 675 674.9858 674.9995 674.932 674.8563 674.8007 674.8167 674.9266 674.9951 674.7592 674.5784 674.5031 674.5071 674.5474 674.6363 674.7375 674.7643 674.7836 674.8719 674.8833 674.8258 674.717 674.7044 674.8098 674.9819 675.0023 675.0192 675.0784 675.1013 675.1767 675.4257 675.4187 675.1672 674.9951 674.8258 674.759 674.7522 674.7324 674.6384 674.473 674.2537 673.9957 673.697 673.4149 673.1963 672.997 672.7804 672.5112 672.236 671.9954 671.7409 671.479 671.2318 671.0021 670.7852 670.5188 670.2867 670.1246 669.9874 669.7449 669.4736 669.2209 669.0001 668.8047 668.6182 668.439 668.2723 668.1245 667.9993 667.8832 667.7703 667.6599 667.5546 667.4595 667.3766 667.3085 667.2597 667.2268 667.2058 667.204 667.2216 667.2385 667.2427 667.2484 667.266 667.2788 667.2561 667.1947 667.1357 667.1282 667.1887 667.2799 667.3374 667.3344 667.2895 667.2682 667.3689 667.6978 668.3298 669.4401 670.7998 672.1894 673.2848 673.5738 673.1565 672.181 671.455 670.8359 670.4048 670.1926 670.0797 670.0004 669.9598 669.9016 669.7898 669.5934 669.3831 669.2244 669.1453 669.1173 669.119 669.1299 669.1443 669.1654 669.1931 669.2195 669.235 669.2405 669.2532 669.2891 669.3499 669.4242 669.4971 669.5615 669.6147 669.652 669.6644 669.6438 669.5911 669.5178 669.4348 669.3503 669.2709 669.2032 669.1532 669.123 669.1125 669.1176 669.1284 669.1324 669.1186 669.067 669.001 668.9988 669.0053 669.1614 669.3649 669.5928 669.8177 670.0946 670.3448 670.5344 670.7253 670.9889 671.3248 671.6813 671.9939 672.238 672.4858 672.7916 673.2005 673.8242 674.1786 674.5644 674.9973 675.2686 675.444 675.6449 676.0107 676.6792 677.6455 678.9983 680.7713 682.3539 683.4606 684.2681 -9999 -9999 -9999 -9999 -9999 -9999 -9999 -9999 -9999 -9999 -9999 -9999 -9999 -9999 -9999 -9999 -9999
-9999 -9999 -9999 -9999 -9999 -9999 -9999 -9999 -9999 -9999 -9999 -9999 -9999 -9999 -9999 -9999 -9999 -9999 -9999 -9999 -9999 -9999 -9999 -9999 -9999 -9999 -9999 -9999 -9999 -9999 -9999 -9999 -9999 -9999 -9999 -9999 -9999 -9999 -9999 -9999 -9999 -9999 -9999 -9999 -9999 -9999 -9999 -9999 -9999 -9999 684.2109 683.8331 682.9926 681.8835 680.78 679.7794 678.8849 677.9178 676.9781 676.233 676.2098 676.1151 675.8046 675.4268 675.0945 674.8527 674.6979 674.5971 674.5327 674.4962 674.4739 674.4644 674.4811 674.5258 674.5989 674.6906 674.793 674.8876 674.965 675.0234 675.077 675.1233 675.1518 675.1582 675.1516 675.1357 675.1099 675.0747 675.0421 675.019 675 674.97 674.9498 674.9531 674.9689 674.9893 675.004 675.0062 675.0099 675.011 675.0051 674.9898 674.9755 674.9669 674.9774 675 675.0167 675 674.971 674.9161 674.8809 674.8372 674.8537 674.9911 674.9823 674.7668 674.574 674.4791 674.4712 674.5499 674.7363 674.9564 675.0256 675.1924 675.4578 675.4614 675.3555 675.119 675.0394 675.1191 675.2778 675.3906 675.5316 675.7784 675.8466 675.8989 676.0377 675.9219 675.7803 675.363 675.0162 674.8816 674.8613 674.8602 674.7637 674.5806 674.324 673.9944 673.6184 673.2358 672.9899 672.7705 672.5522 672.3023 672.0248 671.7754 671.4957 671.2223 671.0014 670.8018 670.5974 670.3669 670.1515 669.9982 669.8272 669.5903 669.3447 669.1469 668.9912 668.7722 668.5675 668.385 668.2291 668.1033 668.0001 667.8762 667.7483 667.6265 667.5144 667.4147 667.3293 667.2593 667.2085 667.1763 667.1566 667.1523 667.167 667.1873 667.1979 667.2062 667.2234 667.2415 667.2354 667.1924 667.1396 667.1254 667.1773 667.2736 667.3529 667.3832 667.3708 667.3564 667.4112 667.6102 668.0613 668.8969 669.8821 671.069 672.3265 673.2162 673.0767 672.1066 671.2597 670.5143 670.0618 669.9946 669.9984 669.9934 670.0089 670.0009 669.9015 669.623 669.3356 669.1429 669.0796 669.0627 669.0789 669.1012 669.1213 669.142 669.1683 669.1981 669.2236 669.2393 669.2514 669.2764 669.3246 669.3929 669.4684 669.5391 669.6011 669.6516 669.6829 669.6859 669.655 669.5947 669.5175 669.4359 669.3592 669.2939 669.2449 669.214 669.1997 669.1997 669.2075 669.2125 669.2039 669.1747 669.1434 669.1541 669.2128 669.3915 669.6543 669.9758 670.2789 670.7748 670.976 670.8584 670.8345 671.0098 671.3287 671.673 671.9828 672.1291 672.3176 672.587 672.9715 673.465 673.9551 674.4301 674.9749 675.2762 675.4542 675.6484 676.0015 676.6483 677.6699 679.1586 681.0684 682.7493 683.8948 684.5951 -9999 -9999 -9999 -9999 -9999 -9999 -9999 -9999 -9999 -9999 -9999 -9999 -9999 -9999 -9999 -9999 -9999
-9999 -9999 -9999 -9999 -9999 -9999 -9999 -9999 -9999 -9999 -9999 -9999 -9999 -9999 -9999 -9999 -9999 -9999 -9999 -9999 -9999 -9999 -9999 -9999 -9999 -9999 -9999 -9999 -9999 -9999 -9999 -9999 -9999 -9999 -9999 -9999 -9999 -9999 -9999 -9999 -9999 -9999 -9999 -9999 -9999 -9999 -9999 -9999 -9999 682.3239 682.2191 681.77 680.986 679.9828 678.9467 678.0987 677.498 676.937 676.3713 675.9294 675.7446 675.6743 675.5569 675.2795 675.0282 674.8229 674.6904 674.6032 674.533 674.4941 674.4677 674.4514 674.485 674.5735 674.7044 674.8593 675.0109 675.1417 675.2389 675.3015 675.3325 675.3502 675.3507 675.328 675.2869 675.2371 675.1827 675.1262 675.0751 675.0359 674.9999 674.9359 674.8911 674.8888 674.9218 674.9675 675 675 675 674.9999 675 674.9867 674.9677 674.9349 674.9383 674.9993 675.0334 675.0147 674.9782 674.9487 674.9957 674.9874 675.0145 675.2322 675.413 675.2952 675.1893 675.1605 675.1567 675.1956 675.3572 675.5851 675.6998 676.0728 676.4163 676.3474 676.2372 676.0463 675.8991 675.9604 675.9305 675.9951 676.0399 676.1152 676.0899 676.2102 676.5795 676.2419 675.9897 675.572 675.2 675.0011 674.9636 674.9982 674.9014 674.7176 674.4529 674.0537 673.614 673.0615 672.7662 672.5514 672.3588 672.1616 671.9701 671.6411 671.3107 671.0209 670.8312 670.6473 670.4521 670.2351 670.009 669.8525 669.6577 669.4138 669.1708 669.0005 668.8594 668.6798 668.4941 668.3223 668.177 668.0686 667.9985 667.8677 667.7309 667.6016 667.4847 667.3816 667.2939 667.2227 667.1696 667.1361 667.1177 667.1127 667.1241 667.1449 667.1606 667.1732 667.1923 667.2147 667.222 667.1983 667.1569 667.1392 667.1824 667.2805 667.381 667.447 667.4823 667.5127 667.5789 667.7423 668.09 668.7748 669.5178 670.2106 671.0885 672.0569 672.1966 671.4586 670.714 670.0916 669.7966 669.7678 669.8335 669.9148 670.0009 670.0732 669.9666 669.5627 669.2065 669.0049 668.999 669.0001 669.0362 669.0695 669.0978 669.1202 669.1434 669.1716 669.2016 669.2273 669.2473 669.2698 669.3079 669.3672 669.4405 669.5153 669.5825 669.6403 669.6846 669.7089 669.7042 669.6669 669.6047 669.5321 669.4616 669.4005 669.3538 669.323 669.3076 669.306 669.3146 669.3247 669.3286 669.3247 669.3289 669.3737 669.4839 669.6998 670.0304 670.4901 670.9698 671.4835 671.6986 671.2807 671.0847 671.2085 671.438 671.686 671.8928 672.0045 672.1842 672.4175 672.7224 673.0943 673.6293 674.1857 674.9174 675.2791 675.4678 675.6545 675.9973 676.6379 677.705 679.3578 681.3947 683.2167 684.4558 685.1494 -9999 -9999 -9999 -9999 -9999 -9999 -9999 -9999 -9999 -9999 -9999 -9999 -9999 -9999 -9999 -9999 -9999
-9999 -9999 -9999 -9999 -9999 -9999 -9999 -9999 -9999 -9999 -9999 -9999 -9999 -9999 -9999 -9999 -9999 -9999 -9999 -9999 -9999 -9999 -9999 -9999 -9999 -9999 -9999 -9999 -9999 -9999 -9999 -9999 -9999 -9999 -9999 -9999 -9999 -9999 -9999 -9999 -9999 -9999 -9999 -9999 -9999 -9999 -9999 -9999 681.154 680.8636 680.6588 680.2288 679.5422 678.6187 677.7267 677.1326 676.6481 676.335 675.9871 675.625 675.3782 675.2509 675.16 675.0299 674.9316 674.7807 674.6757 674.6055 674.532 674.4845 674.4619 674.4675 674.5259 674.6531 674.8359 675.0432 675.2411 675.3977 675.5029 675.5577 675.5723 675.5547 675.5206 675.469 675.4022 675.3279 675.2511 675.1741 675.1055 675.0507 674.9994 674.9001 674.8303 674.8244 674.8756 674.9485 675 675.0043 674.9597 674.9378 674.9686 675.0002 674.9994 674.916 674.8598 674.8979 674.9948 674.9992 674.9995 674.9943 675.0776 675.2484 675.5474 676.0599 676.7913 676.7236 676.7086 676.7941 676.7922 676.6761 676.5079 676.4634 676.5303 676.8836 677.2993 677.6027 677.671 677.5146 677.2077 676.9606 676.8609 676.9339 676.8186 676.6432 676.3522 676.3874 677.1863 676.8207 676.2624 675.7252 675.3173 675.0823 675.0003 675.0291 674.999 674.8732 674.7003 674.3373 673.8157 673.0718 672.6567 672.4066 672.2139 672.0094 671.8041 671.4915 671.1827 670.9835 670.7559 670.557 670.3713 670.1864 669.9979 669.7899 669.5488 669.2776 669.0117 668.8666 668.7336 668.5775 668.4109 668.2509 668.1118 668.0014 667.9363 667.8295 667.7046 667.5792 667.4629 667.3594 667.2705 667.1983 667.1436 667.1078 667.089 667.0841 667.0938 667.1136 667.1324 667.1484 667.1706 667.1974 667.2157 667.2103 667.1831 667.1658 667.1985 667.2919 667.4111 667.5094 667.5975 667.6937 667.8199 668.0005 668.3994 668.9636 669.6467 670.2607 670.1183 670.7173 670.7917 670.4008 670.0215 669.6948 669.5388 669.5464 669.6425 669.7701 669.9001 669.9764 669.7338 669.3212 669.011 668.8932 668.9039 668.9434 668.9998 669.0359 669.0721 669.0997 669.121 669.1444 669.1725 669.203 669.2324 669.2606 669.2962 669.3478 669.4166 669.4935 669.5664 669.6289 669.6801 669.7172 669.7343 669.7231 669.6837 669.6284 669.5703 669.5182 669.4766 669.4487 669.4352 669.4361 669.4493 669.4678 669.4854 669.5015 669.5338 669.6119 669.7605 670.0069 670.3955 670.917 671.4393 671.945 672.0906 671.9023 671.649 671.5817 671.6478 671.7719 671.8962 671.9988 672.136 672.3403 672.6217 672.9957 673.498 674.1071 674.9008 675.2908 675.4836 675.6622 675.9984 676.657 677.787 679.5736 681.7525 683.7089 685.07 685.8039 -9999 -9999 -9999 -9999 -9999 -9999 -9999 -9999 -9999 -9999 -9999 -9999 -9999 -9999 -9999 -9999 -9999
-9999 -9999 -9999 -9999 -9999 -9999 -9999 -9999 -9999 -9999 -9999 -9999 -9999 -9999 -9999 -9999 -9999 -9999 -9999 -9999 -9999 -9999 -9999 -9999 -9999 -9999 -9999 -9999 -9999 -9999 -9999 -9999 -9999 -9999 -9999 -9999 -9999 -9999 -9999 -9999 -9999 -9999 -9999 -9999 -9999 -9999 -9999 680.8589 680.2341 680.0149 679.7464 679.2957 678.6486 677.7943 677.0987 676.4982 676.0842 675.933 675.6989 675.4355 675.1888 675.0202 674.9076 674.8145 674.7458 674.6649 674.6031 674.5602 674.5186 674.4891 674.4838 674.5212 674.6195 674.785 675.0087 675.2548 675.4789 675.6484 675.7462 675.7795 675.7639 675.7162 675.6481 675.5723 675.4932 675.4132 675.3313 675.243 675.1592 675.0839 675.0002 674.8898 674.7996 674.7881 674.8514 674.9448 675.0116 674.9987 674.9006 674.8717 674.9744 675.1137 675.1469 675.0085 674.8423 674.7893 674.825 674.8971 675.0637 675.314 675.7001 676.2025 676.8341 677.6208 678.3181 678.6439 678.9521 679.3099 679.4334 679.1954 678.7999 678.6067 678.6677 678.9924 679.4409 679.8451 679.9903 679.8449 679.4808 679.0882 678.7415 678.434 678.0775 677.7122 677.2587 676.7863 676.4591 677.3992 676.4336 675.7875 675.3698 675.1371 675.0529 675.0653 675.0673 675.0095 674.9766 674.6176 673.9357 673.0941 672.6107 672.3407 672.1669 671.9949 671.7202 671.3693 671.0223 670.844 670.6581 670.4785 670.3126 670.1586 669.9996 669.7653 669.499 669.2327 668.9987 668.8198 668.6613 668.5007 668.3394 668.1882 668.0668 667.9988 667.9034 667.7953 667.6787 667.561 667.4492 667.3481 667.2598 667.1871 667.1312 667.0931 667.0721 667.0664 667.0752 667.0946 667.1151 667.1333 667.1573 667.1884 667.2157 667.2266 667.2161 667.2031 667.2252 667.3058 667.4299 667.5521 667.6749 667.8148 667.991 668.1208 668.4929 669.0142 669.5047 669.7623 669.627 669.7409 669.7451 669.6293 669.4893 669.359 669.3007 669.3306 669.4283 669.546 669.6371 669.6282 669.3948 669.0424 668.8767 668.8219 668.8453 668.8984 668.9575 669.0001 669.0453 669.0786 669.1006 669.1193 669.1417 669.1705 669.2043 669.2414 669.2816 669.3317 669.3964 669.4736 669.5525 669.6219 669.6781 669.7221 669.7521 669.7621 669.7469 669.7131 669.6737 669.6366 669.6056 669.5846 669.5764 669.5829 669.6036 669.6317 669.661 669.6849 669.729 669.8301 669.9976 670.2404 670.5887 671.028 671.5371 671.9887 672.1522 672.0918 671.9885 671.868 671.8404 671.8785 671.9402 672.0006 672.1265 672.3234 672.6055 672.9891 673.4728 674.0976 674.9034 675.3063 675.5004 675.6714 676.0048 676.6954 677.8911 679.7695 682.0391 684.0613 685.446 685.9528 -9999 -9999 -9999 -9999 -9999 -9999 -9999 -9999 -9999 -9999 -9999 -9999 -9999 -9999 -9999 -9999 -9999
-9999 -9999 -9999 -9999 -9999 -9999 -9999 -9999 -9999 -9999 -9999 -9999 -9999 -9999 -9999 -9999 -9999 -9999 -9999 -9999 -9999 -9999 -9999 -9999 -9999 -9999 -9999 -9999 -9999 -9999 -9999 -9999 -9999 -9999 -9999 -9999 -9999 -9999 -9999 -9999 -9999 -9999 -9999 -9999 -9999 -9999 -9999 680.1719 679.8358 679.7063 679.2705 678.6591 677.9301 677.193 676.5333 676.0262 675.7257 675.5853 675.4182 675.272 675.1162 674.967 674.8456 674.7477 674.6744 674.6155 674.5771 674.5536 674.5343 674.5233 674.5399 674.6091 674.7495 674.9606 675.2191 675.4873 675.719 675.8778 675.9529 675.9523 675.9 675.8181 675.7252 675.6359 675.5616 675.5056 675.4512 675.3717 675.2912 675.2202 675.1319 675.0021 674.8685 674.8313 674.8778 674.9573 674.9997 674.9041 674.8055 674.8356 675.0637 675.3947 675.5732 675.4329 675.1206 674.9985 675.0408 675.2808 675.8248 676.6852 677.6121 678.5572 679.4855 680.3774 681.1525 681.6849 682.1494 682.5692 682.7406 682.4421 681.9592 681.6895 681.7104 681.9581 682.3281 682.6416 682.7338 682.5331 682.1255 681.6497 681.1177 680.5542 679.9326 679.3408 678.6559 677.8595 677.0407 676.818 676.2291 675.757 675.4022 675.1897 675.1119 675.1305 675.1779 675.2051 675.1763 674.8565 674.0202 673.1118 672.5917 672.3103 672.149 671.9968 671.6907 671.3308 671.0023 670.7804 670.5853 670.4065 670.2471 670.1101 669.9903 669.7317 669.4534 669.2018 669.0006 668.8071 668.6259 668.453 668.2878 668.1339 668.0013 667.938 667.8568 667.7603 667.6554 667.5482 667.444 667.3477 667.2621 667.1896 667.1329 667.0928 667.0689 667.0607 667.0678 667.0872 667.1094 667.1295 667.1543 667.1871 667.2209 667.245 667.252 667.2487 667.2631 667.3261 667.4356 667.5674 667.6843 667.8101 667.9213 668.0199 668.3707 668.7886 669.1305 669.2676 669.1915 669.1462 669.0802 669.1442 669.1545 669.1285 669.1161 669.1396 669.2228 669.3091 669.3588 669.325 669.1719 668.995 668.8594 668.8118 668.8297 668.8807 668.9426 668.9998 669.0289 669.0566 669.0793 669.0959 669.1132 669.136 669.1681 669.2094 669.2576 669.3121 669.3768 669.4537 669.5375 669.6161 669.6802 669.73 669.7676 669.7905 669.7941 669.7811 669.7616 669.7432 669.7276 669.7181 669.7185 669.7324 669.7615 669.7979 669.8401 669.8563 669.8886 669.9988 670.1611 670.3834 670.674 671.0198 671.4293 671.8005 671.9969 672.0023 672.0075 671.9655 671.9434 671.9578 671.9997 672.0397 672.1467 672.3348 672.614 672.9945 673.474 674.1005 674.9075 675.32 675.5179 675.6843 676.0118 676.7202 677.9508 679.8188 682.1059 684.1337 685.4423 685.5508 -9999 -9999 -9999 -9999 -9999 -9999 -9999 -9999 -9999 -9999 -9999 -9999 -9999 -9999 -9999 -9999 -9999
-9999 -9999 -9999 -9999 -9999 -9999 -9999 -9999 -9999 -9999 -9999 -9999 -9999 -9999 -9999 -9999 -9999 -9999 -9999 -9999 -9999 -9999 -9999 -9999 -9999 -9999 -9999 -9999 -9999 -9999 -9999 -9999 -9999 -9999 -9999 -9999 -9999 -9999 -9999 -9999 -9999 -9999 -9999 -9999 -9999 -9999 680.6688 679.9832 679.8479 679.7906 678.9873 677.9724 677.173 676.5263 676.0126 675.67 675.4791 675.3733 675.2651 675.1447 675.0437 674.9556 674.8662 674.7798 674.7072 674.6521 674.6199 674.6027 674.592 674.5913 674.6244 674.7216 674.8999 675.1505 675.4388 675.7173 675.9384 676.0695 676.1045 676.062 675.9716 675.8617 675.7548 675.6681 675.6189 675.6231 675.648 675.6066 675.5616 675.5377 675.4805 675.35 675.1428 675.0443 674.9994 674.9998 674.9569 674.8461 674.7827 674.9048 675.2843 675.8755 676.3467 676.3126 675.9567 675.7788 675.9852 676.5756 677.5873 679.0166 680.5828 682.048 683.2881 684.241 684.9319 685.3994 685.7957 686.1478 686.2722 685.9597 685.4761 685.1757 685.1362 685.2751 685.4714 685.5704 685.4686 685.1001 684.5594 683.9749 683.3371 682.6833 681.9226 681.1292 680.2337 679.2065 678.0397 677.0968 676.6661 675.9991 675.5667 675.3072 675.2003 675.2061 675.2626 675.3081 675.2522 674.9102 674.0393 673.1158 672.5794 672.2807 672.1106 671.9796 671.6479 671.297 671.0031 670.7517 670.53 670.3356 670.1647 670.0059 669.8706 669.6355 669.3684 669.1356 668.9933 668.7934 668.6019 668.425 668.2629 668.1186 667.9998 667.912 667.8266 667.7352 667.6394 667.5424 667.4473 667.3573 667.2761 667.2056 667.1486 667.1066 667.0802 667.0686 667.0723 667.09 667.114 667.137 667.162 667.1953 667.2319 667.2645 667.2867 667.2973 667.3116 667.3572 667.4473 667.5626 667.6812 667.7877 667.8887 668.0005 668.2434 668.5301 668.7688 668.8862 668.8846 668.8756 668.8973 668.9997 669.0336 669.0233 669.0134 669.0012 669.0675 669.1172 669.1367 669.1069 669.0026 668.9215 668.8518 668.824 668.8377 668.8782 668.9287 668.9736 669 669.0271 669.0523 669.0717 669.0869 669.1049 669.131 669.1703 669.2225 669.2843 669.3537 669.4323 669.5193 669.606 669.681 669.7395 669.7839 669.8152 669.8314 669.8336 669.8303 669.8287 669.8297 669.834 669.8449 669.8649 669.9005 669.9345 669.998 669.9994 670.0025 670.1141 670.2701 670.466 670.7064 670.9855 671.245 671.5532 671.7776 671.8835 671.9474 671.9669 671.9727 671.9831 672.0001 672.0585 672.1685 672.3519 672.6245 672.9973 673.4757 674.1015 674.9091 675.3326 675.5383 675.7014 676.0096 676.6761 677.8412 679.6615 681.8213 683.6548 684.6863 684.5865 -9999 -9999 -9999 -9999 -9999 -9999 -9999 -9999 -9999 -9999 -9999 -9999 -9999 -9999 -9999 -9999 -9999
-9999 -9999 -9999 -9999 -9999 -9999 -9999 -9999 -9999 -9999 -9999 -9999 -9999 -9999 -9999 -9999 -9999 -9999 -9999 -9999 -9999 -9999 -9999 -9999 -9999 -9999 -9999 -9999 -9999 -9999 -9999 -9999 -9999 -9999 -9999 -9999 -9999 -9999 -9999 -9999 -9999 -9999 -9999 -9999 -9999 -9999 680.9412 680.2972 680.1454 679.8361 678.8122 677.5018 676.4716 675.9567 675.6107 675.4167 675.3298 675.277 675.2174 675.1384 675.0505 674.9731 674.9069 674.838 674.7735 674.7261 674.6979 674.6838 674.6758 674.6808 674.7257 674.8441 675.0504 675.329 675.634 675.9099 676.1068 676.1987 676.1874 676.101 675.9792 675.8565 675.7562 675.6934 675.6835 675.783 675.9556 675.9975 676.0436 676.1269 676.1072 675.9889 675.8371 675.6115 675.2441 675.1166 675.0425 674.9673 674.9672 675.1687 675.6766 676.5063 677.3801 677.554 677.174 677.049 677.519 678.4844 679.9779 681.9053 683.976 685.8619 687.3477 688.3243 688.8566 689.1052 689.2951 689.5298 689.6123 689.3303 688.9116 688.6459 688.5895 688.6473 -9999 -9999 -9999 687.4095 686.601 685.8198 685.0971 684.4579 683.6845 682.7719 681.7693 680.6854 679.472 678.2078 677.1895 676.376 675.8812 675.5255 675.34 675.2894 675.3031 675.3055 675.1964 674.8303 674.0001 673.1072 672.5701 672.2412 672.0078 671.8191 671.5153 671.1998 670.9818 670.7094 670.4685 670.2667 670.1068 669.9929 669.791 669.5391 669.2651 669.0103 668.8896 668.7367 668.5675 668.4013 668.2484 668.1136 667.9999 667.9025 667.812 667.7224 667.6328 667.5442 667.458 667.3757 667.2997 667.2328 667.1769 667.1339 667.1052 667.0908 667.0901 667.104 667.1277 667.1532 667.1797 667.213 667.2508 667.2875 667.3193 667.3441 667.3653 667.4017 667.4709 667.5699 667.6784 667.7825 667.888 667.9999 668.1387 668.3151 668.483 668.6023 668.6721 668.7413 668.8489 668.9979 669.0258 669.0001 668.9999 668.9778 668.9998 669.0002 669.0005 668.9997 668.9468 668.9008 668.8647 668.8503 668.8594 668.8868 668.9225 668.9554 668.9786 669 669.0238 669.0455 669.0619 669.0767 669.0981 669.1323 669.183 669.2485 669.3244 669.4075 669.4974 669.59 669.6751 669.7448 669.798 669.8378 669.8629 669.8751 669.882 669.8914 669.9048 669.921 669.9403 669.959 669.9994 670.0007 670.0606 670.0935 670.1291 670.2229 670.3534 670.5087 670.6823 670.8602 671.0248 671.3306 671.5867 671.7572 671.8689 671.9333 671.9706 672 672.0257 672.0861 672.1945 672.3711 672.6341 672.9983 673.475 674.1008 674.9097 675.3452 675.5624 675.7246 676.0039 676.5875 677.6295 679.2733 681.1951 682.7679 683.5272 683.2114 -9999 -9999 -9999 -9999 -9999 -9999 -9999 -9999 -9999 -9999 -9999 -9999 -9999 -9999 -9999 -9999 -9999
-9999 -9999 -9999 -9999 -9999 -9999 -9999 -9999 -9999 -9999 -9999 -9999 -9999 -9999 -9999 -9999 -9999 -9999 -9999 -9999 -9999 -9999 -9999 -9999 -9999 -9999 -9999 -9999 -9999 -9999 -9999 -9999 -9999 -9999 -9999 -9999 -9999 -9999 -9999 -9999 -9999 -9999 -9999 -9999 -9999 683.0222 681.8156 681.3444 681.0977 680.3438 678.8627 677.3009 676.1534 675.6228 675.394 675.303 675.2731 675.2535 675.2347 675.1963 675.1355 675.0676 674.999 674.9324 674.8677 674.8163 674.7858 674.7698 674.7618 674.7704 674.8245 674.9575 675.1814 675.4728 675.7787 676.0371 676.1997 676.2468 676.1924 676.0725 675.936 675.826 675.7681 675.7643 675.7965 675.9998 676.3112 676.6113 676.8713 677.1686 677.0295 676.555 676.1184 676.1417 675.3868 675.2456 675.3149 675.3862 675.5164 675.7792 676.3171 677.1776 678.2174 678.9572 678.7042 678.9191 679.6346 680.8745 682.6517 684.8498 687.1713 689.2839 690.9219 691.9009 692.2642 692.2638 692.2289 692.3737 692.4391 692.2065 691.9009 -9999 -9999 -9999 -9999 -9999 -9999 -9999 -9999 -9999 686.5313 685.8941 685.1603 684.2016 683.1975 682.232 681.2101 679.9596 678.6038 677.3281 676.4309 675.8939 675.5641 675.4048 675.319 675.225 675.0117 674.5303 673.8575 673.0746 672.5741 672.2461 671.9952 671.7179 671.3776 671.0268 670.828 670.6002 670.3763 670.1778 670.0058 669.8822 669.6892 669.4562 669.2159 668.9999 668.8479 668.6946 668.5345 668.3778 668.2344 668.109 668 667.9009 667.8082 667.7198 667.6348 667.5532 667.475 667.401 667.3313 667.2688 667.2156 667.1731 667.1427 667.1259 667.1218 667.1308 667.1511 667.1769 667.2051 667.2386 667.2778 667.3159 667.3527 667.3868 667.4182 667.4542 667.5098 667.5905 667.6879 667.7908 667.8936 667.999 668.0656 668.163 668.2808 668.3973 668.5083 668.629 668.7718 668.9208 668.9991 668.9796 668.9636 668.947 668.9497 668.9495 668.9529 668.9562 668.9362 668.913 668.8934 668.8849 668.8888 668.9036 668.9254 668.9478 668.9662 668.9827 669 669.0197 669.0371 669.0503 669.0688 669.0999 669.1475 669.2122 669.2913 669.3794 669.4729 669.5693 669.6617 669.7417 669.8054 669.8541 669.8884 669.9083 669.9208 669.9348 669.953 669.9752 669.9999 670.0001 670.0376 670.0652 670.1189 670.1708 670.2292 670.3156 670.424 670.5472 670.6815 670.8274 670.9985 671.2389 671.4771 671.6693 671.81 671.9019 671.9573 671.9999 672.0471 672.116 672.2231 672.3916 672.6436 672.9987 673.473 674.0997 674.9103 675.3571 675.5868 675.7505 675.998 676.4716 677.351 678.7865 680.4405 681.7667 682.3546 682.0678 -9999 -9999 -9999 -9999 -9999 -9999 -9999 -9999 -9999 -9999 -9999 -9999 -9999 -9999 -9999 -9999 -9999
-9999 -9999 -9999 -9999 -9999 -9999 -9999 -9999 -9999 -9999 -9999 -9999 -9999 -9999 -9999 -9999 -9999 -9999 -9999 -9999 -9999 -9999 -9999 -9999 -9999 -9999 -9999 -9999 -9999 -9999 -9999 -9999 -9999 -9999 -9999 -9999 -9999 -9999 -9999 -9999 -9999 -9999 -9999 -9999 -9999 684.1844 683.1926 682.7769 682.1943 680.8742 678.9282 677.1364 675.993 675.4928 675.3551 675.3342 675.2889 675.2688 675.2693 675.2648 675.236 675.1846 675.1211 675.0497 674.9795 674.9191 674.8762 674.8494 674.8348 674.8425 674.9011 675.0419 675.2716 675.5618 675.8532 676.0833 676.2056 676.2117 676.1243 675.9913 675.8678 675.8048 675.8386 675.9699 676.0873 676.4944 677.0686 677.7537 678.3807 678.6512 678.0892 676.8182 675.5367 676.6764 675.4078 675.6697 675.9501 676.2623 676.6472 677.0211 677.5695 678.3387 679.2977 680.194 680.6999 681.324 682.1639 683.4135 685.1624 687.3066 689.5945 691.7376 693.4432 694.4312 694.7034 694.5652 694.3929 694.5008 694.546 -9999 -9999 -9999 -9999 -9999 -9999 -9999 -9999 -9999 -9999 -9999 -9999 -9999 -9999 -9999 684.6152 683.8535 683.0997 682.0741 680.6529 679.0151 677.5143 676.4735 675.912 675.5935 675.3524 675.1339 674.851 674.1995 673.6238 673.0199 672.577 672.2589 671.9968 671.679 671.3302 671.0013 670.7496 670.5091 670.2893 670.1125 669.993 669.8047 669.5929 669.3773 669.1791 669.0011 668.8319 668.6638 668.5002 668.3484 668.2146 668.1005 668 667.9039 667.8116 667.7247 667.6438 667.5684 667.4973 667.431 667.3689 667.3115 667.262 667.2216 667.191 667.1718 667.1652 667.1703 667.1861 667.2089 667.2365 667.2699 667.3103 667.3506 667.3889 667.428 667.4678 667.5081 667.5579 667.6238 667.7057 667.7958 667.8846 667.9581 668.0003 668.0686 668.1545 668.2598 668.3813 668.5173 668.6622 668.7956 668.8782 668.8955 668.897 668.8983 668.9095 668.9242 668.941 668.9536 668.951 668.9412 668.929 668.9208 668.9193 668.9242 668.9343 668.9475 668.9608 668.9731 668.9858 669 669.015 669.0243 669.0419 669.0732 669.1197 669.1828 669.2615 669.3519 669.4484 669.5474 669.6443 669.7316 669.8043 669.8617 669.9047 669.9326 669.9497 669.9642 669.9807 670 670.0242 670.0393 670.0726 670.1132 670.17 670.2339 670.3057 670.3904 670.4857 670.5889 670.7019 670.8334 670.9993 671.2056 671.4268 671.6276 671.7878 671.8976 671.9573 672.0004 672.0737 672.1532 672.2573 672.4149 672.6536 672.9987 673.4697 674.0982 674.9107 675.3651 675.605 675.772 675.9941 676.3643 677.0853 678.3641 679.7722 680.8906 681.4618 -9999 -9999 -9999 -9999 -9999 -9999 -9999 -9999 -9999 -9999 -9999 -9999 -9999 -9999 -9999 -9999 -9999 -9999
-9999 -9999 -9999 -9999 -9999 -9999 -9999 -9999 -9999 -9999 -9999 -9999 -9999 -9999 -9999 -9999 -9999 -9999 -9999 -9999 -9999 -9999 -9999 -9999 -9999 -9999 -9999 -9999 -9999 -9999 -9999 -9999 -9999 -9999 -9999 -9999 -9999 -9999 -9999 -9999 -9999 -9999 -9999 -9999 -9999 685.5732 684.7092 684.158 683.0792 681.1712 678.7952 676.8564 675.8303 675.4618 675.4283 675.3967 675.3678 675.3445 675.3333 675.3281 675.3143 675.2798 675.2246 675.1544 675.0787 675.0106 674.9569 674.9174 674.8914 674.8914 674.9456 675.0828 675.3055 675.5812 675.8484 676.0448 676.1307 676.1072 676.009 675.8911 675.8153 675.8335 675.9949 676.3113 676.7719 677.4938 678.4783 679.5836 680.4219 680.5581 679.6097 677.8976 676.1948 675.5551 675.9784 676.3471 676.9789 677.7552 678.574 679.3129 680.0424 680.8259 681.6959 682.5745 683.2957 684.0004 684.6866 685.6298 687.0103 688.7668 690.787 692.8195 694.5516 695.5594 695.8925 -9999 -9999 -9999 -9999 -9999 -9999 -9999 -9999 -9999 -9999 -9999 -9999 -9999 -9999 -9999 -9999 -9999 -9999 -9999 -9999 685.5118 684.9825 684.2327 682.955 681.1552 679.2014 677.4825 676.4048 675.8922 675.4251 675.0101 674.5986 674.0271 673.503 672.998 672.5731 672.2533 671.9973 671.6538 671.3032 671.0011 670.707 670.434 670.1982 670.0068 669.8757 669.6876 669.4751 669.2758 669.1213 668.9948 668.8063 668.6229 668.4543 668.3056 668.1822 668.0847 668.0001 667.9094 667.819 667.7345 667.6579 667.5885 667.5247 667.4654 667.4109 667.3599 667.3143 667.2769 667.2477 667.2272 667.2178 667.2201 667.2321 667.2511 667.2751 667.3065 667.3461 667.3898 667.4293 667.4703 667.5142 667.561 667.6091 667.6664 667.7334 667.8087 667.8842 667.9493 667.9999 668.0428 668.101 668.1838 668.2924 668.4185 668.5481 668.6625 668.7419 668.7827 668.8085 668.8345 668.8674 668.905 668.942 668.9689 668.9761 668.973 668.9631 668.9525 668.9458 668.9438 668.946 668.9516 668.9597 668.9688 668.9786 668.9893 669 669 669.0168 669.0516 669.101 669.1638 669.241 669.3307 669.4283 669.5289 669.6278 669.7195 669.7981 669.8621 669.9119 669.9468 669.9692 669.9856 670 670.0204 670.0446 670.0681 670.1025 670.1494 670.2108 670.2828 670.3624 670.4485 670.5379 670.63 670.7294 670.8477 670.9999 671.1921 671.4089 671.621 671.8031 671.9354 672.0003 672.0598 672.1309 672.2063 672.3011 672.4438 672.6658 672.9979 673.4641 674.0949 674.9091 675.365 675.6096 675.7802 675.9937 676.3206 676.9585 678.0875 679.3024 680.2725 680.9099 -9999 -9999 -9999 -9999 -9999 -9999 -9999 -9999 -9999 -9999 -9999 -9999 -9999 -9999 -9999 -9999 -9999 -9999
-9999 -9999 -9999 -9999 -9999 -9999 -9999 -9999 -9999 -9999 -9999 -9999 -9999 -9999 -9999 -9999 -9999 -9999 -9999 -9999 -9999 -9999 -9999 -9999 -9999 -9999 -9999 -9999 -9999 -9999 -9999 -9999 -9999 -9999 -9999 -9999 -9999 -9999 -9999 -9999 -9999 -9999 -9999 -9999 -9999 686.9759 686.0691 685.2227 683.7089 681.3694 678.7308 676.7075 675.7701 675.5236 675.5211 675.5009 675.4822 675.4681 675.4485 675.4214 675.3896 675.3515 675.2983 675.2284 675.1498 675.0748 675.0116 674.9613 674.9244 674.9136 674.9557 675.0777 675.2803 675.5302 675.7677 675.9342 675.9968 675.9657 675.8879 675.827 675.8486 675.9885 676.3443 676.9816 677.8948 679.0862 680.3959 681.6715 682.4742 682.3801 681.1993 679.3527 677.5956 676.654 676.7515 677.4792 678.6146 679.9227 681.2271 682.3544 683.2718 684.0226 684.694 685.3121 685.804 686.3559 686.6736 687.0834 687.8641 689.0414 -9999 -9999 -9999 -9999 -9999 -9999 -9999 -9999 -9999 -9999 -9999 -9999 -9999 -9999 -9999 -9999 -9999 -9999 -9999 -9999 -9999 -9999 -9999 -9999 -9999 -9999 686.7193 686.2712 685.2628 683.4808 681.2248 678.9525 677.1967 676.3005 675.6005 675.0087 674.5071 673.9788 673.4686 672.9881 672.5349 672.1884 671.9646 671.5843 671.222 670.9727 670.6497 670.3578 670.1289 669.9913 669.7947 669.5748 669.3456 669.1385 669.0001 668.88 668.7214 668.5516 668.3888 668.2453 668.1321 668.0559 667.9995 667.9116 667.8252 667.7461 667.6755 667.6127 667.556 667.504 667.4562 667.4124 667.3719 667.3375 667.3105 667.2904 667.2784 667.2775 667.2863 667.3022 667.3224 667.349 667.3856 667.4302 667.4733 667.5138 667.5597 667.6093 667.6616 667.7135 667.7712 667.8336 667.8965 667.9523 668 668.0447 668.0946 668.1598 668.2466 668.3498 668.4554 668.5483 668.619 668.6694 668.7133 668.7617 668.8187 668.8813 668.9424 668.9883 669 669 668.9883 668.9752 668.9644 668.9581 668.9561 668.9573 668.9612 668.9673 668.9742 668.9808 668.9856 668.9868 669 669.0381 669.0912 669.1559 669.2321 669.3196 669.4163 669.517 669.6168 669.7104 669.7927 669.8604 669.9138 669.9532 669.9801 670 670.0153 670.0363 670.0621 670.0909 670.1279 670.178 670.2429 670.3197 670.4045 670.4926 670.5806 670.6677 670.7581 670.8629 670.9999 671.1865 671.4073 671.6321 671.8357 671.9981 672.0686 672.1287 672.1942 672.2643 672.3512 672.4801 672.6826 672.9958 673.458 674.09 674.9037 675.3544 675.5977 675.7716 675.9958 676.3591 677.0208 678.1404 679.3303 680.1256 680.5894 -9999 -9999 -9999 -9999 -9999 -9999 -9999 -9999 -9999 -9999 -9999 -9999 -9999 -9999 -9999 -9999 -9999 -9999
-9999 -9999 -9999 -9999 -9999 -9999 -9999 -9999 -9999 -9999 -9999 -9999 -9999 -9999 -9999 -9999 -9999 -9999 -9999 -9999 -9999 -9999 -9999 -9999 -9999 -9999 -9999 -9999 -9999 -9999 -9999 -9999 -9999 -9999 -9999 -9999 -9999 -9999 -9999 -9999 -9999 -9999 -9999 -9999 -9999 688.2139 687.1465 685.9767 684.1812 681.5848 678.7887 676.709 675.845 675.7079 675.6503 675.6286 675.618 675.6019 675.5779 675.5366 675.4823 675.4234 675.3608 675.2871 675.2032 675.12 675.0459 674.9835 674.9344 674.9099 674.9344 675.0326 675.2059 675.424 675.6333 675.7813 675.8417 675.832 675.8124 675.8621 676.0626 676.3309 676.9987 678.0798 679.5143 681.0631 682.4694 683.5941 684.1041 683.6661 682.4219 680.6935 679.1449 678.3307 678.485 679.429 680.8687 682.5132 684.1198 685.4603 686.4107 687.0421 687.4178 687.6191 687.5562 687.9333 687.8796 687.7878 687.9963 -9999 -9999 -9999 -9999 -9999 -9999 -9999 -9999 -9999 -9999 -9999 -9999 -9999 -9999 -9999 -9999 -9999 -9999 -9999 -9999 -9999 -9999 -9999 -9999 -9999 -9999 -9999 -9999 -9999 687.3481 685.7319 683.3559 680.6902 678.34 676.8112 675.9518 675.1947 674.5914 674.0012 673.4823 672.9745 672.4586 672.0318 671.7963 671.4346 671.035 670.7974 670.5275 670.2531 670.0088 669.874 669.6941 669.4751 669.236 669.0073 668.8824 668.7655 668.6247 668.4694 668.3145 668.174 668.0634 668.0001 667.9548 667.8926 667.8243 667.7577 667.696 667.6406 667.5911 667.5461 667.5051 667.4678 667.4332 667.4027 667.3779 667.3589 667.3459 667.3412 667.3463 667.3595 667.3771 667.3989 667.4302 667.4719 667.5182 667.5593 667.6031 667.6548 667.709 667.7628 667.8155 667.8705 667.9237 667.9661 668.0002 668.0555 668.107 668.1617 668.2299 668.3105 668.3929 668.4655 668.5239 668.5737 668.6255 668.6879 668.7627 668.8458 668.9297 668.9999 669.016 669.0153 669 668.9857 668.9731 668.965 668.9618 668.9619 668.9643 668.9683 668.9734 668.9783 668.9824 668.9869 669 669.0382 669.0919 669.1576 669.2334 669.3192 669.4136 669.5134 669.613 669.7078 669.7921 669.8619 669.9164 669.9562 669.9827 670 670.0207 670.0459 670.0757 670.1094 670.1498 670.2019 670.269 670.3489 670.4368 670.5275 670.6166 670.7031 670.7894 670.8821 670.9995 671.1877 671.4161 671.6462 671.8476 672.0002 672.0969 672.1719 672.2421 672.3149 672.4037 672.5294 672.7159 672.9987 673.4708 674.0989 674.9003 675.3383 675.5756 675.7533 676.0024 676.4553 677.2253 678.3818 679.5658 680.2092 680.5416 680.631 -9999 -9999 -9999 -9999 -9999 -9999 -9999 -9999 -9999 -9999 -9999 -9999 -9999 -9999 -9999 -9999 -9999
-9999 -9999 -9999 -9999 -9999 -9999 -9999 -9999 -9999 -9999 -9999 -9999 -9999 -9999 -9999 -9999 -9999 -9999 -9999 -9999 -9999 -9999 -9999 -9999 -9999 -9999 -9999 -9999 -9999 -9999 -9999 -9999 -9999 -9999 -9999 -9999 -9999 -9999 -9999 -9999 -9999 -9999 -9999 -9999 -9999 689.1362 687.9182 686.5254 684.5101 681.7891 678.9416 676.8238 675.9964 675.8823 675.8115 675.7747 675.7523 675.7248 675.6857 675.6332 675.5643 675.4904 675.4171 675.3397 675.2533 675.1632 675.077 674.9994 674.9342 674.8919 674.8937 674.9624 675.1024 675.2894 675.4796 675.6285 675.7156 675.7585 675.8325 676.0401 676.6354 677.0009 678.1205 679.7817 681.6422 683.3302 684.5862 685.3102 685.3158 684.6234 683.3535 681.8755 680.6665 680.1846 680.5782 681.7066 683.2717 685.0215 686.6736 687.9291 688.5838 689.1031 689.2834 689.3003 689.1426 688.8755 688.4257 688.0008 -9999 -9999 -9999 -9999 -9999 -9999 -9999 -9999 -9999 -9999 -9999 -9999 -9999 -9999 -9999 -9999 -9999 -9999 -9999 -9999 -9999 -9999 -9999 -9999 -9999 -9999 -9999 -9999 -9999 -9999 -9999 687.578 685.268 682.4107 679.6525 677.6191 676.5999 675.7033 674.8878 674.1432 673.5785 672.9864 672.4456 672.0259 671.7921 671.4099 671.0002 670.7175 670.4597 670.2119 669.9979 669.8268 669.6414 669.4285 669.2042 668.9985 668.8361 668.6945 668.5502 668.4002 668.2513 668.1135 668.0007 667.9536 667.9197 667.8768 667.8261 667.7728 667.7211 667.6727 667.6296 667.5909 667.5564 667.5252 667.4964 667.4706 667.4488 667.4309 667.4177 667.4106 667.4116 667.421 667.4364 667.4554 667.4803 667.5171 667.5619 667.6063 667.6471 667.6951 667.7508 667.8062 667.8596 667.9133 667.9645 667.9999 668.0281 668.0731 668.1213 668.1708 668.2278 668.2935 668.3596 668.4169 668.4634 668.5065 668.5567 668.6219 668.703 668.7946 668.8862 668.9619 669 669.0142 669 668.9849 668.9723 668.9646 668.9624 668.9644 668.968 668.972 668.9768 668.9823 668.9893 669 669.0172 669.0529 669.1039 669.1678 669.243 669.3275 669.4202 669.5182 669.6173 669.7122 669.7979 669.8691 669.9237 669.9625 669.9874 670 670.0241 670.0526 670.0854 670.1235 670.1683 670.223 670.2917 670.3737 670.464 670.5573 670.6498 670.7403 670.83 670.9185 671.0045 671.2092 671.447 671.6772 671.8671 671.9997 672.1044 672.1923 672.2722 672.3549 672.4584 672.6033 672.8019 673.054 673.5673 674.1895 674.9299 675.3365 675.5579 675.7352 676.0057 676.5154 677.329 678.4887 679.6895 680.3605 680.7092 680.8751 -9999 -9999 -9999 -9999 -9999 -9999 -9999 -9999 -9999 -9999 -9999 -9999 -9999 -9999 -9999 -9999 -9999
-9999 -9999 -9999 -9999 -9999 -9999 -9999 -9999 -9999 -9999 -9999 -9999 -9999 -9999 -9999 -9999 -9999 -9999 -9999 -9999 -9999 -9999 -9999 -9999 -9999 -9999 -9999 -9999 -9999 -9999 -9999 -9999 -9999 -9999 -9999 -9999 -9999 -9999 -9999 -9999 -9999 -9999 -9999 -9999 -9999 689.606 688.257 686.7404 684.6583 681.9438 679.1295 677.0313 676.2522 676.1165 676.0126 675.9403 675.8834 675.8273 675.7628 675.6893 675.6093 675.528 675.4531 675.3796 675.2976 675.2064 675.1121 675.0195 674.9358 674.8726 674.849 674.8865 674.9943 675.1569 675.343 675.5201 675.6703 675.801 675.9878 676.2343 676.9045 678.1013 679.9299 682.1032 684.2153 685.8669 686.8299 687.0419 -9999 -9999 -9999 -9999 682.0471 681.941 682.5911 683.8451 685.3984 687.0592 688.5288 689.4 689.2288 689.838 690.3743 690.2478 689.8498 -9999 -9999 -9999 -9999 -9999 -9999 -9999 -9999 -9999 -9999 -9999 -9999 -9999 -9999 -9999 -9999 -9999 -9999 -9999 -9999 -9999 -9999 -9999 -9999 -9999 -9999 -9999 -9999 -9999 -9999 -9999 -9999 -9999 -9999 688.7761 686.6935 683.8768 680.9637 678.5946 677.1584 676.1155 675.2098 674.4528 673.7874 673.0342 672.4958 672.1563 671.9453 671.4735 671.0092 670.7181 670.4597 670.2123 669.9979 669.826 669.6373 669.4241 669.204 668.9995 668.817 668.6559 668.5038 668.3561 668.2157 668.092 667.9998 667.9471 667.913 667.8787 667.8395 667.7964 667.7523 667.7101 667.6718 667.6384 667.6089 667.5836 667.5603 667.5388 667.5205 667.505 667.4916 667.4832 667.4808 667.4863 667.4989 667.5156 667.5367 667.5658 667.6064 667.6514 667.6924 667.7341 667.7846 667.8394 667.8932 667.947 667.9999 668.0256 668.0493 668.0845 668.1267 668.1733 668.2268 668.2871 668.3469 668.3975 668.4368 668.4719 668.5144 668.5731 668.6495 668.7386 668.8297 668.9097 668.9663 668.9999 668.9893 668.9738 668.9627 668.958 668.9592 668.9645 668.9714 668.9778 668.9835 668.9904 669 669.0149 669.0377 669.074 669.1238 669.1855 669.259 669.3424 669.4336 669.5303 669.6285 669.7235 669.8098 669.882 669.9363 669.9736 670 670.0126 670.033 670.06 670.0932 670.1337 670.1824 670.2413 670.3123 670.396 670.4887 670.5848 670.6809 670.7778 670.8806 670.9978 671.0978 671.285 671.5139 671.7375 671.9123 672.0013 672.1071 672.2012 672.2884 672.3818 672.5056 672.6933 672.9736 673.2898 673.8286 674.4943 675.0533 675.3779 675.5599 675.7255 676.0068 676.5462 677.3813 678.5052 679.7756 680.6284 681.1331 681.4499 -9999 -9999 -9999 -9999 -9999 -9999 -9999 -9999 -9999 -9999 -9999 -9999 -9999 -9999 -9999 -9999 -9999
-9999 -9999 -9999 -9999 -9999 -9999 -9999 -9999 -9999 -9999 -9999 -9999 -9999 -9999 -9999 -9999 -9999 -9999 -9999 -9999 -9999 -9999 -9999 -9999 -9999 -9999 -9999 -9999 -9999 -9999 -9999 -9999 -9999 680.141 679.6777 679.7809 680.5716 682.0105 683.9193 685.9678 -9999 -9999 -9999 -9999 -9999 -9999 688.0918 686.5892 684.5919 682.0222 679.3393 677.3302 676.6118 676.4189 676.2286 676.0948 675.9951 675.9056 675.8125 675.7134 675.6151 675.5286 675.4592 675.3992 675.3317 675.248 675.1511 675.047 674.9454 674.8611 674.8132 674.8229 674.9034 675.0506 675.2484 675.4832 675.7467 676.0231 676.4623 676.9639 678.1772 680.0351 682.402 684.9153 687.1252 688.6268 689.233 -9999 -9999 -9999 -9999 -9999 -9999 -9999 -9999 685.5952 687.0262 -9999 -9999 -9999 -9999 -9999 -9999 -9999 -9999 -9999 -9999 -9999 -9999 -9999 -9999 -9999 -9999 -9999 -9999 -9999 -9999 -9999 -9999 -9999 -9999 -9999 -9999 -9999 -9999 -9999 -9999 -9999 -9999 -9999 -9999 -9999 -9999 -9999 -9999 -9999 -9999 -9999 -9999 -9999 687.6108 685.001 682.1311 679.592 677.7753 676.6743 675.694 674.7845 673.8987 673.0536 672.5234 672.2072 671.9714 671.5046 671.0428 670.7985 670.5286 670.2563 670.0103 669.8718 669.6743 669.4459 669.215 669 668.8081 668.6373 668.4811 668.336 668.2033 668.0885 668.0002 667.9604 667.9294 667.8992 667.8669 667.8304 667.7913 667.7527 667.7175 667.6873 667.6623 667.6411 667.6235 667.6063 667.5908 667.5779 667.566 667.5564 667.5522 667.5546 667.5642 667.579 667.5968 667.6205 667.6522 667.694 667.736 667.7739 667.8154 667.8629 667.9113 667.9574 668 668.0358 668.067 668.1005 668.1373 668.1791 668.2293 668.2878 668.3479 668.3993 668.4377 668.4682 668.5016 668.5482 668.6123 668.6904 668.7734 668.8503 668.9105 668.9476 668.9537 668.9492 668.9454 668.947 668.954 668.9641 668.9751 668.9846 668.9917 669 669.012 669.0304 669.0579 669.0967 669.1472 669.2085 669.2803 669.3622 669.4523 669.5475 669.6453 669.7404 669.8271 669.8998 669.9524 669.9827 670 670.0202 670.0419 670.0675 670.0993 670.1399 670.1912 670.2543 670.3296 670.416 670.5111 670.6099 670.7083 670.8046 670.8988 671.0002 671.1525 671.36 671.5927 671.8159 671.9968 672.0612 672.1343 672.215 672.2989 672.3922 672.5171 672.7093 673.0052 673.4318 674.0436 674.8098 675.2253 675.4482 675.577 675.7225 676.0062 676.5573 677.4159 678.5999 679.9836 681.1377 681.9863 682.5292 -9999 -9999 -9999 -9999 -9999 -9999 -9999 -9999 -9999 -9999 -9999 -9999 -9999 -9999 -9999 -9999 -9999
-9999 -9999 -9999 -9999 -9999 -9999 -9999 -9999 -9999 -9999 -9999 -9999 -9999 -9999 -9999 -9999 -9999 -9999 -9999 -9999 -9999 -9999 -9999 -9999 -9999 -9999 -9999 -9999 -9999 -9999 -9999 -9999 679.7077 679.0599 678.4598 678.4574 679.1765 680.4941 682.2579 684.1987 686.0444 687.6174 688.7857 -9999 -9999 -9999 687.39 686.0128 684.2242 681.9041 679.4052 677.5166 676.9415 676.6101 676.3767 676.2007 676.0629 675.9442 675.8273 675.7084 675.596 675.5044 675.4426 675.4014 675.3564 675.2883 675.195 675.0835 674.967 674.8643 674.7972 674.7867 674.8486 674.9872 675.2014 675.5039 675.9238 676.3992 677.1712 678.2726 680.0911 682.5034 685.2593 687.9653 690.1666 691.4696 -9999 -9999 -9999 -9999 -9999 -9999 -9999 -9999 -9999 -9999 -9999 -9999 -9999 -9999 -9999 -9999 -9999 -9999 -9999 -9999 -9999 -9999 -9999 -9999 -9999 -9999 -9999 -9999 -9999 -9999 -9999 -9999 -9999 -9999 -9999 -9999 -9999 -9999 -9999 -9999 -9999 -9999 -9999 -9999 -9999 -9999 -9999 -9999 -9999 -9999 -9999 -9999 -9999 -9999 688.1901 685.8529 683.147 680.6149 678.602 677.2069 676.1114 675.0726 674.062 673.1754 672.6249 672.259 671.9716 671.5626 671.1958 670.9698 670.6526 670.3699 670.1429 669.9889 669.7364 669.4758 669.2272 669.0004 668.8041 668.6311 668.476 668.3364 668.2135 668.1117 668.0383 667.9999 667.9645 667.9336 667.9067 667.874 667.8371 667.7997 667.7658 667.7374 667.715 667.6976 667.6835 667.6714 667.6586 667.6476 667.6379 667.6293 667.6235 667.6238 667.631 667.644 667.6599 667.6788 667.7039 667.736 667.7752 667.8126 667.8477 667.8849 667.9242 667.962 668 668.0452 668.0901 668.1318 668.1696 668.2068 668.2505 668.3043 668.3634 668.4178 668.4596 668.4894 668.5161 668.5502 668.5983 668.6602 668.7295 668.7973 668.8542 668.8934 668.912 668.9198 668.9259 668.9352 668.9485 668.9641 668.9795 668.9923 669 669.0093 669.0232 669.0446 669.0757 669.1176 669.1702 669.2327 669.3046 669.3851 669.474 669.5684 669.6652 669.7601 669.8478 669.9221 669.9753 670 670.0155 670.0327 670.0525 670.0754 670.1045 670.1433 670.1952 670.2615 670.3412 670.432 670.5305 670.6331 670.7361 670.8361 670.9266 671.0042 671.1969 671.4272 671.6605 671.8612 671.9998 672.0814 672.1562 672.235 672.3163 672.4034 672.5164 672.6973 673.0029 673.4867 674.1169 674.9039 675.3015 675.4864 675.5865 675.7189 676.0016 676.5504 677.4197 678.6969 680.2881 681.7753 682.9164 683.6127 -9999 -9999 -9999 -9999 -9999 -9999 -9999 -9999 -9999 -9999 -9999 -9999 -9999 -9999 -9999 -9999 -9999
-9999 -9999 -9999 -9999 -9999 -9999 -9999 -9999 -9999 -9999 -9999 -9999 -9999 -9999 -9999 -9999 -9999 -9999 -9999 -9999 -9999 -9999 -9999 -9999 -9999 -9999 -9999 -9999 -9999 -9999 -9999 678.7604 678.7255 678.1156 677.5829 677.5453 678.1195 679.2499 680.7761 682.5075 684.2573 685.8239 687.0227 687.7532 687.9269 687.3419 686.3688 685.1512 683.5582 681.4961 679.2373 677.5511 677.0244 676.7144 676.4619 676.2502 676.0809 675.9403 675.807 675.6748 675.5555 675.4664 675.4167 675.3965 675.3768 675.3289 675.2435 675.1288 675.0021 674.8866 674.8085 674.7903 674.8469 674.9832 675.2007 675.521 676.0083 676.7854 677.9933 679.8052 682.2408 685.1222 688.1486 690.9343 693.0743 -9999 -9999 -9999 -9999 -9999 -9999 -9999 -9999 -9999 -9999 -9999 -9999 -9999 -9999 -9999 -9999 -9999 -9999 -9999 -9999 -9999 -9999 -9999 -9999 -9999 -9999 -9999 -9999 -9999 -9999 -9999 -9999 -9999 -9999 -9999 -9999 -9999 -9999 -9999 -9999 -9999 -9999 -9999 -9999 -9999 -9999 -9999 -9999 -9999 -9999 -9999 -9999 -9999 -9999 -9999 -9999 686.439 684.0484 681.7438 679.7689 678.1991 676.9554 675.7695 674.6528 673.72 673.0224 672.4801 672.0344 671.6489 671.2874 670.994 670.7122 670.4545 670.2163 670 669.7463 669.4844 669.2316 669.0004 668.8031 668.6321 668.4819 668.3499 668.2364 668.1443 668.0769 668.0338 668 667.9702 667.9534 667.923 667.8865 667.849 667.8149 667.7872 667.7667 667.7517 667.7407 667.7318 667.7228 667.7133 667.7055 667.6987 667.6935 667.6926 667.6979 667.7094 667.7243 667.7402 667.7592 667.783 667.8125 667.8474 667.8801 667.9109 667.9417 667.9714 668.0001 668.0542 668.1128 668.169 668.2174 668.2578 668.2974 668.3436 668.3976 668.4518 668.4968 668.5288 668.5525 668.5769 668.6099 668.6542 668.7069 668.762 668.8123 668.8514 668.8776 668.8951 668.9105 668.9268 668.9455 668.9652 668.984 669 669.0073 669.0168 669.0325 669.0564 669.0904 669.1354 669.1905 669.255 669.328 669.4089 669.4969 669.5903 669.6858 669.7795 669.8671 669.9429 669.9999 670.0195 670.0308 670.0441 670.0614 670.0825 670.1088 670.1449 670.1954 670.263 670.3461 670.4412 670.544 670.6513 670.762 670.8773 670.9982 671.093 671.2723 671.5001 671.7301 671.9125 672.0014 672.0986 672.1876 672.2754 672.3606 672.4429 672.538 672.6954 673.006 673.557 674.205 674.9427 675.3268 675.499 675.5895 675.7167 675.9963 676.539 677.3667 678.7227 680.4765 682.2072 683.5436 684.2136 -9999 -9999 -9999 -9999 -9999 -9999 -9999 -9999 -9999 -9999 -9999 -9999 -9999 -9999 -9999 -9999 -9999
-9999 -9999 -9999 -9999 -9999 -9999 -9999 -9999 -9999 -9999 -9999 -9999 -9999 -9999 -9999 -9999 -9999 -9999 -9999 -9999 -9999 -9999 -9999 -9999 -9999 -9999 -9999 -9999 -9999 -9999 -9999 678.0534 677.8744 677.3154 676.8298 676.8193 677.3037 678.1699 679.4009 680.8684 682.4553 683.9841 685.1952 685.98 686.3077 686.0022 685.2448 684.1573 682.668 680.7986 678.8865 677.873 677.2848 676.8561 676.5107 676.2377 676.0378 675.8875 675.7521 675.6182 675.5 675.4194 675.3865 675.3892 675.3948 675.3678 675.2923 675.1774 675.046 674.9265 674.8505 674.843 674.9169 675.0727 675.3071 675.6446 676.1853 677.2463 678.9112 681.3192 684.2752 687.5154 690.7169 -9999 -9999 -9999 -9999 -9999 -9999 -9999 -9999 -9999 -9999 -9999 -9999 -9999 -9999 -9999 -9999 -9999 -9999 -9999 -9999 -9999 -9999 -9999 -9999 -9999 -9999 -9999 -9999 -9999 -9999 -9999 -9999 -9999 -9999 -9999 -9999 -9999 -9999 -9999 -9999 -9999 -9999 -9999 -9999 -9999 -9999 -9999 -9999 -9999 -9999 -9999 -9999 -9999 -9999 -9999 -9999 -9999 -9999 686.8782 684.9107 682.9843 681.22 679.6528 678.2586 676.9625 675.7974 674.7679 673.8891 673.0968 672.4479 671.9369 671.4596 671.0389 670.7881 670.5471 670.2718 669.9991 669.7424 669.486 669.2332 669.0002 668.803 668.6366 668.494 668.3707 668.2656 668.1798 668.114 668.066 668.0286 668.0001 667.9999 667.9696 667.934 667.8962 667.8622 667.8351 667.8159 667.8032 667.7942 667.7876 667.7814 667.7744 667.7678 667.7631 667.7599 667.76 667.7645 667.7744 667.7878 667.8025 667.8164 667.8336 667.8541 667.8803 667.911 667.9404 667.9694 668 668.0304 668.0772 668.1351 668.198 668.2579 668.309 668.3527 668.3966 668.4456 668.4971 668.5434 668.5786 668.6029 668.6223 668.6444 668.6736 668.7102 668.7513 668.7924 668.8284 668.8575 668.8815 668.9031 668.9249 668.9468 668.9678 668.986 669 669.0096 669.0214 669.0391 669.0656 669.1024 669.1499 669.2079 669.2746 669.3493 669.431 669.5189 669.6111 669.7047 669.7955 669.8795 669.9503 670 670.0239 670.0366 670.0489 670.0652 670.0859 670.1115 670.1453 670.1937 670.2601 670.3444 670.4421 670.548 670.658 670.7703 670.8846 671.0007 671.134 671.323 671.556 671.7967 671.9965 672.0684 672.1497 672.2461 672.3495 672.4491 672.5364 672.6158 672.7361 673.045 673.7261 674.4714 675.0394 675.3602 675.5148 675.6069 675.7413 676.023 676.6042 677.2712 678.6904 680.5191 682.3255 683.7172 684.4149 -9999 -9999 -9999 -9999 -9999 -9999 -9999 -9999 -9999 -9999 -9999 -9999 -9999 -9999 -9999 -9999 -9999
-9999 -9999 -9999 -9999 -9999 -9999 -9999 -9999 -9999 -9999 -9999 -9999 -9999 -9999 -9999 -9999 -9999 -9999 -9999 -9999 -9999 -9999 -9999 -9999 -9999 -9999 -9999 -9999 -9999 -9999 678.0327 677.6671 677.2391 676.6522 676.1276 676.2503 676.8104 677.4005 678.2049 679.2917 680.6541 682.1371 683.4329 684.31 684.7522 684.6676 684.1096 683.1182 681.6225 679.7191 678.0839 677.9448 677.3928 676.8687 676.4442 676.1243 675.913 675.7764 675.6612 675.5441 675.4394 675.3739 675.3593 675.3823 675.4083 675.3981 675.3318 675.2189 675.0882 674.9756 674.9184 674.9452 675.067 675.2774 675.5674 675.9576 676.5626 677.7539 679.7882 682.5821 685.86 689.3251 692.6494 -9999 -9999 -9999 -9999 -9999 -9999 -9999 -9999 -9999 -9999 -9999 -9999 -9999 -9999 -9999 -9999 -9999 -9999 -9999 -9999 -9999 -9999 -9999 -9999 -9999 -9999 -9999 -9999 -9999 -9999 -9999 -9999 -9999 -9999 -9999 -9999 -9999 -9999 -9999 -9999 -9999 -9999 -9999 -9999 -9999 -9999 -9999 -9999 -9999 -9999 -9999 -9999 -9999 -9999 -9999 -9999 -9999 -9999 -9999 685.9484 684.3732 682.8965 681.533 680.2207 678.9152 677.6448 676.4967 675.3636 674.2584 673.2579 672.4604 671.8328 671.3066 670.9907 670.7111 670.3489 670.0027 669.7558 669.5031 669.2419 669.0001 668.8027 668.643 668.51 668.3962 668.2986 668.2171 668.1517 668.1012 668.0624 668.0355 668.0234 668 667.9722 667.9364 667.9037 667.8787 667.8616 667.8506 667.8435 667.8381 667.834 667.8292 667.8242 667.8212 667.8207 667.823 667.829 667.8384 667.8497 667.8616 667.8729 667.8837 667.8977 667.916 667.941 667.9702 668 668.0327 668.0682 668.1115 668.1631 668.2229 668.2859 668.3445 668.3955 668.4427 668.4911 668.5417 668.5897 668.6292 668.6575 668.6774 668.6946 668.7141 668.7381 668.7664 668.7969 668.8271 668.8551 668.881 668.9061 668.9305 668.9539 668.9743 668.9899 669 669.0116 669.0251 669.0444 669.073 669.1121 669.1624 669.2225 669.2917 669.3683 669.4509 669.5388 669.6295 669.7206 669.8081 669.8876 669.9539 670 670.022 670.0352 670.0477 670.0637 670.0847 670.1108 670.1443 670.1904 670.2548 670.3376 670.4355 670.5422 670.6531 670.7664 670.8822 671.0008 671.1373 671.3317 671.5698 671.8109 672.0003 672.0865 672.188 672.3148 672.4507 672.5811 672.6931 672.7734 672.8433 673.1384 673.9066 674.7081 675.1331 675.3911 675.5394 675.6573 675.8401 676.1827 676.9285 677.3865 678.7614 680.5215 682.241 683.5799 684.324 -9999 -9999 -9999 -9999 -9999 -9999 -9999 -9999 -9999 -9999 -9999 -9999 -9999 -9999 -9999 -9999 -9999
-9999 -9999 -9999 -9999 -9999 -9999 -9999 -9999 -9999 -9999 -9999 -9999 -9999 -9999 -9999 -9999 -9999 -9999 -9999 -9999 -9999 -9999 -9999 -9999 -9999 -9999 -9999 -9999 679.0724 678.802 678.0405 677.38 676.7969 676.1851 676.2811 676.9817 676.9923 677.1915 677.3077 677.8192 678.8679 680.2954 681.6934 682.7598 683.3534 683.4112 682.9517 682.0103 680.4435 678.5965 677.231 677.3234 677.0453 676.5947 676.2003 675.8881 675.697 675.6015 675.5328 675.4546 675.3792 675.3369 675.3417 675.3801 675.4171 675.4146 675.3527 675.2421 675.1177 675.0231 675.003 675.0886 675.2883 675.5826 675.9472 676.382 677.0276 678.3129 680.5132 683.4301 686.7943 690.3122 693.702 -9999 -9999 -9999 -9999 -9999 -9999 -9999 -9999 -9999 -9999 -9999 -9999 -9999 -9999 -9999 -9999 -9999 -9999 -9999 -9999 -9999 -9999 -9999 -9999 -9999 -9999 -9999 -9999 -9999 -9999 -9999 -9999 -9999 -9999 -9999 -9999 -9999 -9999 -9999 -9999 -9999 -9999 -9999 -9999 -9999 -9999 -9999 -9999 -9999 -9999 -9999 -9999 -9999 -9999 -9999 -9999 -9999 -9999 -9999 687.1968 685.8967 684.7529 683.7403 682.687 681.5162 680.2619 678.9818 677.6002 676.1221 674.6388 673.3411 672.3259 671.6509 671.2339 670.9193 670.4459 670.0345 669.8245 669.5559 669.2644 669.0007 668.8031 668.6528 668.5311 668.4268 668.3356 668.2567 668.1908 668.1373 668.0953 668.0642 668.0425 668.021 667.9999 667.9652 667.9364 667.9159 667.9026 667.8941 667.8878 667.8832 667.8796 667.8768 667.8738 667.8723 667.8742 667.8793 667.8879 667.8986 667.9091 667.9169 667.9235 667.931 667.9379 667.9504 667.972 668 668.0311 668.0673 668.1082 668.1533 668.2021 668.2562 668.3154 668.3744 668.4283 668.4781 668.5275 668.5784 668.6284 668.6725 668.7073 668.7323 668.7505 668.7666 668.7834 668.8022 668.8232 668.8459 668.8693 668.8936 668.9185 668.9436 668.9666 668.986 669 669.0081 669.0177 669.0311 669.051 669.0804 669.1211 669.1732 669.2357 669.307 669.3854 669.4692 669.5566 669.6459 669.7341 669.8177 669.8926 669.9551 669.9999 670.0151 670.0285 670.0427 670.0594 670.0803 670.1071 670.1406 670.1856 670.2471 670.327 670.4224 670.5273 670.6368 670.7495 670.8688 670.9975 671.1002 671.2987 671.5479 671.7977 671.9965 672.0638 672.2058 672.3826 672.5612 672.7288 672.8802 672.9905 673.011 673.3182 673.9294 674.5753 675.0715 675.3723 675.5536 675.7201 675.9869 676.4359 677.1597 677.7624 679.0247 680.5765 682.0558 683.236 -9999 -9999 -9999 -9999 -9999 -9999 -9999 -9999 -9999 -9999 -9999 -9999 -9999 -9999 -9999 -9999 -9999 -9999
-9999 -9999 -9999 -9999 -9999 -9999 -9999 -9999 -9999 -9999 -9999 -9999 -9999 -9999 -9999 -9999 -9999 -9999 -9999 -9999 -9999 -9999 -9999 -9999 -9999 -9999 -9999 678.8745 678.9556 678.4778 677.6773 676.9624 676.3783 675.9739 675.9869 676.322 676.503 676.5331 676.4619 676.5976 677.308 678.5402 679.9402 681.2094 681.938 682.075 681.6249 680.6938 679.2523 677.7634 676.8512 676.7025 676.5671 676.1585 675.8511 675.5749 675.4231 675.3827 675.3768 675.3546 675.3225 675.3109 675.3353 675.3833 675.4213 675.4153 675.3508 675.2422 675.1292 675.064 675.0984 675.2671 675.5715 675.9617 676.3702 676.9313 677.6154 679.0101 681.1382 683.8906 687.0593 690.3997 -9999 -9999 -9999 -9999 -9999 -9999 -9999 -9999 -9999 -9999 -9999 -9999 -9999 -9999 -9999 -9999 -9999 -9999 -9999 -9999 -9999 -9999 -9999 -9999 -9999 -9999 -9999 -9999 -9999 -9999 -9999 -9999 -9999 -9999 -9999 -9999 -9999 -9999 -9999 -9999 -9999 -9999 -9999 -9999 -9999 -9999 -9999 -9999 -9999 -9999 -9999 -9999 -9999 -9999 -9999 -9999 -9999 -9999 -9999 -9999 -9999 687.5261 686.7402 686.1333 685.4339 684.5246 683.4221 682.1408 680.5904 678.7322 676.6778 674.7766 673.2604 672.195 671.5053 670.9819 670.5125 670.1741 669.975 669.637 669.2933 669.0015 668.8077 668.6714 668.562 668.4653 668.3776 668.2992 668.231 668.1734 668.1259 668.0874 668.0558 668.0269 668 667.9762 667.9587 667.9468 667.9391 667.9333 667.9268 667.9218 667.9185 667.9165 667.9156 667.9158 667.9194 667.9268 667.9376 667.9497 667.9615 667.9655 667.9658 667.9704 667.973 667.9786 668 668.0277 668.0608 668.1 668.1454 668.1951 668.2462 668.2989 668.3545 668.4109 668.4645 668.5144 668.5631 668.6127 668.6624 668.7094 668.75 668.7818 668.805 668.8223 668.8368 668.8503 668.8646 668.8802 668.8968 668.9161 668.9382 668.9615 668.9829 669 669.011 669.0184 669.027 669.0399 669.0601 669.0902 669.1317 669.185 669.2489 669.3221 669.402 669.4866 669.5737 669.6611 669.7461 669.8252 669.8947 669.95 669.9861 670 670.019 670.0368 670.0549 670.0759 670.1016 670.1345 670.1781 670.2369 670.313 670.404 670.5044 670.6082 670.7125 670.8154 670.9132 671.0062 671.2375 671.5039 671.7568 671.9409 672.0082 672.2282 672.4581 672.6649 672.8422 672.9966 673.0803 673.1701 673.463 673.9816 674.5886 675.0801 675.3773 675.5598 675.735 676.0116 676.5041 677.2014 678.0272 679.2767 680.6931 681.9918 683.0962 -9999 -9999 -9999 -9999 -9999 -9999 -9999 -9999 -9999 -9999 -9999 -9999 -9999 -9999 -9999 -9999 -9999 -9999
-9999 -9999 -9999 -9999 -9999 -9999 -9999 -9999 -9999 -9999 -9999 -9999 -9999 -9999 -9999 -9999 -9999 -9999 -9999 -9999 -9999 -9999 -9999 679.4314 678.7907 678.2015 678.1313 678.4158 678.4091 677.7991 677.0361 676.4346 675.9567 675.6619 675.7218 675.9632 676.1345 676.0823 676.0162 676.1204 676.4882 677.1783 678.2751 679.5137 680.3563 680.5362 680.0731 679.1778 678.2919 677.4895 676.7567 676.3609 676.0904 675.7756 675.5287 675.2689 675.1648 675.1715 675.2209 675.255 675.271 675.2938 675.3374 675.3893 675.4196 675.4008 675.3275 675.2214 675.127 675.1044 675.213 675.4917 675.9391 676.4502 676.8964 677.4865 678.475 679.8327 681.6404 683.9707 686.7089 689.654 -9999 -9999 -9999 -9999 -9999 -9999 -9999 -9999 -9999 -9999 -9999 -9999 -9999 -9999 -9999 -9999 -9999 -9999 -9999 -9999 -9999 -9999 -9999 -9999 -9999 -9999 -9999 -9999 -9999 -9999 -9999 -9999 -9999 -9999 -9999 -9999 -9999 -9999 -9999 -9999 -9999 -9999 -9999 -9999 -9999 -9999 -9999 -9999 -9999 -9999 -9999 -9999 -9999 -9999 -9999 -9999 -9999 -9999 -9999 -9999 -9999 -9999 688.7969 688.5711 688.2188 687.5878 686.6899 685.4957 683.8763 681.7241 679.1846 676.6458 674.5439 672.9995 671.8953 671.0517 670.5377 670.2211 669.9945 669.6573 669.3016 669.0004 668.8254 668.7089 668.6096 668.5156 668.4266 668.3452 668.2727 668.2097 668.1556 668.1095 668.0692 668.0324 668 667.9839 667.9777 667.9741 667.9718 667.9691 667.96 667.954 667.9508 667.9492 667.9493 667.951 667.955 667.9634 667.9755 667.9855 668 668 667.9938 668 668 668 668.0234 668.0543 668.09 668.1313 668.1794 668.2324 668.2869 668.3414 668.3972 668.4536 668.5074 668.5574 668.6051 668.6522 668.6993 668.7455 668.7886 668.8256 668.8542 668.8748 668.8899 668.9015 668.9122 668.9227 668.9318 668.9441 668.9615 668.9817 669 669.0133 669.0226 669.03 669.0388 669.052 669.0727 669.1035 669.1456 669.1996 669.2646 669.3387 669.4197 669.5044 669.5908 669.6765 669.7581 669.8331 669.8983 669.9492 669.9827 670 670.0167 670.0343 670.0527 670.0729 670.0968 670.127 670.1678 670.2229 670.2947 670.3807 670.4757 670.574 670.6729 670.7725 670.8756 671.0003 671.2155 671.4774 671.7512 671.9936 672.1326 672.3436 672.5715 672.7688 672.9081 673.0018 673.1151 673.2639 673.564 674.074 674.814 675.2037 675.4272 675.5734 675.734 676.0076 676.4991 677.1843 678.0869 679.3124 680.6692 681.9367 -9999 -9999 -9999 -9999 -9999 -9999 -9999 -9999 -9999 -9999 -9999 -9999 -9999 -9999 -9999 -9999 -9999 -9999 -9999
-9999 -9999 -9999 -9999 -9999 -9999 -9999 -9999 -9999 -9999 -9999 -9999 -9999 -9999 -9999 -9999 -9999 -9999 -9999 -9999 -9999 678.996 678.8918 678.4693 677.8857 677.3847 677.5361 677.8267 677.604 676.9769 676.3945 676.1068 675.7037 675.6083 675.9885 676.7917 676.3041 676.0056 676.0504 676.1464 676.284 676.5928 677.1515 677.8278 678.4368 678.5707 678.2217 677.8671 678.281 677.6878 676.9346 676.3326 675.8842 675.5038 675.1906 675.0068 675.0022 675.0341 675.1029 675.1711 675.2259 675.2804 675.3408 675.3929 675.4103 675.3746 675.2906 675.1906 675.1268 675.1661 675.3763 675.8015 676.4496 677.2834 677.9238 678.6372 679.5861 680.6716 682.0256 683.8282 686.0239 -9999 -9999 -9999 -9999 -9999 -9999 -9999 -9999 -9999 -9999 -9999 -9999 -9999 -9999 -9999 -9999 -9999 -9999 -9999 -9999 -9999 -9999 -9999 -9999 -9999 -9999 -9999 -9999 -9999 -9999 -9999 -9999 -9999 -9999 -9999 -9999 -9999 -9999 -9999 -9999 -9999 -9999 -9999 -9999 -9999 -9999 -9999 -9999 -9999 -9999 -9999 -9999 -9999 -9999 -9999 -9999 -9999 -9999 -9999 -9999 -9999 -9999 -9999 690.8429 690.9248 690.836 690.4198 689.675 688.5773 686.9623 684.6508 681.7656 678.673 675.9635 673.8876 672.3395 671.1796 670.5808 670.2395 669.9922 669.6635 669.3167 669.0123 668.8765 668.7797 668.6801 668.5788 668.4822 668.3939 668.3154 668.2465 668.1866 668.1345 668.0889 668.0493 668.0176 668 668 668 668 668 667.9852 667.9792 667.9769 667.9762 667.9764 667.978 667.9811 667.9874 668 668 668.0088 668.0074 668 668.0109 668.0192 668.0287 668.052 668.0842 668.1212 668.1632 668.2115 668.2659 668.3225 668.3785 668.4354 668.4935 668.5504 668.6033 668.652 668.6976 668.7415 668.7843 668.826 668.8647 668.8966 668.9202 668.9365 668.947 668.9565 668.9657 668.9662 668.9708 668.9835 669 669.0143 669.0258 669.0348 669.0431 669.0531 669.0677 669.0896 669.1212 669.1642 669.219 669.2847 669.3594 669.4403 669.5247 669.6096 669.6928 669.7716 669.843 669.9051 669.9545 669.9869 670 670.0172 670.0342 670.0522 670.0713 670.0927 670.1191 670.1549 670.2049 670.2711 670.3516 670.441 670.535 670.6329 670.7384 670.8579 671.0016 671.1938 671.4388 671.7243 672.0008 672.2284 672.4637 672.6965 672.8892 672.9998 673.0714 673.1732 673.3384 673.6339 674.1161 674.8858 675.2692 675.461 675.5811 675.7294 676.005 676.5011 677.1841 678.0441 679.1516 680.45 681.7954 -9999 -9999 -9999 -9999 -9999 -9999 -9999 -9999 -9999 -9999 -9999 -9999 -9999 -9999 -9999 -9999 -9999 -9999 -9999
-9999 -9999 -9999 -9999 -9999 -9999 -9999 -9999 -9999 -9999 -9999 -9999 -9999 -9999 -9999 -9999 -9999 -9999 -9999 -9999 678.463 678.1486 677.9617 677.5651 677.0479 676.7365 676.9501 677.1768 676.8819 676.3066 676.132 676.6619 676.0023 676.0078 676.7421 676.777 676.1393 675.9855 676.1827 676.3428 676.3659 676.3932 676.5315 676.8103 677.1356 677.271 677.2202 677.2493 677.585 677.4698 676.9417 676.3879 675.8873 675.435 675.0258 674.9402 674.9996 675.0054 675.0457 675.1136 675.1872 675.264 675.3379 675.3888 675.3934 675.343 675.2533 675.1681 675.1508 675.2792 675.6393 676.2999 677.3279 678.4482 679.2624 679.9175 680.6371 681.3735 682.323 683.6961 -9999 -9999 -9999 -9999 -9999 -9999 -9999 -9999 -9999 -9999 -9999 -9999 -9999 -9999 -9999 -9999 -9999 -9999 -9999 -9999 -9999 -9999 -9999 -9999 -9999 -9999 -9999 -9999 -9999 -9999 -9999 -9999 -9999 -9999 -9999 -9999 -9999 -9999 -9999 -9999 -9999 -9999 -9999 -9999 -9999 -9999 -9999 -9999 -9999 -9999 -9999 -9999 -9999 -9999 -9999 -9999 -9999 -9999 -9999 -9999 -9999 -9999 -9999 -9999 -9999 -9999 693.1477 692.8357 692.1429 691.112 689.5565 687.2011 684.0903 680.5778 677.2918 674.6924 672.7451 671.3737 670.6906 670.278 669.9932 669.6925 669.3947 669.1431 668.9993 668.8915 668.7686 668.6486 668.5394 668.4427 668.3578 668.2837 668.2191 668.1631 668.1151 668.0756 668.0458 668.0289 668.0247 668.0232 668.0208 668.0145 668 668 668 668 668 668 668 668 668.0095 668.0131 668.0178 668.0184 668.0182 668.0281 668.0408 668.0571 668.0819 668.1147 668.1541 668.197 668.2441 668.2975 668.355 668.4121 668.4692 668.528 668.5875 668.645 668.6979 668.7451 668.7871 668.8258 668.8632 668.8993 668.9315 668.9564 668.9733 668.9806 668.9883 669 668.9913 668.9897 669 669.0137 669.0267 669.038 669.0479 669.0579 669.0702 669.087 669.111 669.1443 669.1885 669.2443 669.3105 669.3852 669.4657 669.5487 669.6313 669.7115 669.787 669.8551 669.9144 669.9637 670 670.012 670.0239 670.0377 670.0532 670.0702 670.0885 670.11 670.1396 670.1827 670.2418 670.3152 670.3979 670.4868 670.5829 670.6933 670.8283 670.9946 671.1398 671.363 671.676 672.0026 672.285 672.5449 672.7914 672.9962 673.0806 673.1415 673.2433 673.4291 673.74 674.2041 674.925 675.3019 675.4788 675.5818 675.7227 676.0064 676.5263 677.2139 678.0137 678.9965 680.1732 681.5736 682.9968 -9999 -9999 -9999 -9999 -9999 -9999 -9999 -9999 -9999 -9999 -9999 -9999 -9999 -9999 -9999 -9999 -9999 -9999
-9999 -9999 -9999 -9999 -9999 -9999 -9999 -9999 -9999 -9999 -9999 -9999 -9999 -9999 -9999 -9999 -9999 -9999 -9999 -9999 678.1312 677.6443 677.319 676.8997 676.3929 676.1141 676.3958 676.7227 676.3926 676.0463 676.7411 677.153 677.0638 677.063 677.321 676.7109 676.0527 675.8236 676.0552 676.3162 676.3802 676.3026 676.2205 676.2414 676.377 676.4712 676.5464 676.6812 676.8701 676.8768 676.698 676.3535 675.8932 675.4661 675.1217 674.9992 674.9881 675.001 675.0262 675.078 675.1527 675.2414 675.3256 675.3767 675.3728 675.3152 675.2316 675.1749 675.2181 675.4535 675.9976 676.9621 678.2553 679.5646 680.4539 680.962 681.4329 681.9603 682.6702 -9999 -9999 -9999 -9999 -9999 -9999 -9999 -9999 -9999 -9999 -9999 -9999 -9999 -9999 -9999 -9999 -9999 -9999 -9999 -9999 -9999 -9999 -9999 -9999 -9999 -9999 -9999 -9999 -9999 -9999 -9999 -9999 -9999 -9999 -9999 -9999 -9999 -9999 -9999 -9999 -9999 -9999 -9999 -9999 -9999 -9999 -9999 -9999 -9999 -9999 -9999 -9999 -9999 -9999 -9999 -9999 -9999 -9999 -9999 -9999 -9999 -9999 -9999 -9999 -9999 -9999 -9999 -9999 -9999 694.0563 693.042 691.5652 689.2171 685.9559 682.1161 678.3503 675.3029 673.0738 671.6423 670.8718 670.339 669.9982 669.744 669.4933 669.2692 669.1108 668.9965 668.8438 668.7078 668.5903 668.4881 668.3987 668.3207 668.2528 668.1946 668.1459 668.1071 668.0789 668.0618 668.054 668.0498 668.0452 668.0378 668.0282 668.0258 668.0248 668.0239 668.0228 668.0214 668.0199 668.0194 668.0238 668.0273 668.0309 668.0338 668.0384 668.0494 668.0651 668.0854 668.112 668.1451 668.1857 668.2312 668.2789 668.3304 668.3866 668.4441 668.5013 668.5598 668.6201 668.6809 668.7389 668.7902 668.8328 668.8683 668.9 668.9302 668.9591 668.983 669 669 669 669.0059 669 669 669.0118 669.0259 669.0392 669.0514 669.0628 669.0752 669.0902 669.1101 669.137 669.1728 669.219 669.2762 669.3431 669.4177 669.4969 669.5779 669.6573 669.7336 669.8047 669.8683 669.9229 669.9676 670 670.0172 670.0293 670.0418 670.0553 670.069 670.0829 670.0988 670.1215 670.1564 670.2065 670.2706 670.3442 670.4243 670.5121 670.6129 670.731 670.8643 671.0008 671.2214 671.5972 671.9975 672.2926 672.5532 672.8027 673.0016 673.1018 673.1798 673.3058 673.5404 673.9343 674.5049 675.0507 675.3635 675.5061 675.5862 675.7174 676.0139 676.5894 677.3324 678.0752 678.9397 679.9838 681.3825 682.8842 -9999 -9999 -9999 -9999 -9999 -9999 -9999 -9999 -9999 -9999 -9999 -9999 -9999 -9999 -9999 -9999 -9999 -9999
-9999 -9999 -9999 -9999 -9999 -9999 -9999 -9999 -9999 -9999 -9999 -9999 -9999 -9999 -9999 -9999 -9999 -9999 -9999 -9999 677.9868 677.3242 676.8975 676.4318 676.0274 675.8932 676.009 676.1934 676.2215 676.2612 677.0816 677.3959 677.4209 677.3761 677.0386 676.3037 675.8488 675.7363 675.781 676.0416 676.1884 676.1417 676.0524 675.9912 676.035 676.0374 676.0734 676.192 676.299 676.4105 676.5299 676.4016 675.9749 675.6102 675.3042 675.1228 675.0382 675.0113 675.022 675.0594 675.1262 675.2189 675.3124 675.3676 675.3617 675.3063 675.2443 675.2347 675.3496 675.6818 676.3667 677.5923 679.1205 680.4664 681.2772 681.6835 682.0151 682.3929 -9999 -9999 -9999 -9999 -9999 -9999 -9999 -9999 -9999 -9999 -9999 -9999 -9999 -9999 -9999 -9999 -9999 -9999 -9999 -9999 -9999 -9999 -9999 -9999 -9999 -9999 -9999 -9999 -9999 -9999 -9999 -9999 -9999 -9999 -9999 -9999 -9999 -9999 -9999 -9999 -9999 -9999 -9999 -9999 -9999 -9999 -9999 -9999 -9999 -9999 -9999 -9999 -9999 -9999 -9999 -9999 -9999 -9999 -9999 -9999 -9999 -9999 -9999 -9999 -9999 -9999 -9999 -9999 -9999 -9999 -9999 694.5409 693.0955 690.7402 687.3668 683.2846 679.1615 675.7576 673.3034 671.8127 670.9399 670.3666 670.0146 669.8328 669.5996 669.3625 669.1624 669.0009 668.8652 668.7428 668.631 668.5292 668.4379 668.3573 668.2874 668.2281 668.1796 668.1415 668.1143 668.0969 668.0873 668.0813 668.0758 668.069 668.0616 668.0571 668.054 668.051 668.048 668.045 668.0424 668.0411 668.0424 668.0447 668.0479 668.0524 668.0598 668.0724 668.0902 668.1133 668.1417 668.1759 668.2159 668.2629 668.313 668.3644 668.4189 668.4761 668.5339 668.5922 668.652 668.7136 668.7749 668.8305 668.8757 668.9099 668.9362 668.9581 668.9808 669 669.014 669.0167 669.0168 669.0183 669.0168 669.0193 669.0289 669.0416 669.0546 669.0674 669.0805 669.0956 669.1139 669.1373 669.1677 669.2067 669.2557 669.3149 669.3829 669.4573 669.535 669.6129 669.6885 669.76 669.8259 669.8837 669.9321 669.9711 670 670.0193 670.0322 670.0449 670.0573 670.0674 670.0756 670.0849 670.0999 670.126 670.166 670.2187 670.2804 670.3483 670.424 670.5117 670.6132 670.726 670.8516 671.0429 671.4831 671.9451 672.2147 672.4678 672.7446 672.9916 673.0845 673.1808 673.3345 673.6112 674.0782 674.8115 675.2355 675.4602 675.5519 675.6017 675.717 676.0209 676.6544 677.493 678.298 679.0939 680.045 681.2857 682.7387 -9999 -9999 -9999 -9999 -9999 -9999 -9999 -9999 -9999 -9999 -9999 -9999 -9999 -9999 -9999 -9999 -9999 -9999
-9999 -9999 -9999 -9999 -9999 -9999 -9999 -9999 -9999 -9999 -9999 -9999 -9999 -9999 -9999 -9999 -9999 -9999 -9999 678.77 677.6531 676.9393 676.4861 676.15 675.9991 676.042 676.125 676.1696 676.5143 676.7188 677.1398 677.2937 677.2104 676.9871 676.5515 676.0247 675.6926 675.6104 675.7578 675.9379 676.0464 676.0004 676.0009 675.9993 676.0472 675.9467 675.8657 675.9474 676.0395 676.2308 676.5329 676.6479 676.2429 675.9948 675.6797 675.4119 675.219 675.1062 675.0569 675.0609 675.1158 675.2139 675.3219 675.3862 675.3831 675.3361 675.312 675.3757 675.5865 676.0234 676.8654 678.1862 679.7963 681.1148 681.9219 682.2384 682.4937 -9999 -9999 -9999 -9999 -9999 -9999 -9999 -9999 -9999 -9999 -9999 -9999 -9999 -9999 -9999 -9999 -9999 -9999 -9999 -9999 -9999 -9999 -9999 -9999 -9999 -9999 -9999 -9999 -9999 -9999 -9999 -9999 -9999 -9999 -9999 -9999 -9999 -9999 -9999 -9999 -9999 -9999 -9999 -9999 -9999 -9999 -9999 -9999 -9999 -9999 -9999 -9999 -9999 -9999 -9999 -9999 -9999 -9999 -9999 -9999 -9999 -9999 -9999 -9999 -9999 -9999 -9999 -9999 -9999 -9999 -9999 -9999 695.8624 694.3641 691.9528 688.4749 684.2189 679.8561 676.2058 673.5889 672.0224 671.0165 670.4356 670.1294 669.9822 669.7047 669.4301 669.1903 669.0001 668.8805 668.7748 668.6708 668.5703 668.4772 668.3945 668.323 668.2632 668.2151 668.1781 668.1516 668.1344 668.1242 668.1178 668.1124 668.1064 668.0999 668.0941 668.0887 668.0833 668.0778 668.0726 668.0684 668.0654 668.0645 668.0652 668.068 668.0732 668.0824 668.0963 668.1155 668.1404 668.1708 668.2064 668.2469 668.293 668.3444 668.3972 668.451 668.5074 668.5662 668.6259 668.6858 668.7466 668.8082 668.8661 668.9137 668.9476 668.9702 668.9822 669 669.0159 669.0276 669.0325 669.0343 669.0359 669.0372 669.0414 669.0498 669.0609 669.0734 669.0869 669.1018 669.1196 669.1415 669.1688 669.2032 669.246 669.2985 669.3605 669.4298 669.5039 669.5797 669.6541 669.725 669.7911 669.8511 669.9023 669.9435 669.9756 670 670.0183 670.0316 670.0446 670.0565 670.0638 670.0662 670.0685 670.0758 670.0928 670.122 670.162 670.2095 670.263 670.3259 670.4056 670.5049 670.6279 670.785 671.0067 671.3522 671.7168 671.9994 672.2668 672.583 672.8545 673.0035 673.1472 673.3257 673.6222 674.1141 674.9006 675.333 675.5348 675.6012 675.6292 675.7252 676.0167 676.6652 677.5641 678.6058 679.4704 680.3506 681.4564 682.7894 -9999 -9999 -9999 -9999 -9999 -9999 -9999 -9999 -9999 -9999 -9999 -9999 -9999 -9999 -9999 -9999 -9999 -9999
-9999 -9999 -9999 -9999 -9999 -9999 -9999 -9999 -9999 -9999 -9999 -9999 -9999 -9999 -9999 -9999 -9999 682.6082 679.8893 678.0441 676.9597 676.4093 676.1358 675.978 676.0696 676.5 676.7431 676.895 677.2017 677.1757 677.1776 677.0508 676.7849 676.4508 676.0739 675.7985 675.665 675.6797 675.8742 676.1709 676.3177 676.2021 676.2 676.2171 676.4442 676.1124 676.033 676.2452 676.6475 676.9198 676.0746 676.6875 676.9708 676.8712 676.4438 676.0156 675.6472 675.3853 675.2206 675.1426 675.1577 675.2571 675.3903 675.4682 675.4675 675.424 675.4518 675.6184 675.9504 676.468 677.3785 678.6936 680.2838 681.6417 682.501 682.8924 682.9834 -9999 -9999 -9999 -9999 -9999 -9999 -9999 -9999 -9999 -9999 -9999 -9999 -9999 -9999 -9999 -9999 -9999 -9999 -9999 -9999 -9999 -9999 -9999 -9999 -9999 -9999 -9999 -9999 -9999 -9999 -9999 -9999 -9999 -9999 -9999 -9999 -9999 -9999 -9999 -9999 -9999 -9999 -9999 -9999 -9999 -9999 -9999 -9999 -9999 -9999 -9999 -9999 -9999 -9999 -9999 -9999 -9999 -9999 -9999 -9999 -9999 -9999 -9999 -9999 -9999 -9999 -9999 -9999 -9999 -9999 -9999 -9999 697.0886 695.507 693.0123 689.433 685.0561 680.5515 676.7357 674.0149 672.4016 671.1915 670.546 670.202 669.9961 669.7349 669.4645 669.2122 669.0043 668.9167 668.8218 668.7188 668.6156 668.519 668.4333 668.3605 668.3005 668.2531 668.217 668.1913 668.1746 668.1647 668.1588 668.1544 668.1495 668.1436 668.1368 668.1295 668.1215 668.1129 668.105 668.0981 668.093 668.0897 668.089 668.0909 668.0962 668.1057 668.1205 668.1407 668.1666 668.1981 668.2355 668.2773 668.3235 668.3741 668.4277 668.4821 668.5374 668.5961 668.6576 668.7197 668.7807 668.8413 668.8989 668.9466 668.9789 669 669 669.0153 669.0302 669.0415 669.0481 669.0519 669.0551 669.0588 669.0646 669.0729 669.0833 669.0956 669.11 669.127 669.1475 669.173 669.2045 669.2432 669.2903 669.3468 669.4118 669.4828 669.5566 669.6302 669.7009 669.767 669.8271 669.8804 669.9243 669.9574 669.9818 670 670.0161 670.0273 670.0403 670.0513 670.0553 670.0521 670.0496 670.0507 670.0592 670.0774 670.1041 670.136 670.1729 670.2213 670.2969 670.3994 670.5406 670.7322 670.9827 671.2083 671.4783 671.7621 672.043 672.426 672.7601 672.9983 673.1352 673.3077 673.6083 674.1116 674.9124 675.3716 675.5839 675.6515 675.6757 675.7566 676.0162 676.6685 677.6415 678.857 679.9854 680.9858 681.9783 683.0677 -9999 -9999 -9999 -9999 -9999 -9999 -9999 -9999 -9999 -9999 -9999 -9999 -9999 -9999 -9999 -9999 -9999 -9999
