ncols         422
nrows         26
xllcorner     517050
yllcorner     5930550
cellsize      50
NODATA_value  -9999
-9999 -9999 -9999 -9999 -9999 735.3353 732.5884 730.3355 728.6625 727.0125 724.7773 722.3559 720.0131 718.1782 717.3063 716.9922 716.9592 717 716.9215 716.7947 716.657 716.5251 716.4042 716.2943 716.1923 716.0952 716 715.8968 715.8109 715.6785 715.5905 715.507 715.4202 715.3324 715.2463 715.1641 715.0843 715 714.9021 714.7933 714.6791 714.5673 714.4661 714.38 714.3095 714.2517 714.201 714.1514 714.0996 714.0474 714 713.9535 713.8994 713.8428 713.7883 713.7363 713.6864 713.6392 713.5962 713.5591 713.5294 713.5082 713.4968 713.4958 713.506 713.5267 713.5582 713.5994 713.6478 713.6996 713.7504 713.7961 713.8347 713.8655 713.8898 713.9093 713.9263 713.9426 713.9598 713.9789 714 714.0143 714.0424 714.0815 714.1299 714.1869 714.2512 714.321 714.3936 714.4674 714.5414 714.615 714.6866 714.7536 714.8139 714.8655 714.9072 714.9399 714.9652 714.9846 715 715.0192 715.0195 714.9974 714.954 714.8912 714.819 714.7488 714.6832 714.6256 714.5886 714.5813 714.5948 714.6173 714.647 714.6948 714.7577 714.8268 714.8892 714.9348 714.9622 714.9835 715.0079 715.0325 715.0483 715.0486 715.0346 715.017 715.0114 715.0188 715.0557 715.111 715.176 715.2455 715.3212 715.4086 715.5155 715.6422 715.7899 715.9365 716.0002 716.0822 716.145 716.1829 716.1981 716.1957 716.1898 716.1742 716.1461 716.1205 716.1559 716.1932 716.2189 716.2421 716.2804 716.3246 716.3768 716.434 716.4933 716.5534 716.6127 716.6669 716.7111 716.7384 716.7424 716.7178 716.6619 716.5762 716.465 716.3383 716.2092 716.0908 716.0005 715.9996 715.9421 715.8928 715.8644 715.8424 715.8306 715.8287 715.8359 715.8521 715.8782 715.9146 715.9563 716 716.0431 716.085 716.1251 716.1639 716.2027 716.2415 716.2801 716.3181 716.3553 716.3916 716.4263 716.4594 716.4906 716.5195 716.546 716.5692 716.589 716.6066 716.623 716.6385 716.652 716.6628 716.6714 716.679 716.687 716.6954 716.7035 716.7109 716.7175 716.7251 716.7357 716.7517 716.7744 716.8036 716.8383 716.8778 716.9204 716.9626 717 717.0309 717.0668 717.1046 717.1405 717.1719 717.1993 717.2257 717.2544 717.2886 717.3308 717.3835 717.4495 717.5276 717.6134 717.6985 717.7739 717.8324 717.8746 717.9128 717.9538 718.0002 718.0795 718.1747 718.2927 718.4507 718.6796 719.015 719.4756 719.9899 720.5083 721.0343 721.5699 721.9736 722.0088 721.9858 721.7468 721.5594 721.5237 721.6156 721.9766 722.2002 722.2664 722.3351 722.5098 722.6895 723.0793 723.6589 724.2745 724.7562 725.2446 725.7509 726.0602 726.3126 726.2609 726.6023 727.4011 727.7093 728.0667 728.6656 729.4055 729.9068 730.4449 730.8716 731.3652 732.1706 733.2216 -9999 -9999 -9999 -9999 -9999 -9999 -9999 -9999 -9999 -9999 -9999 -9999 -9999 -9999 727.205 727.1293 726.9328 726.5598 725.9195 724.8452 724.1279 724.0095 724.3129 724.4927 724.6693 724.6904 724.6902 724.6932 724.7001 724.8017 724.5683 724.0571 724.1871 724.1965 724.0446 724.0143 724 723.9999 723.9492 724.348 725.3638 726.2127 727.3297 728.4435 729.3411 729.009 728.2075 727.3271 726.2014 725.4209 725.2929 725.768 725.5131 724.8668 724.3054 723.9923 723.7758 723.7 723.7195 723.7585 723.6699 723.573 723.7062 724.0127 723.9922 723.968 724.217 724.3615 724.3988 724.4843 724.6227 724.6976 724.5562 724.2923 723.7258 723.16 723.0313 723.0477 723.1011 723.0969 723.194 723.7399 724.1678 724.2225 724.1722 723.9058 723.3674 722.3914 722.9598 722.8278 722.1467 721.8464 721.7167 721.4276 721.4288 722.0748 723.5886 725.6455 727.9412 730.0665 731.9266 733.3668 734.257 735.1857 736.3399 -9999 -9999 -9999 -9999 -9999 -9999 -9999 -9999 -9999 -9999 -9999 -9999 -9999 -9999 -9999 -9999 -9999 -9999 -9999 -9999 -9999 -9999 -9999 -9999 -9999 -9999
-9999 -9999 -9999 -9999 -9999 736.5195 733.3534 730.5829 728.3884 726.3983 724.2002 721.7172 719.497 718.0242 717.2842 717.0006 716.9628 717 716.9365 716.8248 716.7037 716.5863 716.4706 716.3517 716.2309 716.1119 715.9999 715.8898 715.7791 715.68 715.5658 715.4644 715.3744 715.2917 715.2153 715.1454 715.0748 715 714.908 714.8007 714.6846 714.5702 714.4683 714.3855 714.3229 714.2759 714.2355 714.191 714.1362 714.0702 714.0001 713.9602 713.8973 713.8338 713.7775 713.725 713.6742 713.6259 713.5817 713.5437 713.5138 713.4928 713.4822 713.4829 713.4957 713.5199 713.5554 713.6009 713.6536 713.7094 713.763 713.8105 713.8492 713.8792 713.9016 713.9194 713.9346 713.9494 713.9652 713.9822 714 714.0228 714.0555 714.0968 714.1458 714.2025 714.2665 714.3362 714.4089 714.483 714.5576 714.632 714.7045 714.7724 714.8331 714.8842 714.9243 714.9546 714.9786 715 715.0233 715.0468 715.0567 715.0457 715.0148 714.9646 714.8987 714.8295 714.7658 714.708 714.6622 714.6419 714.6499 714.6754 714.7072 714.7471 714.8015 714.8647 714.9285 714.9828 715.0225 715.048 715.0657 715.0782 715.0824 715.0737 715.053 715.0302 715.0198 715.0325 715.0766 715.1464 715.2307 715.3204 715.412 715.509 715.6158 715.7313 715.8477 715.9468 716 716.0571 716.0971 716.1161 716.1183 716.1 716.0977 716.0878 716.057 716.0005 716.0638 716.101 716.1172 716.1306 716.1816 716.2296 716.2918 716.3611 716.4302 716.4993 716.5664 716.627 716.6753 716.7038 716.7048 716.6729 716.6064 716.5088 716.3834 716.2449 716.1118 715.9999 715.9211 715.8951 715.8557 715.8187 715.7936 715.7777 715.7716 715.7747 715.7861 715.806 715.8343 715.8707 715.9125 715.9564 716 716.0413 716.0801 716.1172 716.155 716.1934 716.2314 716.2687 716.3052 716.3407 716.3748 716.4073 716.4382 716.4672 716.4944 716.5191 716.5406 716.5596 716.5775 716.595 716.6116 716.6262 716.639 716.6509 716.663 716.6754 716.6876 716.6985 716.7078 716.7167 716.7272 716.7419 716.7628 716.7903 716.8231 716.8596 716.8987 716.938 716.9728 717 717.0328 717.0665 717.1014 717.1356 717.1677 717.1981 717.229 717.2638 717.3056 717.3575 717.4216 717.4975 717.5801 717.6618 717.7353 717.7965 717.8467 717.8939 717.9442 717.9999 718.0335 718.0842 718.1556 718.2603 718.4207 718.6645 719.0103 719.4691 719.9882 720.5168 721.034 721.4675 721.5793 721.5419 721.3427 721.0353 720.988 721.0604 721.516 721.8976 721.9883 722.0114 722.22 722.4277 722.6685 723.0182 723.4945 723.9383 724.1862 724.6928 725.0632 725.5603 725.4661 725.6394 725.9816 726.0639 726.4246 726.8558 727.538 728.2408 729.1921 729.7681 730.281 731.1383 732.1277 733.0908 -9999 -9999 -9999 -9999 -9999 -9999 -9999 -9999 -9999 -9999 -9999 726.9948 727.0543 727.0535 726.964 726.7589 726.3302 725.6104 724.455 724.0355 724.3622 724.6912 724.69 724.7108 724.7278 724.7269 724.7189 724.733 724.7956 724.7863 724.682 724.6971 724.6792 724.3505 724.3451 724.2982 724.2336 724.0001 724.256 725.1309 726.2518 727.9022 729.5416 730.4718 730.1369 729.0549 727.634 725.9525 724.6741 724.2305 724.7566 724.8225 724.3367 724.0062 723.8828 723.7955 723.7911 723.8466 723.8497 723.6685 723.4099 723.5964 724.0956 723.5796 723.5237 724.4619 724.6909 724.6593 724.6589 724.6851 724.6309 724.3428 723.7441 723.0519 722.5804 722.3929 722.4114 722.4624 722.5071 722.6476 722.983 723.1294 723.1441 723.1962 723.4749 723.5735 723.067 722.2166 722.1842 722.0211 722.0278 722.2586 721.7913 721.6748 722.382 724.1909 726.7493 729.4524 731.7443 733.5377 734.8506 -9999 -9999 -9999 -9999 -9999 -9999 -9999 -9999 -9999 -9999 -9999 -9999 -9999 -9999 -9999 -9999 -9999 -9999 -9999 -9999 -9999 -9999 -9999 -9999 -9999 -9999 -9999 -9999 -9999
-9999 -9999 -9999 -9999 -9999 737.7396 734.3924 731.3002 728.6805 726.3028 723.7836 721.2408 719.1945 717.9778 717.3702 717.0898 717.0028 716.9999 716.9382 716.8395 716.7379 716.6439 716.545 716.4231 716.2809 716.1334 715.9998 715.8905 715.781 715.6686 715.5614 715.4538 715.3512 715.2591 715.1812 715.1161 715.061 715 714.9193 714.8175 714.7021 714.587 714.4861 714.4099 714.3596 714.3286 714.3031 714.2676 714.2128 714.1387 714.0588 713.9997 713.91 713.8376 713.7828 713.7311 713.6787 713.6279 713.5817 713.5422 713.5111 713.4896 713.4791 713.4807 713.4955 713.5228 713.5621 713.6112 713.6671 713.7255 713.7809 713.8288 713.8667 713.8947 713.9146 713.9294 713.9423 713.9556 713.9707 713.9866 714 714.0318 714.071 714.1158 714.1662 714.223 714.2865 714.3555 714.428 714.5024 714.5779 714.6533 714.7269 714.796 714.8574 714.9086 714.9479 714.976 715 715.0256 715.0533 715.0796 715.0964 715.0955 715.0752 715.0376 714.9825 714.9171 714.8542 714.7992 714.7516 714.7207 714.7177 714.7401 714.7754 714.8137 714.8593 714.9135 714.9713 715.0247 715.0678 715.097 715.113 715.1187 715.1139 715.0968 715.0692 715.0405 715.0244 715.0357 715.0826 715.1641 715.2693 715.3845 715.5005 715.6157 715.7307 715.8392 715.9291 715.9999 716.0359 716.0621 716.0692 716.0613 716.0521 716.0004 715.9999 715.9999 715.9991 715.9578 715.999 715.9998 715.9996 716.0009 716.0842 716.1244 716.1989 716.2815 716.3573 716.4335 716.5066 716.5712 716.6219 716.6508 716.6487 716.6094 716.5328 716.4265 716.2866 716.1358 716.0001 715.8944 715.8232 715.7867 715.7573 715.7333 715.7175 715.71 715.7109 715.7198 715.7362 715.7596 715.7902 715.8273 715.8693 715.9138 715.9582 716 716.0377 716.073 716.1107 716.1494 716.1877 716.2251 716.2612 716.2964 716.33 716.3621 716.3926 716.4214 716.4487 716.4742 716.4973 716.5176 716.5365 716.5554 716.5742 716.5922 716.6088 716.6243 716.64 716.6564 716.673 716.6884 716.7015 716.7133 716.7251 716.7395 716.7586 716.7839 716.815 716.8498 716.887 716.9259 716.9645 717 717.0173 717.0417 717.072 717.1064 717.1418 717.1764 717.2103 717.2461 717.2874 717.3376 717.3987 717.4707 717.5499 717.6293 717.7028 717.7672 717.8236 717.8765 717.9285 717.9748 718 718.0308 718.0699 718.1327 718.2382 718.4083 718.661 719.0102 719.4725 720.0007 720.5273 720.9099 721.0031 720.9617 720.8846 720.5937 720.5105 720.6531 720.9663 721.1251 721.4299 721.6058 721.9253 722.2245 722.3893 722.592 723.0052 723.4066 723.6376 723.9874 724.3616 724.3551 724.3155 724.551 724.7278 724.8803 725.0409 725.1946 725.4858 726.2224 727.3237 728.1483 728.9636 729.8192 730.6642 731.5859 731.7619 731.0823 -9999 -9999 -9999 -9999 -9999 -9999 -9999 -9999 726.8086 726.8884 726.894 726.8035 726.6146 726.3497 725.7797 724.8911 724.0281 724.5973 724.6898 724.4561 724.0918 724.2944 724.4012 724.4384 724.4465 724.4613 724.5349 724.6818 724.824 724.6703 724.1117 724.1433 724.3418 724.5249 724.5038 724.0314 724.0938 724.8578 726.2596 728.3811 730.5234 731.8447 731.4855 730.0436 728.0369 725.8936 724.2499 723.8871 724.2979 724.556 724.0607 724.0038 723.9587 723.9066 723.9583 724.1071 724.196 723.9725 723.3764 723.5395 724.6917 723.5863 723.9416 724.0309 724.0876 724.3146 724.315 724.1012 724.239 723.9488 723.1616 722.5094 722.1859 722.0075 722.0881 722.1419 722.1788 722.2587 722.4464 722.5363 722.5704 722.6427 722.7819 722.6832 722.2141 722.063 722.0695 722.1908 722.5132 722.9169 722.2578 722.1636 723.1528 725.1295 727.8778 730.5658 732.7292 734.313 735.7354 -9999 -9999 -9999 -9999 -9999 -9999 -9999 -9999 -9999 -9999 -9999 -9999 -9999 -9999 -9999 -9999 -9999 -9999 -9999 -9999 -9999 -9999 -9999 -9999 -9999 -9999 -9999 -9999 -9999
-9999 -9999 -9999 -9999 -9999 738.9269 735.7425 732.5229 729.5212 726.6683 723.6942 721.0307 719.0972 718.0406 717.5841 717.2579 717.0739 717 716.9473 716.8562 716.7766 716.714 716.6425 716.5206 716.3578 716.1749 716.0012 715.9163 715.8057 715.6869 715.5671 715.4488 715.3359 715.2351 715.1526 715.0906 715.043 715 714.938 714.8457 714.733 714.6187 714.5217 714.4564 714.4242 714.4154 714.4105 714.3877 714.3335 714.2443 714.1267 714.0007 713.9207 713.8551 713.8127 713.7622 713.7052 713.6493 713.5997 713.5577 713.5243 713.5008 713.4891 713.4907 713.5065 713.5361 713.5782 713.6302 713.6884 713.7479 713.8035 713.8505 713.8865 713.9116 713.9281 713.9397 713.95 713.9621 713.9783 714 714.0184 714.0518 714.0933 714.1395 714.1902 714.2467 714.3096 714.3779 714.4503 714.5253 714.6017 714.6781 714.7527 714.8226 714.8845 714.936 714.9752 715 715.0243 715.0514 715.0816 715.1105 715.132 715.1406 715.1309 715.1042 715.0616 715.0049 714.9438 714.8904 714.8458 714.8113 714.7972 714.8112 714.8446 714.8856 714.9259 714.9717 715.0206 715.0682 715.1082 715.1357 715.1484 715.1482 715.1362 715.1119 715.0789 715.0465 715.025 715.0305 715.0707 715.1546 715.2767 715.4176 715.5608 715.6987 715.828 715.9373 716 716.0421 716.0632 716.0677 716.0414 716.0002 715.9993 715.9163 715.8627 715.8276 715.8041 715.7806 715.793 715.7994 715.8217 715.8824 715.9976 716.0012 716.099 716.1965 716.2695 716.3508 716.4272 716.4922 716.5422 716.5698 716.5643 716.5162 716.4269 716.3212 716.1642 716.0002 715.8657 715.7682 715.7067 715.674 715.6548 715.6434 715.6388 715.641 715.65 715.6654 715.6867 715.7139 715.7468 715.7853 715.8281 715.8735 715.919 715.9619 716 716.0324 716.0712 716.1105 716.1491 716.1868 716.223 716.2579 716.2913 716.3232 716.3535 716.3823 716.4094 716.4352 716.4593 716.481 716.5009 716.5206 716.5407 716.561 716.5805 716.5992 716.6182 716.6378 716.6583 716.6782 716.6959 716.7115 716.7263 716.7416 716.76 716.7833 716.812 716.8451 716.8806 716.9176 716.9537 716.984 717 717.0225 717.0497 717.0823 717.1191 717.1573 717.1948 717.2325 717.2737 717.3224 717.3806 717.4483 717.5232 717.6004 717.6741 717.741 717.8017 717.8589 717.9138 717.9633 718 718.0118 718.0266 718.0582 718.1224 718.236 718.4141 718.6698 719.016 719.4813 719.9471 720.1053 720.2776 720.1017 720.0508 720.0024 720.0192 720.2574 720.4733 720.7087 720.9712 721.0212 721.2047 721.8096 721.9372 722.0361 722.5177 722.9037 722.9704 722.9816 722.8849 722.8044 722.8704 723.2689 723.517 723.8683 723.9556 723.974 724.1594 724.7689 725.5592 726.5149 727.5275 728.3387 729.1647 729.7648 729.6903 728.9138 728.2076 727.7707 727.3083 726.9146 726.6375 -9999 -9999 726.5807 726.7145 726.7681 726.6791 726.4319 726.049 725.7061 724.9156 724.4095 724.3256 724.0906 724.0546 723.995 723.8561 723.9855 724.0052 724.005 724.0033 724.0001 724.0118 724.1186 724.6241 724.424 724.0026 723.9925 724.2043 724.4627 724.003 724.3909 724.6441 724.9399 726.5443 729.2171 731.9 733.4731 732.6766 731.0421 728.5746 726.0486 724.2664 723.8815 724.2275 724.6902 724.6616 724.4491 724.244 724.0571 724.095 724.3456 724.6373 724.5729 723.7528 723.2937 723.9643 723.9961 723.9208 723.7717 723.6864 723.6921 723.7043 723.707 723.8867 723.5159 722.8079 722.0839 721.987 721.9019 721.9963 721.9993 721.9987 722.0034 722.145 722.2035 722.2257 722.2529 722.2441 722.0364 721.8852 721.9309 722.0225 722.2186 722.5594 722.9712 722.9991 723.0038 724.0779 725.9141 728.4633 730.7488 732.5448 734.1917 735.9239 -9999 -9999 -9999 -9999 -9999 -9999 -9999 -9999 -9999 -9999 -9999 -9999 -9999 -9999 -9999 -9999 -9999 -9999 -9999 -9999 -9999 -9999 -9999 -9999 -9999 -9999 -9999 -9999 -9999
-9999 -9999 -9999 -9999 -9999 740.0101 737.0464 733.7078 730.3495 727.0345 723.6959 720.9603 719.1763 718.298 717.9357 717.4746 717.1721 717.0384 716.9994 716.9006 716.8484 716.8237 716.7883 716.6589 716.4783 716.2799 716.1036 715.9987 715.8582 715.7264 715.5944 715.4583 715.3252 715.2076 715.1168 715.0569 715.0232 715 714.9657 714.8839 714.7747 714.6631 714.5741 714.5256 714.5187 714.5391 714.5609 714.5555 714.5063 714.4093 714.272 714.1207 713.9999 713.9108 713.8834 713.8248 713.7559 713.6914 713.6373 713.5922 713.5551 713.528 713.5134 713.5133 713.5289 713.5598 713.6038 713.6577 713.7169 713.7761 713.8303 713.8749 713.9078 713.9293 713.9421 713.9504 713.9582 713.9686 713.9823 714 714.0349 714.0764 714.121 714.1675 714.2173 714.2725 714.3341 714.402 714.4746 714.5502 714.6276 714.7048 714.78 714.85 714.9111 714.9613 715 715.0215 715.0453 715.0732 715.104 715.1348 715.1597 715.1753 715.1768 715.1605 715.1289 715.0837 715.0289 714.9761 714.9342 714.9019 714.8829 714.8866 714.914 714.9531 714.9949 715.0337 715.0748 715.1144 715.1475 715.1684 715.1743 715.1661 715.1459 715.1138 715.0763 715.0452 715.019 715.0189 715.0425 715.1188 715.2512 715.4124 715.5782 715.7366 715.881 715.9998 716.0377 716.0516 716.0598 716.0559 715.9999 715.9232 715.8589 715.7617 715.6727 715.598 715.5438 715.5212 715.5233 715.5338 715.5704 715.663 715.7878 715.8744 715.9998 716.1084 716.1564 716.2462 716.322 716.3804 716.4239 716.4482 716.4406 716.3817 716.2652 716.1819 716.0006 715.8273 715.6998 715.6193 715.5757 715.557 715.5518 715.5538 715.5612 715.5735 715.5908 715.6129 715.6393 715.6702 715.7056 715.7457 715.7899 715.8368 715.8844 715.9296 715.969 716 716.0408 716.0784 716.1157 716.1533 716.1899 716.225 716.2584 716.2902 716.3204 716.3491 716.3762 716.402 716.4268 716.4497 716.4708 716.491 716.5118 716.5333 716.5549 716.5762 716.5975 716.6195 716.6426 716.6663 716.6887 716.709 716.7274 716.7452 716.7643 716.7864 716.8129 716.8438 716.8772 716.9119 716.9458 716.9762 717 717.0127 717.0345 717.0638 717.0992 717.1387 717.1791 717.2195 717.2616 717.3091 717.3649 717.4288 717.4995 717.5737 717.6468 717.7152 717.7786 717.8386 717.8955 717.9462 717.9841 718 718.0082 718.0221 718.0591 718.1332 718.2576 718.4425 718.6965 719.0197 719.4022 719.6066 719.8576 719.6964 719.6198 719.6276 719.7319 719.9693 720.032 720.3088 720.4794 720.5306 720.6439 720.9395 721.0123 721.2033 721.8228 722.0248 722.027 721.9844 721.8722 721.8 721.8333 722.0197 722.256 722.8203 722.9771 723.0814 723.4172 723.894 724.4995 725.1453 726.0601 726.9423 727.6313 727.9207 727.7717 727.1599 726.4998 726.2922 726.3942 726.3602 726.2794 726.2225 726.2418 726.4441 726.6111 726.6104 726.387 725.9415 725.3102 724.7439 724.1155 723.8852 723.8237 723.5942 723.5301 723.511 723.4765 723.5375 723.5496 723.5356 723.5273 723.5438 723.6558 723.7991 724.0281 723.9952 723.7983 723.8143 724.0526 724.6799 724.5688 724.0162 724.326 725.0641 727.1213 730.3795 733.4609 735.058 734.2253 732.0221 729.0697 726.2858 724.5125 723.999 724.1542 724.5378 724.7004 724.697 724.4868 724.1039 724.0688 724.3046 724.6493 724.441 723.9305 723.3118 723.2015 723.4316 723.493 723.382 723.262 723.0452 723.0067 723.019 723.0563 722.8241 722.1397 721.7434 721.6765 721.6799 721.7521 721.7848 721.8131 721.8683 721.996 722.0001 721.9991 721.9999 721.9913 721.8119 721.7467 721.8204 721.9429 722.0673 722.1792 722.2296 722.2067 723.0873 724.7044 726.4903 728.8593 730.8601 732.4187 733.9615 735.9516 -9999 -9999 -9999 -9999 -9999 -9999 -9999 -9999 -9999 -9999 -9999 -9999 -9999 -9999 -9999 -9999 -9999 -9999 -9999 -9999 -9999 -9999 -9999 -9999 -9999 -9999 -9999 -9999 -9999
-9999 -9999 -9999 -9999 -9999 741.1285 738.4108 735.0068 731.3022 727.5228 723.8892 721.1312 719.4655 718.5549 718.0223 717.6151 717.2836 717.1122 717.0541 717.0023 717.0022 717.0017 716.9963 716.8323 716.6285 716.4058 716.1868 716.0018 715.8966 715.7806 715.6422 715.4851 715.3245 715.1824 715.076 715.0139 714.9941 715.0007 714.9999 714.925 714.8195 714.7139 714.6385 714.6146 714.641 714.6973 714.7507 714.7661 714.7257 714.6271 714.4775 714.3011 714.1337 714.0018 713.999 713.9133 713.8253 713.7511 713.6948 713.6464 713.604 713.5711 713.5516 713.5485 713.5626 713.5934 713.6383 713.6929 713.7518 713.8093 713.8604 713.9012 713.9299 713.9473 713.9564 713.9621 713.9692 713.9814 714 714.0259 714.0648 714.1091 714.1542 714.1992 714.2465 714.2991 714.3589 714.4258 714.4985 714.5751 714.6536 714.7319 714.8075 714.8763 714.9343 714.9771 715 715.0311 715.0604 715.09 715.1207 715.1512 715.1785 715.1987 715.2086 715.2028 715.1805 715.146 715.101 715.0519 715.0103 714.9816 714.9636 714.9613 714.98 715.0154 715.0553 715.094 715.1281 715.1599 715.1838 715.1942 715.1888 715.1702 715.1414 715.0978 715.0537 715.0322 715 715 715 715.062 715.2029 715.3756 715.5522 715.7168 715.8579 715.9603 716 716.0001 716.0001 715.9993 715.9063 715.7939 715.6847 715.5687 715.4575 715.3485 715.2606 715.2413 715.2417 715.2482 715.2792 715.3992 715.5496 715.6914 715.8524 715.997 716.0024 716.1219 716.1843 716.2224 716.2501 716.2675 716.2628 716.199 716.0112 715.9775 715.7633 715.5923 715.4954 715.4507 715.437 715.4407 715.4529 715.4689 715.4879 715.5098 715.535 715.5636 715.5951 715.6295 715.6674 715.7092 715.7552 715.8043 715.8551 715.9056 715.9545 716 716.0254 716.053 716.0869 716.1239 716.1612 716.1968 716.2306 716.2625 716.2926 716.3213 716.3484 716.3743 716.3993 716.4233 716.4457 716.4668 716.4877 716.5096 716.5323 716.5554 716.5785 716.602 716.6267 716.6527 716.6789 716.7039 716.7266 716.7477 716.7686 716.7909 716.816 716.8446 716.8756 716.9076 716.9385 716.9658 716.9868 717 717.024 717.0516 717.0836 717.121 717.162 717.2043 717.248 717.2953 717.3489 717.4098 717.4768 717.5477 717.6192 717.6882 717.7531 717.8149 717.8737 717.9271 717.9709 718 718.0054 718.0099 718.0311 718.0811 718.1697 718.3059 718.4962 718.7369 718.985 719.0162 719.0782 719.2248 719.2638 719.2993 719.3756 719.5049 719.6193 719.8875 719.9435 719.9836 719.9982 720.0421 720.1162 720.5018 720.9257 721.0203 721.0129 720.9944 720.9662 720.9444 720.9357 720.9691 721.1623 721.8022 722.0663 722.4772 722.9053 723.1584 723.7773 724.1638 724.854 725.6328 726.0302 726.2194 726.199 725.9927 725.7306 725.7349 725.9674 725.9999 726.0002 725.9993 726.0088 726.3159 726.4802 726.3646 725.9374 725.2172 724.4565 723.929 723.5496 723.4205 723.3226 723.0374 722.9936 722.9809 722.9344 722.9869 722.9916 722.9403 722.9291 722.9841 723.2852 723.4539 723.5486 723.5315 723.4814 723.6499 724.0381 724.6937 724.6979 724.2173 724.2198 725.3118 728.1407 731.9908 735.4692 737.2203 736.0804 733.197 -9999 726.4825 724.5599 723.9823 724.0159 724.3794 724.6604 724.7 724.6654 724.103 724.0203 724.015 724.009 724.0022 723.804 723.4054 723.1351 723.0998 723.1422 723.0129 722.9612 722.6671 722.4773 722.4385 722.3785 722.0664 721.6986 721.4706 721.4187 721.4418 721.4998 721.5471 721.597 721.6658 721.7467 721.7592 721.7502 721.7345 721.7085 721.6372 721.6555 721.7819 721.9279 722 722 722.0096 722.3718 723.2596 724.7762 726.8975 729.2999 731.1726 732.5874 734.192 -9999 -9999 -9999 -9999 -9999 -9999 -9999 -9999 -9999 -9999 -9999 -9999 -9999 -9999 -9999 -9999 -9999 -9999 -9999 -9999 -9999 -9999 -9999 -9999 -9999 -9999 -9999 -9999 -9999 -9999
-9999 -9999 -9999 -9999 -9999 742.1068 739.8115 736.4456 732.4238 728.2076 724.2414 721.3665 719.8003 718.9392 718.3932 718.0039 717.6104 717.4165 717.3684 717.3696 717.382 717.2943 717.1815 717.0005 716.799 716.5673 716.3251 716.1218 715.9995 715.877 715.7231 715.5367 715.3396 715.1652 715.0345 714.9627 714.9508 714.9789 715 714.9472 714.8527 714.7585 714.7049 714.7155 714.7844 714.882 714.9692 715.0062 714.9749 714.8781 714.7231 714.5317 714.3413 714.1882 714.1055 714.0002 713.9031 713.8232 713.7723 713.7205 713.67 713.6285 713.6022 713.5944 713.6062 713.6361 713.6807 713.7347 713.7918 713.8459 713.8925 713.9282 713.9518 713.9647 713.9706 713.9747 713.9832 714 714.026 714.0607 714.1035 714.1485 714.1918 714.2333 714.2765 714.3254 714.3822 714.4472 714.5194 714.5967 714.6766 714.7567 714.8334 714.9016 714.9575 715 715.0215 715.0495 715.0782 715.1063 715.1344 715.1624 715.1887 715.211 715.2256 715.2281 715.2148 715.1879 715.1523 715.1102 715.0703 715.0426 715.0283 715.0256 715.0385 715.0675 715.1055 715.1423 715.1747 715.1994 715.2128 715.2085 715.1865 715.1546 715.1206 715.0601 715.0002 714.9998 714.9615 714.9474 714.9518 715.0007 715.1508 715.3226 715.4949 715.6542 715.785 715.8723 715.9067 715.9016 715.8801 715.8389 715.7402 715.6169 715.4894 715.3671 715.2574 715.1293 715.0029 714.9995 714.9999 714.9993 715.0038 715.1535 715.317 715.4629 715.6276 715.7802 715.8722 715.9965 716.0005 715.9997 715.9991 715.9997 716.0001 715.9705 715.7064 715.512 715.3726 715.2834 715.266 715.28 715.3054 715.3344 715.3639 715.3929 715.4219 715.452 715.4843 715.5186 715.5547 715.5925 715.6331 715.6768 715.7242 715.775 715.828 715.8807 715.9308 715.9733 716 716.0249 716.0598 716.0978 716.136 716.1725 716.2069 716.2391 716.2694 716.2981 716.3254 716.3514 716.3765 716.401 716.4246 716.4468 716.4682 716.4902 716.5133 716.5373 716.5615 716.5861 716.6116 716.6388 716.6671 716.6956 716.7225 716.7474 716.771 716.7947 716.8197 716.8467 716.8756 716.9052 716.9337 716.9592 716.9808 717 717.0227 717.0471 717.0743 717.1069 717.1451 717.1871 717.2312 717.2786 717.331 717.3893 717.4532 717.5211 717.5907 717.6594 717.7252 717.7882 717.8483 717.9034 717.9501 717.9838 718 718.0053 718.0212 718.058 718.1232 718.2217 718.3555 718.514 718.6581 718.7157 718.8131 718.9915 719.0004 718.9992 718.9998 719.0036 719.0084 719.0495 719.0961 719.3401 719.421 719.4625 719.5714 719.8723 719.9867 719.9938 719.9835 719.9799 719.9767 719.9695 719.9526 719.9616 720.1723 720.8069 721.1474 721.8143 722.2382 722.5864 723.0394 723.4823 723.9376 724.4045 724.7006 725.0621 725.2704 725.2913 725.272 725.3469 725.5212 725.6264 725.7334 725.8541 726.0002 726.2462 726.2692 725.9387 725.2173 724.3589 723.6454 723.1146 722.99 722.9923 722.9493 722.598 722.4604 722.3417 722.1166 722.3165 722.3259 722.0878 722.046 722.1842 722.8066 722.9497 722.957 722.9401 722.9839 723.4006 724.0386 724.7007 724.6708 724.0186 724.1832 725.9597 729.4633 733.7955 737.5701 739.2531 737.9395 -9999 -9999 -9999 724.3933 723.6766 723.7753 724.2551 724.6732 724.6962 724.6049 724.6923 724.6605 724.3563 724.6329 724.3923 724.0733 723.6958 723.3025 723.0941 722.9879 722.7073 722.4832 722.2651 722.019 722.0009 721.9802 721.7075 721.4396 721.2754 721.225 721.2401 721.2815 721.3209 721.3712 721.4402 721.4995 721.5148 721.5044 721.4858 721.47 721.4774 721.5891 721.7832 721.9981 722.1048 722.2199 722.444 722.9794 723.7775 724.8967 727.0385 729.5099 731.5695 733.1389 734.6597 -9999 -9999 -9999 -9999 -9999 -9999 -9999 -9999 -9999 -9999 -9999 -9999 -9999 -9999 -9999 -9999 -9999 -9999 -9999 -9999 -9999 -9999 -9999 -9999 -9999 -9999 -9999 -9999 -9999 -9999
-9999 -9999 -9999 -9999 -9999 742.9468 740.9197 737.7308 733.6118 729.1024 724.7614 721.6423 720.0302 719.3261 719.0126 718.8217 718.3783 718.1853 718.0939 718.0213 717.9444 717.6602 717.4153 717.1976 716.998 716.765 716.4944 716.255 716.1046 715.9987 715.8394 715.6224 715.3832 715.1727 715.0079 714.9153 714.9034 714.9505 715 714.9589 714.8672 714.7841 714.761 714.8187 714.9401 715.0824 715.2014 715.256 715.2299 715.1345 714.9783 714.7783 714.5697 714.3878 714.2476 714.1163 713.9999 713.9071 713.873 713.8132 713.7495 713.6966 713.6621 713.6493 713.6581 713.6863 713.7296 713.7817 713.8353 713.8845 713.925 713.9545 713.9725 713.9809 713.9838 713.9877 714 714.0246 714.0586 714.101 714.1478 714.1926 714.2325 714.269 714.3068 714.3501 714.4021 714.4636 714.5338 714.6112 714.6934 714.7767 714.8558 714.9236 714.9731 715 715.0371 715.0712 715.1003 715.1254 715.1483 715.1708 715.1929 715.2138 715.2293 715.2361 715.2297 715.2086 715.1784 715.144 715.1089 715.082 715.0695 715.0696 715.0812 715.1058 715.1398 715.1753 715.2054 715.2263 715.2291 715.2056 715.1582 715.106 715.08 715 714.9224 714.8875 714.8596 714.86 714.9005 714.9991 715.1136 715.2599 715.4148 715.5638 715.6841 715.7578 715.7804 715.7625 715.7177 715.6474 715.5436 715.4218 715.2916 715.1765 715.1085 714.9997 714.8833 714.8405 714.828 714.835 714.8748 714.9999 715.1325 715.225 715.3757 715.5287 715.6404 715.7233 715.724 715.6936 715.653 715.6213 715.5686 715.4507 715.262 715.0211 714.9996 715.0018 715.0758 715.1453 715.2019 715.2493 715.2909 715.3289 715.3652 715.4014 715.439 715.4781 715.5184 715.5598 715.6028 715.6482 715.6969 715.7488 715.8027 715.8562 715.9062 715.9478 715.9771 716 716.0377 716.0764 716.1144 716.1511 716.1859 716.2186 716.2494 716.2786 716.3064 716.3327 716.3579 716.3824 716.4067 716.4301 716.4523 716.4745 716.4976 716.5219 716.5468 716.5721 716.5981 716.6256 716.6548 716.6853 716.7153 716.7438 716.7705 716.7963 716.8222 716.8489 716.8765 716.9045 716.9318 716.9565 716.9788 717 717.0229 717.0461 717.0698 717.0973 717.1307 717.1698 717.2125 717.259 717.3102 717.3667 717.4277 717.4929 717.5607 717.6287 717.6952 717.7592 717.8204 717.877 717.9257 717.9631 717.9868 718 718.017 718.0482 718.0978 718.1682 718.2581 718.3589 718.4508 718.5162 718.6057 718.7146 718.733 718.7151 718.6812 718.643 718.6195 718.6453 718.7533 718.9821 719.0022 718.9984 719.0019 719.0392 719.0427 719.0317 719.0249 719.0237 719.0242 719.0225 719.0219 719.0801 719.4377 719.8802 720.1985 720.8844 721.3992 721.9298 722.396 722.8918 723.1335 723.5571 723.849 724.2213 724.5663 724.7106 724.835 724.9014 725.0083 725.1241 725.3285 725.5638 725.7714 725.9409 725.7481 725.1635 724.2809 723.3572 722.9542 722.6216 722.4797 722.4689 722.3827 722.0476 721.9911 721.9726 721.8481 721.9799 721.9683 721.7124 721.6125 721.7084 722.0052 722.0579 722.0445 722.0397 722.178 722.9128 723.8656 724.6047 724.4479 723.9753 724.3007 726.4158 730.2646 734.9283 739.056 741.0948 739.5541 -9999 -9999 727.2023 724.5388 723.5789 723.6321 724.1918 724.6987 724.3546 724.0554 724.3767 724.6 724.3512 724.7002 724.7027 724.6235 724.0489 723.3892 722.9852 722.6785 722.3275 722.0288 721.9835 721.7825 721.6918 721.6147 721.4351 721.2515 721.136 721.0867 721.0908 721.1167 721.1306 721.163 721.2343 721.2858 721.3018 721.2928 721.2799 721.2851 721.3547 721.5127 721.7442 722.0023 722.2155 722.4774 722.8464 723.3851 723.8907 724.7818 726.7906 729.179 731.3605 733.2656 734.9946 736.5018 -9999 -9999 -9999 -9999 -9999 -9999 -9999 -9999 -9999 -9999 -9999 -9999 -9999 -9999 -9999 -9999 -9999 -9999 -9999 -9999 -9999 -9999 -9999 -9999 -9999 -9999 -9999 -9999 -9999
-9999 -9999 -9999 -9999 -9999 743.3408 741.4498 738.7117 734.739 730.082 725.4702 722.1129 720.4541 719.9487 719.98 720.1453 720.048 719.8486 719.4866 718.9863 718.4763 718.0081 717.6686 717.4033 717.1893 716.993 716.6995 716.4104 716.2335 716.1242 715.9959 715.7595 715.4796 715.243 715.0319 714.9035 714.8781 714.9297 715 714.9592 714.8538 714.7773 714.7957 714.9175 715.1027 715.291 715.4338 715.4958 715.4667 715.3674 715.2109 715.0077 714.7853 714.5787 714.4042 714.2504 714.114 714.002 713.9991 713.9152 713.8344 713.7699 713.728 713.7109 713.7167 713.7424 713.7834 713.8319 713.8802 713.9226 713.9561 713.9784 713.9902 713.9946 713.9946 714 714.02 714.0525 714.0951 714.1454 714.1958 714.2395 714.2751 714.3058 714.3364 714.3716 714.4156 714.4706 714.537 714.6141 714.6998 714.7892 714.8745 714.9465 714.9999 715.0305 715.068 715.1024 715.1292 715.1489 715.1643 715.1787 715.1935 715.2089 715.222 715.2283 715.2247 715.208 715.1802 715.1492 715.1205 715.0977 715.0856 715.0873 715.1005 715.1244 715.1549 715.1862 715.2131 715.232 715.2269 715.1796 715.0955 715.0011 714.9977 714.8818 714.7765 714.7186 714.6943 714.7046 714.7563 714.8593 714.9993 715.1544 715.3046 715.454 715.5699 715.6313 715.6382 715.6039 715.5395 715.4506 715.3461 715.2397 715.1151 715.0016 714.9988 714.897 714.7919 714.7322 714.7118 714.7257 714.781 714.8879 714.9982 715.0031 715.1451 715.2906 715.386 715.4348 715.4245 715.3713 715.2927 715.2509 715.1791 715.0146 714.9957 714.866 714.8543 714.9041 715 715.0789 715.1407 715.1918 715.2369 715.2784 715.3184 715.3583 715.3996 715.4424 715.4862 715.5307 715.5763 715.6234 715.6732 715.7257 715.78 715.8345 715.8859 715.9312 715.9685 716 716.0286 716.0608 716.0959 716.1316 716.1665 716.1998 716.2314 716.2614 716.2899 716.317 716.3428 716.3674 716.392 716.4161 716.4392 716.4618 716.4847 716.509 716.5343 716.5602 716.5867 716.6143 716.6437 716.6747 716.7063 716.7375 716.7673 716.7956 716.8231 716.8503 716.8777 716.905 716.9316 716.9563 716.9788 717 717.0218 717.0444 717.0667 717.0906 717.1194 717.1541 717.1937 717.2382 717.2875 717.3421 717.401 717.4636 717.5294 717.5967 717.6638 717.7289 717.7915 717.85 717.9014 717.9433 717.9755 718 718.0134 718.0413 718.0823 718.1333 718.1926 718.2556 718.3152 718.3691 718.4313 718.4904 718.5013 718.4778 718.437 718.3947 718.3732 718.4015 718.4973 718.6316 718.6591 718.6392 718.6002 718.5582 718.5098 718.4677 718.4406 718.4286 718.4308 718.4495 718.504 718.6483 718.9535 719.0908 719.459 719.9099 720.3403 721.129 721.6015 722.1624 722.5748 722.8986 722.9821 723.14 723.5577 723.9088 724.1826 724.1979 724.2473 724.3309 724.634 724.9731 725.113 725.0289 724.5358 724.1103 723.276 722.7256 722.422 722.2332 722.0167 721.9999 721.9695 721.6879 721.5095 721.4708 721.4374 721.4828 721.4644 721.3473 721.2859 721.3219 721.4215 721.4402 721.4282 721.4363 721.5684 722.0878 723.0159 723.7742 723.7967 723.6571 724.1937 726.2304 730.064 734.8251 739.1514 741.3668 740.5817 737.0788 732.4559 728.1836 725.1951 723.8518 723.6555 724.13 724.6863 724.0901 723.8681 724.0234 724.4113 724.0228 724.6737 724.6897 724.1334 724.0372 723.1227 722.585 722.3123 722.0034 721.7643 721.6633 721.5306 721.4333 721.3435 721.227 721.1085 721.0458 721.0001 721.0001 721.0226 721.0001 721.0007 721.0801 721.1211 721.1328 721.1286 721.1211 721.1351 721.2319 721.3954 721.6422 721.9841 722.2306 722.5856 722.9619 723.1186 723.4782 724.2939 726.0176 728.0369 730.0755 732.0479 733.9158 735.6002 -9999 -9999 -9999 -9999 -9999 -9999 -9999 -9999 -9999 -9999 -9999 -9999 -9999 -9999 -9999 -9999 -9999 -9999 -9999 -9999 -9999 -9999 -9999 -9999 -9999 -9999 -9999 -9999 -9999
-9999 -9999 -9999 -9999 -9999 742.762 741.2458 739.2057 735.6083 731.019 726.3224 722.8116 721.0156 720.6423 721.2186 722.0231 722.3417 722.0697 721.2356 720.1587 719.1468 718.4587 717.9987 717.655 717.4025 717.2369 716.9903 716.6708 716.5046 716.3807 716.2125 715.9857 715.6738 715.4492 715.1719 714.9923 714.9343 714.9508 714.9999 714.957 714.8082 714.7308 714.8069 715.0173 715.2791 715.5095 715.6606 715.7113 715.6647 715.5526 715.3943 715.1934 714.9653 714.7438 714.5553 714.3964 714.2703 714.1834 714.1046 714.0002 713.9144 713.8439 713.7967 713.7773 713.7803 713.8029 713.8398 713.8828 713.9238 713.9578 713.983 713.9968 714.0015 714.0029 714 714.0089 714.0364 714.0789 714.1328 714.1927 714.2466 714.2884 714.3195 714.3433 714.364 714.3867 714.4177 714.4618 714.522 714.5987 714.6902 714.7902 714.8868 714.9626 715.0001 715.0563 715.1044 715.1403 715.1633 715.1758 715.182 715.1864 715.1917 715.1982 715.2053 715.2081 715.2026 715.187 715.1599 715.1291 715.1023 715.0873 715.0782 715.0787 715.092 715.1189 715.147 715.1703 715.1876 715.2063 715.198 715.1226 714.9991 714.8577 714.7747 714.6581 714.5491 714.4936 714.4767 714.4888 714.5334 714.6281 714.796 714.9978 715.1622 715.3354 715.457 715.5052 715.4922 715.4434 715.3661 715.2646 715.1641 715.0997 715.0001 714.9093 714.8666 714.7859 714.7012 714.6445 714.6238 714.6395 714.692 714.7744 714.8547 714.897 715.0002 715.1146 715.1674 715.186 715.171 715.1162 715.0035 715.0004 714.9982 714.8885 714.8529 714.8065 714.8234 714.8961 714.9998 715.0621 715.1123 715.157 715.1993 715.2402 715.2808 715.3223 715.3656 715.4109 715.4576 715.505 715.5529 715.6019 715.6528 715.7058 715.7606 715.8157 715.8689 715.9182 715.9622 716 716.0187 716.0458 716.0781 716.1129 716.1479 716.182 716.2147 716.2455 716.2748 716.3031 716.3299 716.3552 716.38 716.4044 716.4282 716.4514 716.4742 716.4979 716.5233 716.5496 716.5767 716.6045 716.6336 716.6647 716.6971 716.7299 716.762 716.7928 716.8224 716.8511 716.879 716.9062 716.9325 716.9572 716.9796 717 717.019 717.0399 717.0618 717.0842 717.1099 717.1404 717.1763 717.2175 717.2645 717.3169 717.3738 717.4342 717.4979 717.5645 717.632 717.6984 717.7626 717.8232 717.8776 717.9229 717.9586 717.9843 718 718.032 718.0692 718.1089 718.1483 718.1868 718.2227 718.2574 718.2939 718.3224 718.3225 718.2974 718.2601 718.2247 718.2106 718.2362 718.3046 718.3831 718.4084 718.3923 718.3503 718.2946 718.2317 718.1736 718.1305 718.1082 718.11 718.1398 718.2102 718.3443 718.5411 718.6935 718.9579 719.0922 719.5209 720.1296 720.7528 721.3536 721.8636 721.9993 721.9933 722.1106 722.6119 722.9292 723.0593 723.0531 723.0568 723.1378 723.5276 724.0993 724.2234 724.1277 723.6908 723.0827 722.5925 722.2941 722.0198 721.9476 721.619 721.5198 721.4691 721.2872 721.0252 721.0001 720.9998 721.0049 721.0051 720.9996 720.9979 720.9969 721.0002 721.0018 720.9996 720.9863 720.9844 721.191 721.9326 722.5344 722.8275 722.9797 723.5533 725.3896 728.8636 733.4371 737.9131 740.6722 740.8843 738.0399 733.7624 729.6064 726.4808 724.5934 723.9078 724.0067 724.3961 724.3191 723.7959 723.4796 723.4648 724.1947 724.6606 724.7057 724.2229 723.528 722.6404 722.0663 721.9736 721.7327 721.5278 721.4032 721.3068 721.226 721.1436 721.0804 721.0004 720.9998 720.9677 720.9713 720.9998 720.9594 720.9514 720.9996 721.0001 721.0001 720.9999 720.9998 721.0007 721.1025 721.2056 721.3601 721.665 722.0103 722.5556 723.3079 723.864 722.1031 723.5618 725.0743 726.6083 728.3382 730.198 732.0928 733.9254 735.6047 -9999 -9999 -9999 -9999 -9999 -9999 -9999 -9999 -9999 -9999 -9999 -9999 -9999 -9999 -9999 -9999 -9999 -9999 -9999 -9999 -9999 -9999 -9999 -9999 -9999 -9999 -9999 -9999
-9999 -9999 -9999 -9999 -9999 -9999 740.6627 739.2249 736.0696 731.7737 727.1949 723.5549 721.6876 721.4789 722.6452 723.8237 724.2024 723.857 722.8613 721.4482 720.0156 719.0283 718.4318 717.9962 717.7063 717.6699 717.5107 717.2344 717.1777 717.0151 716.7142 716.3739 716.06 715.9087 715.5277 715.3037 715.2043 715.1202 715.0682 714.995 714.7435 714.6563 714.8146 715.1466 715.4943 715.7525 715.8838 715.8941 715.8076 715.6721 715.5084 715.3147 715.0903 714.8629 714.6752 714.515 714.3871 714.2894 714.1959 714.0941 714 713.9208 713.867 713.8479 713.8471 713.8645 713.8954 713.9307 713.9624 713.9865 714.0029 714.0057 714 714 713.9941 714.0073 714.0455 714.1022 714.1709 714.2421 714.2992 714.3387 714.3651 714.3799 714.3857 714.3892 714.4005 714.4292 714.4811 714.5584 714.6595 714.7766 714.8961 714.9998 715.0513 715.1044 715.1501 715.1818 715.1984 715.2023 715.1987 715.1924 715.1868 715.1827 715.1802 715.1768 715.1682 715.1495 715.1204 715.0903 715.0593 715.0518 715.0488 715.0482 715.0568 715.0909 715.1166 715.1259 715.1177 715.134 715.1266 714.999 714.8027 714.6196 714.5027 714.3889 714.2738 714.2391 714.2341 714.2425 714.2654 714.3307 714.5304 714.7844 715.0065 715.2327 715.3612 715.3871 715.3461 715.2914 715.215 715.1053 715.0013 714.9991 714.9137 714.8273 714.7609 714.6873 714.6172 714.5688 714.5513 714.5667 714.6125 714.68 714.7513 714.817 714.9082 714.9993 715.0004 715.0003 715.0004 714.9992 714.9141 714.887 714.8759 714.8273 714.8064 714.8022 714.8382 714.9117 714.9999 715.054 715.096 715.1345 715.1724 715.2112 715.251 715.2925 715.3364 715.3831 715.4318 715.4817 715.532 715.5826 715.6346 715.6882 715.7432 715.7986 715.8525 715.9028 715.9473 715.9816 716 716.0284 716.0602 716.0945 716.1296 716.1646 716.1983 716.2305 716.2609 716.2902 716.3182 716.3447 716.37 716.3947 716.4191 716.4427 716.4655 716.4887 716.5133 716.5396 716.5671 716.5955 716.625 716.6559 716.6885 716.7222 716.7558 716.7887 716.8203 716.851 716.8802 716.908 716.9342 716.9586 716.9807 717 717.0165 717.0343 717.0544 717.0762 717.1 717.1277 717.16 717.1979 717.2419 717.2919 717.3469 717.4056 717.4678 717.533 717.6004 717.6681 717.7343 717.797 717.8546 717.9041 717.9445 717.9758 718 718.0264 718.0576 718.0895 718.1172 718.1398 718.1588 718.1761 718.1925 718.2019 718.1941 718.169 718.1366 718.1086 718.0981 718.1183 718.1664 718.2181 718.2411 718.2354 718.2085 718.165 718.1093 718.0511 718.0028 717.9757 717.9755 718.0039 718.0631 718.1578 718.277 718.3923 718.5436 718.678 719.0006 719.4597 719.9484 720.2958 720.8613 720.9786 720.9882 721.1887 721.8014 721.9829 721.9988 721.989 722.0242 722.0728 722.3231 722.9098 723.0682 723.0148 722.7001 722.1736 722.0102 721.9482 721.6085 721.4088 721.0507 720.9935 720.9988 720.9683 720.7429 720.6712 720.6632 720.667 720.6758 720.6943 720.6979 720.6724 720.6609 720.6822 720.6642 720.5671 720.4872 720.5947 720.973 721.2495 721.6332 722.0716 722.5039 724.0267 726.9203 731.0375 735.4117 738.633 739.5101 737.9224 734.5315 730.9562 728.076 726.0013 724.6826 724.2605 724.3312 724.2966 723.6428 723.1309 723.0185 723.5823 724.2089 724.4424 723.6559 722.8177 722.0638 721.6853 721.5815 721.4427 721.2949 721.1822 721.1294 721.0801 721.0008 720.9996 720.9432 720.9226 720.9001 720.8963 720.9016 720.8785 720.869 720.883 720.8811 720.8795 720.8821 720.8921 720.92 720.9983 720.9988 721.0118 721.2804 721.6243 722.098 722.861 723.5116 723.6284 723.689 724.3142 725.2535 726.692 728.3126 730.0775 731.9342 733.7471 -9999 -9999 -9999 -9999 -9999 -9999 -9999 -9999 -9999 -9999 -9999 -9999 -9999 -9999 -9999 -9999 -9999 -9999 -9999 -9999 -9999 -9999 -9999 -9999 -9999 -9999 -9999 -9999
-9999 -9999 -9999 -9999 -9999 -9999 740.9102 739.0397 736.1925 732.3157 728.058 724.4889 722.6155 722.742 723.9122 724.4104 722.9567 724.201 724.0343 722.5684 720.8019 719.614 718.9365 718.4345 718.1355 718.3947 718.4847 718.5861 718.7302 718.3401 717.7938 717.3109 716.9802 716.648 716.2489 716.0598 715.9283 715.6526 715.3646 715.0192 714.701 714.6128 714.8763 715.366 715.7891 716.0347 716.1001 716.0335 715.8786 715.711 715.5392 715.358 715.1471 714.921 714.7507 714.5945 714.468 714.3691 714.28 714.1864 714.0901 714 713.9356 713.9226 713.9136 713.9231 713.9456 713.9709 713.9913 714.0029 714.0111 714 713.9794 713.9655 713.9631 713.988 714.0438 714.1213 714.2087 714.2927 714.3521 714.3887 714.4091 714.4103 714.3928 714.3682 714.3535 714.3639 714.4077 714.4882 714.6025 714.7396 714.88 715.0001 715.085 715.1478 715.192 715.2179 715.2268 715.2217 715.2084 715.1927 715.1764 715.1606 715.1477 715.134 715.1244 715.1029 715.066 715.0427 715.0001 715 715 715 715.0001 715.0487 715.0692 715.0625 715.0007 715.0005 714.9938 714.7804 714.5267 714.3174 714.2269 714.1429 714.0042 713.9993 713.9996 713.9993 713.9976 714.0092 714.2589 714.6072 714.9841 715.1799 715.2867 715.2735 715.1887 715.1481 715.0995 715.0002 714.9156 714.8796 714.8136 714.7394 714.6708 714.6035 714.5444 714.5045 714.4912 714.5063 714.5471 714.606 714.6729 714.7418 714.8163 714.8769 714.8879 714.8898 714.8934 714.8926 714.8546 714.8341 714.8256 714.8107 714.8105 714.8286 714.8713 714.934 715 715.0459 715.0831 715.1174 715.1519 715.1884 715.2269 715.2678 715.3116 715.3586 715.4084 715.46 715.5122 715.5646 715.6177 715.6717 715.7267 715.7819 715.8358 715.8868 715.9325 715.9707 716 716.0172 716.0441 716.0765 716.1115 716.147 716.1819 716.2156 716.2476 716.2778 716.307 716.3348 716.3613 716.3864 716.411 716.4351 716.4583 716.481 716.5046 716.5301 716.5576 716.5864 716.6165 716.6478 716.6805 716.7147 716.7496 716.7842 716.8177 716.8503 716.8812 716.9104 716.937 716.9608 716.9818 717 717.0155 717.0304 717.0474 717.0671 717.0894 717.1146 717.1442 717.179 717.2197 717.2671 717.3204 717.3777 717.4386 717.5029 717.5699 717.6382 717.7061 717.7712 717.8318 717.8857 717.9313 717.969 718 718.0173 718.0433 718.071 718.0938 718.1078 718.1152 718.1201 718.1229 718.121 718.1087 718.0845 718.0554 718.0312 718.0207 718.0334 718.068 718.1067 718.1301 718.1357 718.1274 718.105 718.0674 718.0205 717.9776 717.952 717.9508 717.9729 718.0131 718.0676 718.1327 718.2043 718.299 718.428 718.6676 719.0018 719.3673 719.675 719.9875 720.0398 720.1027 720.4847 720.9047 720.9836 720.9921 721.0914 721.3523 721.4777 721.644 721.9405 722.0183 722.01 721.9083 721.6313 721.5195 721.4058 721.0607 720.9642 720.6664 720.4908 720.4674 720.4524 720.3677 720.3748 720.3956 720.4094 720.4152 720.4311 720.4354 720.4012 720.3846 720.4245 720.4215 720.2878 720.1511 720.1936 720.4225 720.6597 720.9106 721.074 721.4336 722.5104 724.736 728.0078 731.8321 735.064 736.6627 736.1403 734.0837 731.5997 729.4117 727.6617 726.3588 725.6411 724.817 724.1624 723.5485 723.0119 722.8434 723.0222 723.1947 723.377 722.7941 722.0925 721.6298 721.3954 721.3115 721.2231 721.1093 721.0013 720.9998 720.9993 720.9323 720.9003 720.8563 720.8256 720.8005 720.7864 720.7783 720.7625 720.7533 720.7549 720.7549 720.7559 720.7598 720.7682 720.7845 720.8087 720.7985 720.8219 720.9999 721.2677 721.6031 722.0304 722.3792 722.8373 723.0554 723.5671 724.3297 725.463 726.8153 728.2911 730.0226 731.8743 -9999 -9999 -9999 -9999 -9999 -9999 -9999 -9999 -9999 -9999 -9999 -9999 -9999 -9999 -9999 -9999 -9999 -9999 -9999 -9999 -9999 -9999 -9999 -9999 -9999 -9999 -9999 -9999
-9999 -9999 -9999 -9999 -9999 -9999 740.2225 738.2131 735.9848 732.7355 729.0313 725.7711 723.9292 723.9896 724.666 724.1639 722.9876 723.2881 724.6697 723.5552 721.6664 720.1083 719.3253 718.9838 718.9331 719.1254 719.4856 720.0809 720.5912 720.2446 719.6199 719.0839 718.6274 718.1945 717.9261 717.6933 717.4178 716.9118 716.3679 715.7014 715.0656 714.795 715.0964 715.762 716.191 716.3369 716.2682 716.0937 715.8619 715.6525 715.472 715.3026 715.1307 714.934 714.7698 714.6304 714.5203 714.4358 714.3619 714.2809 714.1864 714.0847 714.0004 713.9998 713.9706 713.9712 713.9837 713.9973 714.0056 714 714 713.9689 713.9319 713.9071 713.9098 713.9525 714.0334 714.1376 714.2466 714.3431 714.4022 714.4341 714.4447 714.4232 714.3707 714.3099 714.2675 714.262 714.3019 714.3895 714.5214 714.6842 714.8535 715.0001 715.1084 715.179 715.22 715.2388 715.2395 715.2258 715.2038 715.1816 715.1569 715.1284 715.106 715.0775 715.0708 715.0531 715.0002 714.9998 714.9548 714.9348 714.9293 714.9344 714.9537 714.9997 715.0002 714.999 714.8975 714.8108 714.6992 714.473 714.2186 714.0069 713.9996 713.9973 713.8739 713.8142 713.7813 713.7599 713.7537 713.7975 714.0015 714.3275 714.709 714.9996 715.1699 715.1445 715.0032 714.9999 714.9988 714.9103 714.829 714.7733 714.7142 714.6519 714.591 714.5333 714.4847 714.4531 714.4444 714.46 714.4974 714.5508 714.6127 714.677 714.7393 714.7867 714.8073 714.8168 714.8246 714.8285 714.8195 714.8156 714.8189 714.8253 714.8415 714.8708 714.9133 714.9611 715 715.04 715.0734 715.1041 715.1356 715.1697 715.2069 715.2469 715.2903 715.3371 715.387 715.4393 715.4928 715.5465 715.6005 715.6548 715.7096 715.7644 715.818 715.869 715.9152 715.9542 715.9832 716 716.0273 716.0588 716.0934 716.1295 716.1655 716.2007 716.2344 716.2661 716.2964 716.3254 716.3531 716.379 716.4037 716.4279 716.4515 716.4744 716.4973 716.5216 716.5482 716.5769 716.6075 716.6394 716.6729 716.7078 716.7437 716.7798 716.8154 716.8497 716.8823 716.913 716.9404 716.964 716.9836 717 717.0148 717.0283 717.0422 717.0586 717.0784 717.1011 717.1278 717.1597 717.1974 717.242 717.2931 717.3495 717.4097 717.4733 717.5399 717.6083 717.6772 717.7445 717.8081 717.8657 717.915 717.955 717.984 718 718.0271 718.0537 718.0746 718.0862 718.0885 718.0856 718.08 718.0714 718.0566 718.0339 718.0072 717.9835 717.9702 717.9744 717.9978 718.0286 718.0522 718.0663 718.0731 718.0706 718.0536 718.0237 717.9931 717.9746 717.9749 717.9915 718.0155 718.0414 718.0693 718.1071 718.1717 718.2806 718.4664 718.7208 719.002 719.259 719.4085 719.46 719.5677 719.8671 719.9701 719.9811 720.1052 720.4985 720.8785 720.9427 720.9517 720.9888 720.9983 720.998 720.989 720.9514 720.9471 720.9003 720.6259 720.4833 720.2755 720.021 720 720.0021 720.0073 720.1348 720.182 720.199 720.2 720.2018 720.2045 720.1844 720.1833 720.2283 720.2429 720.1294 719.9843 720.0017 720.2135 720.5204 720.8912 721.3357 721.8469 721.4931 722.6653 724.8295 727.6953 730.4207 732.2155 732.5914 731.9628 731.0509 729.8306 728.7061 727.902 727.3043 726.2458 725.0928 724.1042 723.3973 723.0068 722.8504 722.6881 722.5023 722.0476 721.6305 721.3539 721.2125 721.1602 721.0936 720.9997 720.9039 720.8756 720.8635 720.8231 720.7858 720.7444 720.7083 720.6777 720.6553 720.6398 720.6259 720.6175 720.6173 720.6212 720.6266 720.6308 720.6334 720.6339 720.632 720.6276 720.665 720.7972 720.999 721.2312 721.4748 721.729 722.0552 722.4429 722.9612 723.6667 724.723 725.8705 727.0993 728.661 730.5034 732.1371 -9999 -9999 -9999 -9999 -9999 -9999 -9999 -9999 -9999 -9999 -9999 -9999 -9999 -9999 -9999 -9999 -9999 -9999 -9999 -9999 -9999 -9999 -9999 -9999 -9999 -9999 -9999
-9999 -9999 -9999 -9999 -9999 -9999 -9999 737.6371 735.749 733.1124 730.0182 727.0809 725.0709 724.5989 724.3197 723.5811 722.8368 723.0563 724.2234 723.5358 721.8936 720.371 719.6021 719.2933 719.33 719.6247 720.1849 721.1951 721.8857 721.8618 721.5098 721.1821 720.8433 720.5883 720.5355 720.3704 720.0154 719.3958 718.4887 717.2502 716.1705 715.4164 715.5512 716.3917 716.6392 716.5423 716.2552 715.9639 715.6969 715.476 715.3028 715.1506 715.0039 714.8562 714.7279 714.6248 714.5486 714.4934 714.4435 714.3794 714.2926 714.1904 714.0968 714.0472 714.0001 714 714 714 714 713.979 713.9498 713.9038 713.8546 713.8247 713.8378 713.9056 714.0187 714.1537 714.2838 714.3896 714.4434 714.4656 714.4591 714.4014 714.3025 714.2045 714.1431 714.1323 714.1752 714.2725 714.4222 714.6129 714.8186 715.0004 715.121 715.1913 715.2247 715.235 715.2283 715.2065 715.1754 715.1526 715.1237 715.0793 715.056 715.0002 715 714.9995 714.9373 714.902 714.8611 714.836 714.827 714.8319 714.8486 714.8701 714.861 714.8239 714.7184 714.5856 714.4171 714.1967 714.0003 713.8599 713.8292 713.8074 713.7234 713.6484 713.5919 713.5553 713.5483 713.5999 713.756 714.0077 714.3643 714.7186 714.982 714.9942 714.8704 714.8315 714.8198 714.771 714.7145 714.6648 714.6163 714.5674 714.5197 714.4747 714.4376 714.4149 714.4115 714.4286 714.4641 714.5133 714.5702 714.6288 714.6835 714.7266 714.7534 714.7706 714.7848 714.7974 714.8069 714.8196 714.8367 714.8576 714.8846 714.9196 714.9607 715 715.0225 715.0465 715.0706 715.0955 715.1229 715.1542 715.1896 715.2288 715.2715 715.3176 715.3669 715.4192 715.4729 715.5273 715.5818 715.6362 715.6907 715.7449 715.7982 715.8492 715.8963 715.9377 715.9723 716 716.0167 716.0433 716.0763 716.1124 716.1494 716.1859 716.2211 716.2546 716.286 716.316 716.3447 716.3716 716.3967 716.421 716.4447 716.4677 716.4905 716.514 716.5394 716.5673 716.5977 716.6302 716.6647 716.7006 716.7379 716.7754 716.8129 716.8492 716.8837 716.9158 716.9444 716.9681 716.9864 717 717.0135 717.0265 717.0388 717.0519 717.0681 717.0876 717.1111 717.1398 717.1744 717.2161 717.2648 717.3199 717.3796 717.443 717.5095 717.5781 717.6473 717.7157 717.7819 717.8429 717.8967 717.9413 717.9757 718 718.0197 718.041 718.0605 718.0728 718.0748 718.069 718.0592 718.0466 718.0308 718.0092 717.9838 717.9598 717.9424 717.9379 717.9498 717.972 717.9932 718.0106 718.0268 718.0391 718.0404 718.0281 718.0117 718.0031 718.0063 718.0192 718.0329 718.0422 718.0492 718.0655 718.1082 718.1951 718.3401 718.5405 718.7743 718.9888 719.0037 718.9984 719.0008 719.0355 719.0399 719.0973 719.4653 719.8693 720.0004 720.0001 719.978 719.9745 720.0179 720.032 720.0369 720.0388 720.0485 720.0482 720.0056 719.9988 719.9791 719.785 719.7182 719.7354 719.8262 719.9941 720.0004 719.9998 719.9998 719.9998 719.9999 720.0015 720.0602 720.0933 720.1115 720.0549 719.9482 719.9575 720.1543 720.494 720.8696 721.2512 721.2521 720.8359 721.1436 722.2466 723.967 725.8234 727.2723 728.0949 728.558 728.8372 728.7472 728.5099 728.3068 728.0991 727.5931 726.4787 725.1205 724.105 723.4769 722.9735 722.4675 722.0372 721.6733 721.3762 721.2007 721.1051 721.0804 720.9996 720.8853 720.7886 720.7405 720.7168 720.6886 720.6553 720.6157 720.5764 720.541 720.5133 720.4934 720.48 720.4726 720.474 720.4825 720.4939 720.5006 720.4987 720.4901 720.4785 720.4801 720.5269 720.6431 720.8116 720.9987 721.1604 721.3439 721.6037 721.9744 722.4358 723.1791 724.3936 725.4576 726.7098 728.476 730.3418 731.7325 -9999 -9999 -9999 -9999 -9999 -9999 -9999 -9999 -9999 -9999 -9999 -9999 -9999 -9999 -9999 -9999 -9999 -9999 -9999 -9999 -9999 -9999 -9999 -9999 -9999 -9999 -9999
-9999 -9999 -9999 -9999 -9999 -9999 -9999 736.5704 735.2332 733.3311 730.9086 728.2978 726.0611 724.5886 723.858 723.1056 722.4612 722.4877 723.9106 723.2638 722.3068 720.9848 720.0568 719.6234 719.6513 720 720.6731 721.6954 722.7836 723.098 723.0377 722.9781 722.8988 722.9142 723.1194 723.1088 722.6968 722.0943 720.9745 719.4554 718.0177 716.9099 716.2655 717.0956 716.8491 716.377 715.9847 715.6626 715.4023 715.2055 715.0516 714.9268 714.8121 714.71 714.6321 714.5812 714.5538 714.5385 714.5172 714.4706 714.3915 714.2892 714.1833 714.1024 714.0414 714.0071 713.979 713.9589 713.9507 713.9213 713.8726 713.8109 713.7502 713.7205 713.7527 713.8547 714.0057 714.1712 714.3172 714.4238 714.4638 714.468 714.4347 714.3276 714.1783 714.0587 714.0046 714.0071 714.0576 714.1589 714.3156 714.5234 714.7627 714.9972 715.1054 715.1711 715.1945 715.1974 715.1872 715.1588 715.1115 715.0972 715.0733 715.0005 714.999 714.9204 714.876 714.8456 714.7955 714.7555 714.7214 714.7 714.6915 714.694 714.7025 714.7056 714.6832 714.6266 714.5208 714.3787 714.2039 714.0034 713.8738 713.7711 713.7151 713.665 713.5869 713.5042 713.4336 713.3868 713.3778 713.4254 713.5498 713.7479 714.0101 714.3196 714.4976 714.5961 714.5874 714.5953 714.6117 714.6055 714.5828 714.5533 714.521 714.4879 714.4557 714.4258 714.4017 714.3888 714.3916 714.4114 714.4464 714.4927 714.5453 714.5988 714.6487 714.6908 714.7223 714.7465 714.7676 714.7892 714.812 714.8378 714.8668 714.8972 714.9295 714.9647 715 715.0258 715.0412 715.0555 715.0714 715.0901 715.1129 715.141 715.1743 715.2122 715.2539 715.2991 715.3474 715.3988 715.452 715.5061 715.5605 715.6147 715.6689 715.7227 715.7755 715.8264 715.8744 715.9177 715.9547 715.983 716 716.0275 716.0599 716.0959 716.1336 716.1713 716.2079 716.2429 716.2758 716.3066 716.3358 716.3635 716.3894 716.4136 716.437 716.4601 716.483 716.5063 716.5307 716.5576 716.5874 716.6201 716.6554 716.6925 716.7313 716.7707 716.81 716.8484 716.885 716.9187 716.9486 716.9735 716.9912 717 717.0126 717.0244 717.0355 717.0463 717.0588 717.0748 717.0947 717.1198 717.1511 717.1895 717.2355 717.2886 717.3474 717.4105 717.4772 717.5461 717.6156 717.6846 717.7521 717.8163 717.8747 717.9254 717.9674 718 718.0132 718.0313 718.051 718.066 718.0713 718.0663 718.0552 718.0408 718.0244 718.0042 717.9796 717.9553 717.9346 717.9222 717.923 717.9347 717.9497 717.9653 717.9844 718.0054 718.0197 718.0221 718.0182 718.0177 718.0236 718.0326 718.0394 718.0414 718.04 718.0448 718.0714 718.135 718.2398 718.382 718.5417 718.6664 718.6729 718.6383 718.5952 718.567 718.5747 718.6862 718.963 719.0463 719.0511 719.0373 719.0331 719.0781 719.3087 719.3886 719.4105 719.4203 719.4313 719.4409 719.4445 719.4709 719.5389 719.4929 719.464 719.4928 719.595 719.718 719.7518 719.7612 719.7751 719.7986 719.8348 719.8965 719.9988 719.9999 720.0005 720.0269 719.9824 719.9844 720.0972 720.3566 720.6136 720.7722 720.6406 720.3094 720.2783 720.7045 721.5132 722.5767 723.5225 724.3315 725.0506 725.8456 726.6556 727.1108 727.4127 727.6532 727.719 727.4772 726.082 724.8364 723.9517 723.0447 722.3638 721.9582 721.517 721.2219 721.1055 721.0011 720.9966 720.8588 720.725 720.631 720.5834 720.561 720.542 720.5156 720.4795 720.4389 720.4 720.3687 720.3479 720.335 720.3287 720.3314 720.3441 720.3621 720.3746 720.3724 720.3589 720.3452 720.3505 720.4045 720.5219 720.6862 720.8596 721.0011 721.1325 721.2952 721.5654 722.0283 722.9231 724.2281 725.5946 727.4346 729.4658 731.2244 731.8737 -9999 -9999 -9999 -9999 -9999 -9999 -9999 -9999 -9999 -9999 -9999 -9999 -9999 -9999 -9999 -9999 -9999 -9999 -9999 -9999 -9999 -9999 -9999 -9999 -9999 -9999 -9999
-9999 -9999 -9999 -9999 -9999 -9999 -9999 -9999 734.0435 733.006 731.55 729.475 727.2065 725.3159 724.0031 723.097 722.5039 722.4133 722.9793 724.1049 723.291 721.8701 720.801 720.0773 719.9952 720.2582 720.8618 721.8387 723.0449 723.8796 724.051 724.2901 724.4393 724.6448 725.0132 725.2239 724.7968 724.107 722.972 721.4244 720.132 718.7864 717.4792 716.3723 716.2627 715.9188 715.6324 715.3372 715.0852 714.9194 714.7876 714.6785 714.5881 714.5249 714.5004 714.5088 714.5365 714.564 714.5691 714.535 714.459 714.3544 714.239 714.1382 714.061 713.9967 713.9384 713.8964 713.8737 713.8317 713.7678 713.6923 713.6234 713.6021 713.6647 713.8098 714.0004 714.1895 714.3395 714.4331 714.4491 714.4243 714.3575 714.1955 714.0084 713.9089 713.9103 713.9462 713.9979 714.0842 714.2233 714.4164 714.6381 714.8496 714.9996 715.099 715.1181 715.1187 715.1129 715.0857 715.0008 714.9998 714.998 714.8975 714.8302 714.7467 714.683 714.6378 714.5973 714.5674 714.5463 714.5346 714.5316 714.5343 714.5378 714.5316 714.5023 714.4418 714.3458 714.225 714.0988 713.9986 713.8508 713.7319 713.6458 713.5681 713.4799 713.3878 713.3065 713.2518 713.2383 713.2798 713.3849 713.5524 713.7682 713.99 714.0234 714.2031 714.2629 714.337 714.402 714.439 714.4509 714.4462 714.4326 714.4158 714.3993 714.3849 714.3747 714.3724 714.3824 714.406 714.4418 714.4869 714.5366 714.5863 714.6329 714.6746 714.7097 714.7396 714.7675 714.7968 714.8292 714.8646 714.9015 714.9369 714.9692 715 715.0256 715.0435 715.0543 715.0629 715.0728 715.0862 715.1047 715.1289 715.1595 715.1956 715.2362 715.2803 715.3274 715.3773 715.4294 715.4824 715.536 715.5896 715.6431 715.6962 715.7488 715.8 715.8491 715.8948 715.9357 715.9711 716 716.0173 716.0455 716.0806 716.1185 716.1573 716.1949 716.2308 716.265 716.2969 716.3265 716.3545 716.3809 716.4054 716.4285 716.451 716.4738 716.4971 716.5212 716.5474 716.5766 716.6091 716.645 716.6834 716.7237 716.765 716.8063 716.8467 716.8856 716.9211 716.9528 716.9796 717 717.0077 717.0157 717.024 717.0323 717.0408 717.0502 717.0624 717.0786 717.0997 717.1274 717.1625 717.2054 717.2561 717.3132 717.3757 717.4423 717.5115 717.5814 717.6506 717.7188 717.7848 717.8468 717.9026 717.9491 717.9829 718 718.0232 718.0458 718.0644 718.0747 718.0735 718.0633 718.0482 718.0313 718.0122 717.9893 717.965 717.9428 717.925 717.9166 717.9183 717.9253 717.9353 717.952 717.9755 717.9971 718.0092 718.0131 718.0165 718.0222 718.0262 718.0258 718.0262 718.0239 718.0244 718.0374 718.082 718.1484 718.236 718.3367 718.4075 718.4125 718.3794 718.3328 718.2994 718.3068 718.384 718.5122 718.5374 718.5208 718.5201 718.5727 718.7189 718.9788 719.0013 718.9996 718.9988 718.999 718.9995 718.9996 719.0153 719.1818 719.2166 719.2173 719.2424 719.3488 719.4421 719.4811 719.5007 719.5383 719.588 719.6536 719.736 719.8282 719.8716 719.9188 719.9993 719.9999 719.9998 720.0015 720.1716 720.2965 720.335 720.2336 720.0316 719.9224 720.0347 720.3805 720.8973 721.3745 721.9979 722.5283 723.2515 724.0178 724.5686 725.0642 725.6194 726.2578 726.5123 725.9012 724.9958 724.0859 722.9294 722.0723 721.6401 721.2681 721.0069 720.9921 720.8534 720.7516 720.6069 720.4939 720.4268 720.4058 720.4001 720.3929 720.3754 720.3448 720.3059 720.2644 720.2297 720.2108 720.2013 720.196 720.1984 720.212 720.2367 720.257 720.2591 720.2428 720.2274 720.2352 720.2949 720.421 720.6035 720.8108 720.9985 721.052 721.1084 721.2726 721.6923 722.6017 724.1962 725.9583 728.4771 730.9034 732.4006 732.6352 -9999 -9999 -9999 -9999 -9999 -9999 -9999 -9999 -9999 -9999 -9999 -9999 -9999 -9999 -9999 -9999 -9999 -9999 -9999 -9999 -9999 -9999 -9999 -9999 -9999 -9999 -9999
-9999 -9999 -9999 -9999 -9999 -9999 -9999 -9999 -9999 732.4869 731.8793 730.4312 728.3787 726.2484 724.5391 723.5511 722.9933 722.9539 723.4028 724.0167 723.921 723.0551 721.813 720.7778 720.3894 720.4449 720.7653 721.3767 722.7162 723.7742 724.4166 725.005 725.5107 725.9887 726.616 727.1038 726.4751 725.5564 724.5041 723.2568 722.0385 720.8181 719.4973 718.0771 717.0468 716.2053 715.798 715.3453 714.9901 714.7988 714.6365 714.5124 714.4141 714.3613 714.3748 714.4335 714.5068 714.5675 714.5886 714.5564 714.4756 714.3672 714.2487 714.1371 714.0479 713.9636 713.8823 713.8237 713.7879 713.7314 713.6497 713.5599 713.4876 713.4854 713.5902 713.7833 714.0068 714.2041 714.3399 714.4034 714.3859 714.3229 714.2269 714.0199 713.8284 713.8201 713.9513 714.0297 714.0532 714.0935 714.1936 714.3564 714.5406 714.7061 714.8558 714.9976 714.9998 714.9999 714.9997 714.9971 714.8754 714.8115 714.7656 714.6774 714.5912 714.5057 714.4377 714.3922 714.3646 714.3521 714.3494 714.3533 714.3611 714.3697 714.3745 714.3679 714.3402 714.2859 714.2048 714.1055 714.0005 713.9301 713.816 713.7 713.5972 713.5004 713.4001 713.299 713.2092 713.1469 713.1266 713.1591 713.2474 713.3864 713.5588 713.7271 713.8319 713.995 714.004 714.1237 714.2255 714.2927 714.332 714.3502 714.3549 714.3535 714.3515 714.3513 714.3545 714.363 714.3807 714.4092 714.4474 714.4929 714.5415 714.5892 714.6335 714.6743 714.7116 714.7458 714.7792 714.8145 714.8529 714.8942 714.9355 714.9728 715 715.0238 715.0425 715.0553 715.0625 715.0671 715.0727 715.0817 715.0959 715.1166 715.1442 715.1781 715.2172 715.2601 715.3059 715.3542 715.4045 715.4559 715.5079 715.5601 715.6124 715.6649 715.7173 715.7689 715.8193 715.8673 715.9116 715.9507 715.9812 716 716.0302 716.0659 716.1044 716.1437 716.1821 716.2188 716.2533 716.286 716.3164 716.3444 716.3708 716.3956 716.4185 716.4404 716.4624 716.4854 716.5095 716.5355 716.5643 716.5968 716.6332 716.6727 716.7147 716.7578 716.8015 716.8441 716.885 716.9224 716.9548 716.9811 717 717.0109 717.0187 717.0248 717.03 717.0354 717.0418 717.0502 717.062 717.079 717.1029 717.1349 717.1752 717.2231 717.278 717.3389 717.4047 717.4736 717.5438 717.6133 717.6815 717.7485 717.8132 717.8738 717.9273 717.9703 718 718.0221 718.0452 718.0669 718.0816 718.0854 718.078 718.0631 718.0456 718.0272 718.0061 717.9836 717.9622 717.9426 717.9282 717.9221 717.9221 717.9265 717.9382 717.959 717.9822 717.9982 718.0051 718.0085 718.0106 718.01 718 718 718 718 718 718.0341 718.0662 718.1069 718.1738 718.2189 718.2246 718.2034 718.1709 718.1467 718.1515 718.1896 718.2384 718.2447 718.2358 718.2538 718.3257 718.4653 718.6352 718.6823 718.6852 718.6806 718.6803 718.6915 718.7278 718.8169 718.9934 719.0007 718.9993 719.0034 719.1361 719.2012 719.2239 719.24 719.3071 719.376 719.4592 719.5451 719.6265 719.6838 719.7395 719.8138 719.8535 719.875 719.901 719.9976 720.0029 720.0037 720.001 719.9714 719.9098 719.9137 720.0164 720.2198 720.494 720.8857 721.1521 721.6767 722.147 722.5124 722.9647 723.5308 724.1978 724.5979 724.6902 724.3138 723.5582 722.3655 721.7264 721.3254 720.9967 720.7488 720.6702 720.5642 720.4437 720.2974 720.2292 720.2015 720.2272 720.246 720.2507 720.2418 720.2195 720.186 720.1451 720.1038 720.0914 720.0873 720.0845 720.0846 720.094 720.1259 720.1537 720.162 720.1453 720.1237 720.1304 720.1912 720.3236 720.5166 720.7361 720.9238 721 721.0031 721.0681 721.3772 722.1501 723.7026 726.0645 729.2513 732.1405 733.797 733.642 733.0812 -9999 -9999 -9999 -9999 -9999 -9999 -9999 -9999 -9999 -9999 -9999 -9999 -9999 -9999 -9999 -9999 -9999 -9999 -9999 -9999 -9999 -9999 -9999 -9999 -9999 -9999
-9999 -9999 -9999 -9999 -9999 -9999 -9999 -9999 -9999 732.0292 732.0638 731.3353 729.5319 727.2891 725.4448 724.2535 723.6503 723.5819 723.9545 724.1664 724.1622 723.8189 722.7552 721.342 720.7573 720.6972 720.802 721.1006 722.1187 723.2947 724.3595 725.0712 725.8045 726.4854 727.658 728.0298 727.632 726.4902 725.4968 724.5136 723.4485 722.3596 721.3407 720.1841 719.0381 718.0068 717.0186 716.1194 715.4933 715.1723 714.8292 714.6048 714.428 714.3273 714.3407 714.417 714.5037 714.5692 714.585 714.538 714.4407 714.3258 714.2115 714.1025 714.0071 713.9115 713.8169 713.7489 713.7045 713.6343 713.5323 713.4302 713.3619 713.3907 713.5466 713.7843 714.0243 714.207 714.3076 714.3264 714.2706 714.1693 714.0629 713.839 713.686 713.8525 714.2174 714.3181 714.257 714.2225 714.2866 714.442 714.6006 714.6929 714.767 714.8395 714.8635 714.871 714.8174 714.7726 714.667 714.5831 714.5117 714.4226 714.3282 714.2393 714.1706 714.1307 714.1183 714.1268 714.147 714.1714 714.1957 714.2162 714.2291 714.2295 714.2108 714.1699 714.11 714.0461 713.9998 713.9094 713.7939 713.674 713.5603 713.451 713.342 713.2347 713.1388 713.0693 713.0406 713.0613 713.1322 713.2461 713.3878 713.5325 713.6605 713.796 713.875 713.9995 714.101 714.1757 714.2321 714.2688 714.2898 714.302 714.3123 714.324 714.3388 714.3575 714.383 714.4171 714.4592 714.507 714.5565 714.604 714.6472 714.687 714.7249 714.7617 714.7985 714.8371 714.8785 714.9218 714.9636 715 715.0206 715.0389 715.0533 715.0626 715.0668 715.0681 715.0696 715.0745 715.0847 715.1017 715.1265 715.1581 715.1955 715.2372 715.2817 715.3285 715.3767 715.4259 715.4758 715.5262 715.577 715.6285 715.6805 715.7325 715.7843 715.8347 715.8828 715.9272 715.9666 716 716.0201 716.0532 716.0913 716.1302 716.1687 716.2058 716.2408 716.2738 716.3048 716.3331 716.3591 716.3835 716.4064 716.4277 716.4487 716.4708 716.4946 716.5205 716.5494 716.5823 716.6193 716.6599 716.7035 716.7489 716.7948 716.8401 716.8833 716.9225 716.9557 716.9817 717 717.0121 717.02 717.0253 717.0284 717.0306 717.0336 717.0381 717.0453 717.0575 717.0771 717.1062 717.1442 717.1899 717.2425 717.3013 717.3652 717.4328 717.5024 717.5718 717.6401 717.7073 717.7736 717.8384 717.8998 717.955 718 718.0186 718.0442 718.0694 718.0879 718.0961 718.0928 718.0795 718.0615 718.0431 718.0238 718.0039 717.9854 717.9677 717.9518 717.9414 717.9372 717.9383 717.946 717.962 717.981 717.9955 718.001 718.0025 718 718 717.9871 717.9792 717.9751 717.9741 717.9788 717.9999 718 718.0003 718.0602 718.0895 718.0951 718.086 718.0702 718.0585 718.0688 718.0859 718.1008 718.0995 718.0981 718.1241 718.1886 718.2891 718.392 718.4357 718.4427 718.4395 718.4415 718.4608 718.511 718.6061 718.7288 718.7734 718.8068 718.8677 718.9963 719.0005 718.9997 719.0029 719.1138 719.1777 719.2744 719.3514 719.4137 719.4586 719.5021 719.5696 719.6321 719.6742 719.7145 719.7723 719.7915 719.8232 719.8978 719.9991 719.9999 720 719.9999 720.0555 720.1552 720.3177 720.4872 720.8328 721.0861 721.4505 721.7478 722.075 722.4639 722.7981 723.1599 723.0604 722.3954 721.7441 721.3518 720.9952 720.6647 720.3992 720.3175 720.2559 720.1631 720.0052 719.9993 720.0013 720.0818 720.1125 720.1207 720.1176 720.1058 720.0852 720.0536 720.0002 719.9999 720 720 720 720.0001 720.042 720.0739 720.0847 720.0694 720.0396 720.0359 720.0926 720.2249 720.4242 720.6555 720.8669 720.9997 720.9853 720.9935 721.2466 721.9975 723.5372 726.0813 729.717 733.1523 735.1005 734.4555 733.7827 -9999 -9999 -9999 -9999 -9999 -9999 -9999 -9999 -9999 -9999 -9999 -9999 -9999 -9999 -9999 -9999 -9999 -9999 -9999 -9999 -9999 -9999 -9999 -9999 -9999 -9999
-9999 -9999 -9999 -9999 -9999 -9999 -9999 -9999 -9999 -9999 731.8928 731.2348 729.7878 727.7322 725.9319 724.6721 724.0215 723.8727 723.9999 724.046 724.0041 723.8088 722.976 721.707 721.0199 720.9964 720.9989 721.0756 721.5936 722.3323 723.334 724.1372 724.7625 725.5463 727.1312 728.0069 728.0263 727.2468 726.2413 725.3552 724.4449 723.3792 722.4976 721.6927 720.8278 720.0259 719.0535 718.0759 717.2738 716.4675 715.6749 715.2247 714.8431 714.5862 714.5358 714.5711 714.6085 714.6304 714.6082 714.5237 714.3899 714.2626 714.1583 714.0642 713.97 713.8644 713.7598 713.6893 713.6417 713.5605 713.4371 713.3257 713.2687 713.3369 713.5443 713.8125 714.0449 714.1895 714.24 714.2107 714.1213 713.9965 713.9058 713.7081 713.6118 713.9755 714.6796 714.7728 714.5768 714.4877 714.5704 714.8004 714.9991 715.0352 715.0364 715.0399 715.0353 714.9915 714.7928 714.6938 714.5482 714.4379 714.3386 714.2241 714.1044 713.9976 713.9202 713.8823 713.8831 713.9125 713.957 714.0052 714.0505 714.0886 714.116 714.1289 714.1235 714.0975 714.0529 714.0001 713.9786 713.895 713.778 713.6528 713.5315 713.4152 713.3016 713.1919 713.0931 713.0181 712.98 712.9868 713.0393 713.1311 713.2496 713.3797 713.5106 713.6428 713.7596 713.888 713.9998 714.0778 714.1498 714.202 714.2367 714.2605 714.2806 714.3018 714.3258 714.3534 714.3861 714.426 714.4729 714.5249 714.5776 714.6272 714.671 714.7103 714.7474 714.7843 714.822 714.8614 714.9026 714.9441 714.9797 715 715.026 715.046 715.0596 715.0666 715.0679 715.0659 715.0632 715.0636 715.0692 715.0827 715.1049 715.1345 715.1701 715.2103 715.2536 715.2989 715.3452 715.3921 715.4396 715.4878 715.5369 715.5872 715.6386 715.6909 715.7435 715.796 715.8474 715.8962 715.9404 715.9767 716 716.0388 716.0775 716.1161 716.1539 716.1909 716.2265 716.2598 716.2909 716.3196 716.3455 716.369 716.391 716.4117 716.432 716.4532 716.4763 716.502 716.531 716.5641 716.6019 716.6439 716.6893 716.7371 716.7858 716.8339 716.8801 716.9219 716.9565 716.9824 717 717.0123 717.0204 717.0247 717.0264 717.0262 717.0259 717.0266 717.0294 717.036 717.0503 717.076 717.1121 717.156 717.2065 717.2629 717.3242 717.3896 717.4575 717.526 717.5936 717.6605 717.7273 717.7944 717.8604 717.9217 717.9714 718 718.0386 718.0691 718.0902 718.1007 718.1008 718.0907 718.0736 718.0553 718.0375 718.0201 718.0051 717.9915 717.9783 717.9677 717.9624 717.9625 717.9686 717.9801 717.991 718 718 718 717.9946 717.9873 717.9729 717.9597 717.9503 717.9453 717.9452 717.9503 717.9486 717.9573 717.9998 718.0001 718 718 717.9999 718.0001 718.0284 718.0377 718.0396 718.0358 718.0366 718.0645 718.1107 718.1709 718.2273 718.2548 718.2594 718.2561 718.2572 718.2734 718.3165 718.3969 718.4856 718.5425 718.5939 718.6656 718.7545 718.7854 718.8143 718.8748 718.9971 719.0024 719.1187 719.1729 719.2031 719.2223 719.244 719.3192 719.3903 719.4468 719.4902 719.5508 719.5924 719.6393 719.7171 719.8101 719.8572 719.8926 719.9304 719.9982 719.9983 719.9965 719.9978 720.0871 720.4628 720.8472 720.9285 720.9662 721.0471 721.1934 721.4648 721.512 721.3174 721.0007 720.8791 720.5742 720.3016 720.0167 719.9987 720.0005 719.9968 719.8896 719.8727 719.9097 719.999 720.0002 720 720 720 720.0001 719.9998 719.9555 719.9401 719.9375 719.9409 719.9482 719.963 720 720.0259 720.0323 720.0154 719.9807 719.9615 720.0042 720.1296 720.3285 720.5657 720.7904 720.9476 720.9999 721.0046 721.2612 722.053 723.6901 726.0532 729.794 733.4396 735.2999 735.1203 734.2629 -9999 -9999 -9999 -9999 -9999 -9999 -9999 -9999 -9999 -9999 -9999 -9999 -9999 -9999 -9999 -9999 -9999 -9999 -9999 -9999 -9999 -9999 -9999 -9999 -9999 -9999
-9999 -9999 -9999 -9999 -9999 -9999 -9999 -9999 -9999 -9999 730.8869 730.166 728.6835 727.0568 725.6031 724.5459 724.0167 723.895 723.9713 724.0095 724.1459 723.6 722.4183 721.5514 721.064 720.9705 720.9561 720.9937 721.2391 721.6502 722.2009 722.8862 723.5527 724.4281 726.0243 727.8303 728.571 728.0899 727.1548 726.2383 725.5291 724.4461 723.3607 722.5614 721.9107 721.2826 720.6889 720.0421 719.3982 718.5729 717.5637 716.6504 715.9154 715.3774 715.1699 715.0653 714.9545 714.8676 714.7686 714.619 714.4137 714.2613 714.1732 714.0977 714.0024 713.8775 713.7582 713.6852 713.6385 713.5497 713.4036 713.2823 713.2371 713.3407 713.5852 713.8596 714.0598 714.1533 714.1575 714.0966 713.9926 713.8746 713.8215 713.7122 713.6406 713.9955 714.7322 715.1746 714.9254 714.9312 715.1558 715.5731 715.9067 716.0247 716.0442 716.0299 715.9322 715.5785 715.1279 714.9819 714.6953 714.5233 714.3644 714.1772 713.9911 713.8376 713.7325 713.6835 713.6887 713.7341 713.8002 713.8722 713.9407 714.0001 714.0463 714.0758 714.0862 714.0771 714.0525 714.0234 713.9999 713.8973 713.7704 713.6387 713.5117 713.392 713.2781 713.1696 713.071 712.9922 712.9443 712.9363 712.9696 713.04 713.1387 713.2552 713.3824 713.5168 713.6522 713.7903 713.9125 714.0004 714.0892 714.1498 714.1928 714.226 714.2544 714.2828 714.3138 714.3484 714.3876 714.4333 714.486 714.5435 714.6013 714.6552 714.7018 714.7414 714.7771 714.8121 714.8479 714.8853 714.9241 714.9636 715 715.0162 715.0358 715.053 715.0645 715.0688 715.0669 715.0607 715.0536 715.049 715.049 715.0583 715.0787 715.1062 715.1402 715.1791 715.2209 715.2648 715.3093 715.3542 715.3994 715.4453 715.4924 715.5411 715.5917 715.6437 715.6969 715.7509 715.8049 715.858 715.9089 715.9565 715.9999 716.0295 716.0629 716.099 716.1363 716.1732 716.2092 716.2432 716.2744 716.303 716.3287 716.3516 716.3723 716.3918 716.4114 716.4319 716.4542 716.4795 716.5084 716.5419 716.5804 716.6238 716.671 716.7211 716.7728 716.8248 716.8751 716.9208 716.9581 716.9844 717 717.0123 717.0206 717.0243 717.024 717.0219 717.0191 717.0164 717.0156 717.0161 717.0237 717.0459 717.0797 717.1218 717.1701 717.224 717.2825 717.3447 717.4097 717.4758 717.542 717.6075 717.6736 717.7411 717.8102 717.8787 717.9434 717.9999 718.0341 718.0638 718.0858 718.0963 718.098 718.0907 718.0757 718.0593 718.044 718.0293 718.0165 718.0063 717.998 717.9906 717.9866 717.9869 717.9917 718 718 718.0001 717.9962 717.9918 717.9842 717.9728 717.9564 717.9392 717.9247 717.9139 717.9066 717.901 717.895 717.8971 717.9115 717.9094 717.9083 717.9136 717.9277 717.9545 717.9998 718 718 718 718 718.0328 718.0579 718.0837 718.1062 718.1173 718.118 718.1147 718.1133 718.1194 718.1431 718.2114 718.2767 718.3245 718.3717 718.439 718.5093 718.557 718.6088 718.6902 718.799 718.8748 718.9966 719.0003 718.9999 718.9997 719.0031 719.114 719.1703 719.2106 719.2509 719.3364 719.3931 719.4332 719.4845 719.5452 719.5991 719.6662 719.7269 719.7722 719.7546 719.6967 719.6577 719.7146 719.9589 720.0409 720.0343 720.0159 720.0069 720.0234 720.1053 720.201 720.348 720.1016 720.049 720.0107 719.9823 719.8057 719.762 719.7691 719.7777 719.7437 719.7455 719.7866 719.8484 719.8679 719.8772 719.8857 719.8956 719.9057 719.9107 719.8938 719.8854 719.8876 719.8984 719.9156 719.9407 719.975 720 720.007 719.9849 719.9464 719.9163 719.9391 720.0481 720.2399 720.4797 720.7169 720.9 720.9999 721.0338 721.3199 722.1735 723.9577 725.9471 729.6249 733.4106 735.4642 735.7735 734.4531 -9999 -9999 -9999 -9999 -9999 -9999 -9999 -9999 -9999 -9999 -9999 -9999 -9999 -9999 -9999 -9999 -9999 -9999 -9999 -9999 -9999 -9999 -9999 -9999 -9999 -9999
-9999 -9999 -9999 -9999 -9999 -9999 -9999 -9999 -9999 730.1359 729.5219 728.4716 727.2153 725.862 724.5734 723.9664 723.7336 723.7937 724.0502 724.358 724.4945 723.196 722.1246 721.432 721.0869 721.0046 721.0073 721.0446 721.1667 721.3972 721.7371 722.1114 722.9347 724.1135 725.9941 728.3181 729.6681 729.2366 728.1865 727.2185 726.4514 725.5839 724.4268 723.3309 722.5947 721.9994 721.5145 721.1354 720.8546 720.4156 719.6243 718.7705 717.891 717.1107 716.4886 716.1113 715.7289 715.4495 715.2408 715.0089 714.6708 714.4742 714.4036 714.3423 714.2217 714.0402 713.8929 713.8175 713.7723 713.6753 713.5024 713.3599 713.3108 713.4247 713.6738 713.924 714.0771 714.1299 714.1233 714.0762 713.994 713.9185 713.9238 714.0024 714.035 714.3161 715.0018 715.6545 715.4009 715.7631 716.3634 716.8831 717.1696 717.4117 717.4821 717.4664 717.2958 716.7524 716.194 715.8515 715.2715 715.002 714.7216 714.3808 714.0651 713.8254 713.6638 713.5807 713.5739 713.6239 713.7024 713.7923 713.8822 713.9636 714.0298 714.0764 714.1012 714.1034 714.0845 714.0493 713.9998 713.8949 713.7693 713.6365 713.5063 713.3848 713.2726 713.1682 713.0724 712.9913 712.9341 712.9099 712.9229 712.9713 713.05 713.1519 713.2714 713.4058 713.5519 713.7068 713.8607 713.9993 714.0624 714.1093 714.154 714.1945 714.2306 714.265 714.3009 714.3406 714.3854 714.437 714.4963 714.5606 714.6251 714.6852 714.7365 714.778 714.8126 714.8444 714.8757 714.9078 714.9404 714.9718 715 715.0228 715.0437 715.0598 715.0688 715.0699 715.0635 715.0524 715.0406 715.0319 715.0248 715.0296 715.0494 715.0737 715.1064 715.1442 715.1841 715.226 715.2687 715.3119 715.3551 715.3989 715.444 715.4911 715.5403 715.5916 715.6447 715.6993 715.7549 715.8106 715.8652 715.9172 715.9639 716 716.0366 716.0745 716.1127 716.151 716.1879 716.2227 716.2546 716.283 716.3082 716.3303 716.35 716.3682 716.3865 716.4059 716.4276 716.4525 716.4813 716.515 716.5543 716.5985 716.6473 716.6997 716.7549 716.8113 716.8668 716.9181 716.9608 716.9891 717 717.0138 717.0219 717.0243 717.0225 717.0177 717.0126 717.0079 717.0055 717 717 717.0191 717.0492 717.088 717.1332 717.1841 717.2395 717.2985 717.36 717.4227 717.4858 717.5486 717.6123 717.6784 717.7475 717.8188 717.8893 717.9528 718 718.0406 718.0693 718.0797 718.0838 718.0778 718.0639 718.0515 718.0405 718.0297 718.0186 718.0088 718.0052 718.0024 718.0007 718 718 718.0007 717.9967 717.9912 717.9836 717.9752 717.9655 717.952 717.9344 717.9148 717.8962 717.8802 717.8665 717.8529 717.8391 717.8291 717.8243 717.8167 717.8134 717.8195 717.8371 717.8668 717.9026 717.9164 717.9268 717.9401 717.9612 717.9998 718 718 718 718 718 717.9999 717.9999 717.9999 718.0005 718.072 718.1127 718.1377 718.165 718.2285 718.287 718.3331 718.3864 718.4695 718.5666 718.6526 718.7388 718.7684 718.7877 718.8165 718.8765 718.9974 719.0002 718.9996 719.0038 719.1356 719.1931 719.2169 719.2362 719.2603 719.2974 719.396 719.4707 719.5081 719.4927 719.4404 719.3608 719.3343 719.4174 719.4393 719.4219 719.3957 719.3698 719.3549 719.3867 719.5056 719.6208 719.5569 719.5459 719.565 719.5817 719.5398 719.5354 719.5548 719.5739 719.5789 719.6 719.6427 719.6932 719.726 719.749 719.7692 719.7888 719.8069 719.8198 719.8229 719.8281 719.8411 719.8621 719.8903 719.9252 719.9653 720 720.0043 719.9805 719.9361 719.8987 719.9058 719.9937 720.1705 720.4081 720.6572 720.8656 720.9997 721.053 721.3358 722.1454 723.8021 725.7935 729.472 733.3004 735.4717 735.9597 734.767 -9999 -9999 -9999 -9999 -9999 -9999 -9999 -9999 -9999 -9999 -9999 -9999 -9999 -9999 -9999 -9999 -9999 -9999 -9999 -9999 -9999 -9999 -9999 -9999 -9999 -9999
-9999 -9999 -9999 -9999 -9999 -9999 -9999 -9999 -9999 729.3848 728.2836 727.0947 725.9623 724.8499 723.9576 723.4844 723.3834 723.5671 723.9536 724.3982 724.5679 723.366 722.2241 721.5969 721.3395 721.2957 721.3187 721.3522 721.4233 721.5832 721.9459 722.2891 723.1404 724.6665 727.0012 729.5867 731.0683 730.4556 729.2783 728.1611 727.3734 726.691 725.7643 724.5335 723.4988 722.6663 722.0204 721.6296 721.442 721.2717 720.9468 720.52 719.8254 719.147 718.4022 717.8215 717.2281 716.5823 716.2384 715.9473 715.4014 715.1425 715.0721 714.9872 714.7982 714.4817 714.2865 714.2101 714.1628 714.0537 713.8466 713.6575 713.5675 713.6431 713.8481 714.0439 714.1523 714.2042 714.2626 714.3105 714.3008 714.2908 714.3776 714.6873 714.9847 715.2291 715.737 716.3041 716.6914 717.2784 717.8545 718.3835 718.636 718.8606 718.9266 718.9237 718.8016 718.3661 717.7574 717.2702 716.5764 716.0484 715.5302 714.9218 714.4048 714.0413 713.786 713.6323 713.5878 713.624 713.6951 713.7881 713.8922 713.9922 714.0759 714.1372 714.1729 714.1803 714.1556 714.095 714.0005 713.9094 713.7924 713.66 713.5259 713.4009 713.2897 713.1899 713.0982 713.0157 712.9492 712.9078 712.8988 712.9238 712.9807 713.0651 713.173 713.302 713.4497 713.6107 713.7727 713.9142 714 714.0552 714.1119 714.1622 714.2061 714.246 714.2856 714.3287 714.3782 714.4359 714.5027 714.5756 714.6484 714.7157 714.7729 714.8176 714.8518 714.8801 714.9059 714.9312 714.9567 714.9801 715 715.0288 715.0524 715.0676 715.0732 715.0696 715.0577 715.0404 715.0237 715.0152 715 715 715.0213 715.0381 715.0697 715.1068 715.1437 715.1829 715.2239 715.2654 715.307 715.3489 715.3922 715.4376 715.4853 715.5353 715.5877 715.642 715.6979 715.7545 715.8108 715.8649 715.9146 715.9582 716 716.0415 716.0825 716.1227 716.1616 716.1975 716.2301 716.2589 716.2834 716.3046 716.3232 716.3403 716.3572 716.3754 716.3962 716.4205 716.4492 716.4832 716.5227 716.5676 716.6174 716.6719 716.7302 716.7911 716.8525 716.9114 716.9629 717 717.0115 717.0204 717.0248 717.0243 717.0206 717.014 717.0063 717 717 716.9913 716.9884 717 717.0233 717.0564 717.097 717.1437 717.1954 717.251 717.3088 717.3674 717.4259 717.4845 717.5441 717.6064 717.6731 717.7438 717.8162 717.8856 717.9468 718 718.0405 718.0484 718.0594 718.0549 718.0378 718.0311 718.026 718.0205 718.0126 718 718 718 718 717.996 717.9918 717.9875 717.9808 717.9718 717.9608 717.9492 717.9367 717.9219 717.9039 717.8832 717.8622 717.8424 717.8239 717.8047 717.7839 717.7632 717.7448 717.7288 717.7197 717.7211 717.7343 717.7576 717.7849 717.8055 717.8249 717.847 717.873 717.899 717.901 717.8953 717.8888 717.8853 717.8861 717.8908 717.8987 717.9116 717.938 717.9996 718.0001 717.9999 718.0007 718.0712 718.1115 718.1385 718.1724 718.2507 718.3305 718.3992 718.4615 718.5133 718.5629 718.6188 718.6949 718.7877 718.8237 718.8481 718.8911 718.9981 719.001 719.0005 719.0001 718.9996 719.0057 719.1537 719.2238 719.2501 719.2439 719.2084 719.1414 719.0052 719.0009 719.0009 718.9994 718.9985 718.9977 718.9968 719.0052 719.1465 719.2188 719.2144 719.2164 719.2312 719.2498 719.2866 719.3293 719.3654 719.392 719.4138 719.4474 719.4943 719.5447 719.5867 719.6217 719.6533 719.6827 719.7097 719.7325 719.7506 719.7695 719.7939 719.826 719.8644 719.907 719.9509 719.987 720 719.9883 719.9487 719.9059 719.9008 719.9696 720.1273 720.3562 720.6119 720.8411 720.9996 721.0673 721.3524 722.1707 723.8887 725.8116 729.4409 733.2482 735.4666 736.1603 735.6059 -9999 -9999 -9999 -9999 -9999 -9999 -9999 -9999 -9999 -9999 -9999 -9999 -9999 -9999 -9999 -9999 -9999 -9999 -9999 -9999 -9999 -9999 -9999 -9999 -9999 -9999
-9999 -9999 -9999 -9999 -9999 -9999 -9999 -9999 -9999 729.6543 728.1697 726.5209 725.2938 724.2329 723.5017 723.114 723.0463 723.2528 723.6459 724.0828 724.2843 723.8663 722.9388 722.2377 721.998 721.9684 721.9825 721.9682 721.9527 721.9926 722.3088 722.9478 724.1047 725.9925 728.5491 730.8459 731.7986 731.5273 730.2759 729.1668 728.4318 728.0757 727.4888 726.3123 725.1968 723.8093 722.722 722.0237 721.7076 721.6332 721.4979 721.3201 720.9965 720.6498 720.0162 719.4957 718.9317 718.3531 717.9441 717.6196 717.0508 716.6501 716.466 716.2132 715.9141 715.3686 715.1179 715.0386 714.9643 714.832 714.5803 714.325 714.1422 714.1263 714.2362 714.3511 714.4325 714.5408 714.7729 715.0341 715.1606 715.2255 715.4014 715.8723 716.4899 716.9704 717.4955 718.0756 718.4352 718.8209 719.1572 719.7179 719.9681 720.046 720.0547 720.0598 720.0359 719.8452 719.3537 718.8544 718.1106 717.4708 716.7895 715.8596 715.1056 714.5958 714.1932 713.9086 713.7904 713.7881 713.8143 713.8843 713.9889 714.0995 714.1937 714.2632 714.3054 714.3174 714.2913 714.2198 714.115 714.0001 713.8689 713.7264 713.5825 713.4496 713.3367 713.2391 713.1506 713.067 712.9905 712.9307 712.8978 712.8974 712.9302 712.994 713.0862 713.2046 713.3467 713.5062 713.6703 713.8185 713.9281 714.0002 714.0742 714.1309 714.1796 714.2236 714.2661 714.3114 714.3646 714.4287 714.504 714.5873 714.6708 714.7467 714.8099 714.858 714.8923 714.9174 714.9381 714.9563 714.9775 715 715.0214 715.0462 715.066 715.0768 715.077 715.0668 715.048 715.0234 715 715 714.9833 714.9827 715 715 715.0327 715.0693 715.1003 715.1365 715.1761 715.2161 715.2559 715.2961 715.3377 715.3815 715.4275 715.476 715.5269 715.58 715.6351 715.6917 715.7485 715.8041 715.8569 715.9062 715.9536 716 716.0449 716.0885 716.1295 716.1675 716.2009 716.23 716.2542 716.2742 716.2916 716.3076 716.3232 716.3403 716.3599 716.3834 716.412 716.4459 716.4856 716.5308 716.5812 716.6368 716.6974 716.7621 716.8288 716.8945 716.9543 717 717.013 717.0232 717.0259 717.0222 717.0171 717.0088 717 716.9923 716.9875 716.9801 716.9768 716.9833 717 717.027 717.0624 717.104 717.1511 717.2026 717.2565 717.3106 717.364 717.417 717.4709 717.5275 717.5892 717.6565 717.7284 717.8021 717.8744 717.9435 717.9999 718.0001 718.0302 718.0278 718 718 718 718 718 717.9893 717.9853 717.9835 717.9817 717.9766 717.9702 717.9632 717.9546 717.9435 717.93 717.9152 717.8998 717.8831 717.8642 717.843 717.8206 717.7986 717.7774 717.7555 717.7307 717.7032 717.6754 717.6509 717.6339 717.6274 717.632 717.6459 717.6652 717.6854 717.7076 717.7326 717.7582 717.7783 717.7833 717.7797 717.7746 717.7729 717.7777 717.7891 717.8068 717.8309 717.8642 717.9048 717.9152 717.9232 717.944 717.9998 718.0001 717.9999 718.0007 718.0793 718.1313 718.1682 718.2041 718.2729 718.3456 718.4166 718.4938 718.575 718.6368 718.6923 718.751 718.8151 718.8228 718.8146 718.8075 718.8151 718.8632 718.9952 719.0006 719.0002 719.0002 719.0006 718.9943 718.8379 718.7528 718.7136 718.7009 718.7057 718.7251 718.764 718.8427 718.9952 719.0007 718.9996 718.9996 718.9996 719.0021 719.0955 719.1713 719.2124 719.2362 719.2593 719.3002 719.3531 719.408 719.4574 719.5015 719.5426 719.5813 719.6174 719.6504 719.6807 719.7113 719.7463 719.7881 719.8354 719.885 719.9333 719.9749 720 719.9989 719.9719 719.9327 719.918 719.9684 720.1052 720.3193 720.575 720.8203 720.9997 721.0635 721.3109 722.0128 723.4161 725.7085 729.4785 733.2778 735.4456 736.2066 735.9892 -9999 -9999 -9999 -9999 -9999 -9999 -9999 -9999 -9999 -9999 -9999 -9999 -9999 -9999 -9999 -9999 -9999 -9999 -9999 -9999 -9999 -9999 -9999 -9999 -9999 -9999
-9999 -9999 -9999 -9999 -9999 -9999 -9999 -9999 -9999 731.4158 729.4807 727.269 725.5673 724.2354 723.4652 723.0078 722.8498 722.9998 723.3605 723.767 724.0043 723.9843 723.7423 723.4236 723.1285 723.0664 723.0599 722.8997 722.7255 722.7396 723.1483 724.1089 725.6058 727.7856 730.1332 731.8326 732.4645 732.0848 731.1343 730.2122 729.837 729.7692 729.5676 728.7623 727.5467 725.8009 724.0303 722.8401 722.1378 721.9584 721.7494 721.6683 721.5001 721.3248 721.0331 720.8173 720.4041 719.946 719.6046 719.3562 718.895 718.4801 718.2568 717.9532 717.6138 717.0154 716.6671 716.5098 716.3242 716.1556 715.8524 715.5499 715.236 715.1147 715.1027 715.1208 715.2078 715.4106 715.9054 716.5098 716.8923 717.0655 717.2918 717.7957 718.3181 718.7917 719.2596 719.6854 719.8802 720.024 720.1398 720.5327 720.9179 720.9966 720.9956 720.9966 720.9938 720.8741 720.3666 719.8488 719.4626 718.9146 718.2868 717.3514 716.375 715.6497 715.002 714.4896 714.2524 714.1837 714.0949 714.1037 714.1912 714.2986 714.39 714.4553 714.4964 714.5121 714.4891 714.4073 714.2921 714.1538 714.0002 713.8409 713.682 713.5369 713.4214 713.3223 713.2341 713.1486 713.0608 712.9805 712.9218 712.8942 712.901 712.9412 713.0142 713.1182 713.2502 713.4044 713.5696 713.7313 713.8764 713.9995 714.0552 714.1006 714.1489 714.1958 714.2403 714.2871 714.343 714.4133 714.4984 714.5944 714.6915 714.7785 714.8478 714.8976 714.9314 714.953 714.9704 714.9805 715 715.0234 715.0458 715.0667 715.0809 715.085 715.0768 715.0582 715.0316 715 714.9686 714.9532 714.9398 714.9401 714.9537 714.9678 715 715.0353 715.0536 715.0881 715.1278 715.1655 715.2032 715.2415 715.2814 715.3235 715.3677 715.4143 715.4633 715.5145 715.5681 715.6238 715.6805 715.7373 715.7928 715.8466 715.8989 715.9502 716 716.0474 716.0917 716.1318 716.167 716.1963 716.22 716.2391 716.2553 716.2702 716.2849 716.3008 716.3191 716.3416 716.3695 716.4033 716.4429 716.4879 716.5384 716.5945 716.6563 716.723 716.7932 716.8635 716.9279 716.9771 717 717.0206 717.0232 717.015 717.0107 717 716.9899 716.9806 716.9731 716.9663 716.9632 716.967 716.9791 717 717.0298 717.0663 717.1083 717.1547 717.2037 717.2531 717.301 717.3479 717.395 717.4445 717.499 717.5604 717.6285 717.7016 717.7769 717.8505 717.9137 717.9528 717.9999 717.9999 717.9716 717.9604 717.9583 717.96 717.962 717.9587 717.9562 717.9544 717.952 717.9469 717.9396 717.9309 717.9211 717.9089 717.8938 717.8766 717.8582 717.8391 717.8186 717.7963 717.7725 717.7488 717.7257 717.7028 717.6774 717.6478 717.6154 717.5845 717.5601 717.545 717.5402 717.5441 717.5548 717.57 717.5897 717.6132 717.6368 717.6553 717.6639 717.6653 717.665 717.6682 717.6783 717.6969 717.7233 717.7556 717.792 717.8274 717.8497 717.87 717.8971 717.9308 717.9354 717.9359 717.9482 717.9998 718.0001 717.9999 718.0012 718.0876 718.1682 718.2357 718.3072 718.3816 718.4529 718.5238 718.5923 718.6456 718.66 718.6514 718.637 718.6349 718.6635 718.7238 718.7333 718.733 718.7352 718.7368 718.7169 718.6196 718.5417 718.498 718.4824 718.4896 718.5197 718.5759 718.6638 718.7704 718.8026 718.8171 718.8315 718.8539 718.899 718.9998 719.0743 719.0974 719.1066 719.1199 719.1683 719.2286 719.2886 719.3431 719.3931 719.4412 719.4875 719.5319 719.5742 719.6147 719.6552 719.6991 719.749 719.8038 719.8596 719.912 719.9572 719.989 720 719.9905 719.9637 719.9474 719.981 720.0933 720.285 720.5302 720.7852 720.9977 721.0519 721.2846 721.9516 723.2672 725.7672 729.676 733.4266 735.382 735.954 735.7551 -9999 -9999 -9999 -9999 -9999 -9999 -9999 -9999 -9999 -9999 -9999 -9999 -9999 -9999 -9999 -9999 -9999 -9999 -9999 -9999 -9999 -9999 -9999 -9999 -9999 -9999
-9999 -9999 -9999 -9999 -9999 -9999 -9999 -9999 -9999 733.9257 731.7695 729.1022 726.752 725.0585 723.9781 723.2827 722.9372 723.0033 723.4033 723.9033 724.259 724.5438 724.6681 724.6751 724.6725 724.818 724.8914 724.5703 724.2361 724.2537 724.8281 726.0189 727.6619 729.726 731.6298 732.8489 733.1926 732.7543 731.9567 731.2142 730.9429 731.1544 731.5178 731.3325 730.3811 728.4929 726.312 724.5281 723.3099 722.5601 722.0798 721.9634 721.7441 721.673 721.6086 721.5382 721.3544 721.1035 720.939 720.7961 720.4221 720.0399 719.851 719.6049 719.3593 718.9193 718.6169 718.4574 718.274 718.1033 717.8133 717.4751 717.1159 716.9298 716.8348 716.7886 716.9793 717.2964 717.9022 718.576 719.0059 719.1866 719.3522 719.6616 719.8951 720.0672 720.3147 720.5232 720.6843 720.9224 720.9745 721.0913 721.4805 721.604 721.6168 721.6069 721.5822 721.4672 721.1481 720.9773 720.7192 720.1577 719.7409 718.9955 718.1058 717.2877 716.3126 715.476 715.0582 714.8751 714.5524 714.4659 714.5181 714.5994 714.6637 714.7062 714.7339 714.749 714.734 714.6315 714.5096 714.3519 714.18 713.9998 713.8234 713.663 713.5511 713.4454 713.3555 713.2678 713.1653 713.062 712.975 712.9185 712.8981 712.9131 712.9642 713.0511 713.1702 713.3149 713.4756 713.6399 713.794 713.9226 714 714.0522 714.1096 714.1616 714.2076 714.2548 714.312 714.3872 714.4825 714.5931 714.7078 714.8101 714.887 714.9355 714.967 714.9824 715 715 715.0212 715.0449 715.0659 715.0825 715.0911 715.087 715.0676 715.0378 715 714.9554 714.9142 714.887 714.8723 714.874 714.8911 714.9186 714.959 714.9999 715.0001 715.04 715.0823 715.1149 715.1503 715.186 715.2244 715.2648 715.3071 715.3516 715.398 715.4467 715.4982 715.5525 715.6089 715.6664 715.724 715.7811 715.8376 715.8934 715.948 716 716.0482 716.0914 716.1283 716.1583 716.1812 716.1995 716.2147 716.2286 716.2424 716.2572 716.2744 716.2955 716.3225 716.3556 716.3947 716.4394 716.4895 716.5452 716.6068 716.6741 716.7462 716.8201 716.8911 716.9531 717 717.0211 717.0174 717 717 716.9868 716.9739 716.9633 716.9551 716.9492 716.9468 716.9498 716.9592 716.9758 717 717.0314 717.0682 717.109 717.1523 717.1956 717.2375 717.2783 717.3187 717.3605 717.4067 717.4597 717.5204 717.588 717.6599 717.7319 717.7976 717.8509 717.8956 717.9088 717.9004 717.8952 717.8963 717.9015 717.9075 717.9111 717.913 717.9137 717.913 717.9095 717.9028 717.8937 717.8829 717.8704 717.8549 717.8365 717.8159 717.7941 717.7713 717.7473 717.7217 717.6957 717.6707 717.6467 717.6221 717.5936 717.5611 717.5277 717.498 717.476 717.4626 717.4578 717.4598 717.4679 717.4818 717.5007 717.5217 717.5399 717.5524 717.5599 717.5662 717.5756 717.5918 717.6169 717.6506 717.6901 717.7311 717.7698 717.8021 717.8326 717.8639 717.8915 717.9026 717.9067 717.915 717.9326 717.9268 717.9218 717.9349 717.9999 718.0583 718.0961 718.1541 718.222 718.292 718.3637 718.4324 718.4855 718.5082 718.5021 718.4788 718.4534 718.4415 718.4479 718.4515 718.4551 718.458 718.4565 718.4375 718.3868 718.3459 718.3221 718.315 718.3253 718.3568 718.4124 718.4896 718.5713 718.6217 718.658 718.6948 718.7429 718.814 718.9143 718.9995 719.0001 718.9999 719.0003 719.0629 719.1294 719.1912 719.2472 719.2996 719.3517 719.4038 719.4546 719.5046 719.5536 719.6021 719.6532 719.7096 719.7708 719.8323 719.8893 719.938 719.9749 719.9962 720 719.986 719.9733 719.9947 720.0816 720.2428 720.4592 720.6892 720.88 721.0004 721.2683 721.9635 723.3616 726.0311 730.0469 733.6996 735.3633 735.5354 735.0447 -9999 -9999 -9999 -9999 -9999 -9999 -9999 -9999 -9999 -9999 -9999 -9999 -9999 -9999 -9999 -9999 -9999 -9999 -9999 -9999 -9999 -9999 -9999 -9999 -9999 -9999
-9999 -9999 -9999 -9999 -9999 -9999 -9999 -9999 -9999 -9999 734.1722 731.2145 728.4352 726.2914 724.8503 723.9134 723.3798 723.4252 724.0157 724.9105 725.8655 726.6249 726.952 727.069 727.1961 727.4593 727.696 727.3089 726.899 726.9323 727.5486 728.7 730.0794 731.7017 733.0355 733.9097 733.9912 733.4238 -9999 -9999 731.7307 732.1569 732.9774 733.4903 733.1597 731.7474 729.6239 727.4608 725.5132 724.0668 723.114 722.474 722.0444 721.9821 721.9874 721.9939 721.9898 721.934 721.7036 721.5859 721.39 721.1346 721.0123 720.9277 720.8104 720.5442 720.4558 720.3377 720.0778 719.932 719.7888 719.6188 719.3582 719.2126 719.1376 719.1223 719.353 719.6389 720.0734 720.5245 720.7644 720.8455 720.9056 720.9902 721.0221 720.9762 720.9859 721.0148 721.1261 721.4287 721.5532 721.6821 721.9761 721.9997 721.9981 722.0004 722.0107 722.0018 721.9642 721.897 721.5298 721.1393 720.9668 720.5515 719.8654 719.1737 718.1718 717.1724 716.3497 715.775 715.1854 715.0137 714.9852 714.9952 714.9979 714.9999 715.0011 715.0012 714.9952 714.8496 714.7476 714.5737 714.3931 714.188 713.998 713.8206 713.7357 713.6107 713.5204 713.4362 713.3123 713.1827 713.0643 712.9781 712.9312 712.9202 712.948 713.0162 713.1202 713.2515 713.4004 713.5569 713.7088 713.8406 713.9362 714.0002 714.0707 714.1252 714.1698 714.2145 714.2701 714.3477 714.4517 714.5778 714.7138 714.838 714.9271 714.9702 715 715 715.0128 715.0221 715.0394 715.0579 715.0739 715.0853 715.0889 715.0778 715.0437 715 714.9478 714.8909 714.8394 714.8024 714.7842 714.7866 714.8078 714.8433 714.8881 714.9312 714.9575 715 715.0428 715.0622 715.0972 715.1292 715.167 715.2054 715.2461 715.2878 715.3314 715.3772 715.4263 715.4788 715.5345 715.5925 715.6516 715.7114 715.7715 715.8314 715.8905 715.9471 716 716.047 716.0865 716.1169 716.1387 716.1559 716.1703 716.1836 716.1968 716.2107 716.2265 716.2463 716.2717 716.3036 716.3419 716.3859 716.4352 716.4897 716.55 716.6166 716.6884 716.7634 716.8378 716.9067 716.9639 716.9999 717 716.9827 716.9727 716.9596 716.9471 716.9374 716.9307 716.927 716.9265 716.9302 716.9388 716.9531 716.9735 717 717.0319 717.0675 717.1044 717.14 717.1743 717.2089 717.243 717.2777 717.3156 717.359 717.4096 717.4678 717.532 717.5981 717.6613 717.7165 717.7613 717.7865 717.7971 717.8049 717.8151 717.8273 717.8397 717.8502 717.8581 717.8633 717.866 717.8657 717.8616 717.8533 717.8422 717.8295 717.8141 717.7957 717.7742 717.7507 717.7258 717.6996 717.672 717.6436 717.6157 717.5897 717.5648 717.5385 717.5084 717.4758 717.4445 717.4178 717.3984 717.3863 717.3811 717.382 717.3889 717.4019 717.4192 717.4373 717.4534 717.4674 717.4813 717.498 717.5207 717.5518 717.5917 717.6377 717.6853 717.7308 717.7723 717.8115 717.8481 717.8776 717.8937 717.8998 717.9022 717.9035 717.8967 717.8945 717.9109 717.9557 717.9999 718.0001 718.0466 718.1066 718.1702 718.2344 718.2954 718.3436 718.3677 718.3629 718.3318 718.2845 718.2338 718.1975 718.1952 718.1983 718.2014 718.1997 718.1892 718.1709 718.1754 718.1817 718.1885 718.202 718.2295 718.2759 718.3392 718.408 718.467 718.5201 718.5751 718.6397 718.7186 718.8076 718.879 718.9022 718.9166 718.9398 718.9999 719.0591 719.1156 719.1687 719.2216 719.2759 719.3317 719.387 719.4421 719.4977 719.5529 719.6096 719.6713 719.7378 719.8048 719.8668 719.9198 719.9613 719.9889 720 719.9957 719.9862 719.9983 720.063 720.1952 720.3846 720.6003 720.806 720.998 721.2772 722.0096 723.5571 726.3496 730.3641 734.0137 735.5697 735.5764 735.498 -9999 -9999 -9999 -9999 -9999 -9999 -9999 -9999 -9999 -9999 -9999 -9999 -9999 -9999 -9999 -9999 -9999 -9999 -9999 -9999 -9999 -9999 -9999 -9999 -9999 -9999
