ncols         208
nrows         58
xllcorner     798000
yllcorner     6061700
cellsize      50
NODATA_value  -9999
-9999 -9999 -9999 -9999 -9999 -9999 -9999 -9999 -9999 -9999 -9999 -9999 -9999 -9999 -9999 -9999 -9999 -9999 -9999 -9999 -9999 -9999 -9999 -9999 -9999 -9999 -9999 -9999 598.0759 597.8116 596.9655 595.4495 593.334 591.0421 589.0372 587.1915 585.465 583.6522 581.6981 579.6594 577.7288 576.5167 576.9808 579.0035 581.8833 584.4155 585.6171 586.543 -9999 -9999 -9999 -9999 -9999 -9999 -9999 -9999 -9999 -9999 -9999 -9999 -9999 -9999 -9999 -9999 -9999 -9999 -9999 -9999 -9999 -9999 -9999 -9999 -9999 -9999 -9999 -9999 -9999 -9999 -9999 -9999 -9999 -9999 -9999 -9999 -9999 -9999 -9999 -9999 -9999 -9999 -9999 -9999 -9999 -9999 -9999 -9999 -9999 -9999 -9999 -9999 -9999 -9999 -9999 -9999 -9999 -9999 -9999 -9999 -9999 -9999 -9999 -9999 -9999 -9999 -9999 -9999 -9999 -9999 -9999 -9999 -9999 -9999 -9999 -9999 -9999 -9999 -9999 -9999 -9999 -9999 -9999 -9999 -9999 -9999 -9999 -9999 -9999 -9999 -9999 -9999 -9999 -9999 -9999 -9999 -9999 -9999 -9999 -9999 -9999 -9999 -9999 -9999 -9999 -9999 -9999 -9999 -9999 -9999 -9999 -9999 -9999 -9999 -9999 -9999 -9999 -9999 -9999 -9999 -9999 -9999 -9999 -9999 -9999 -9999 -9999 -9999 -9999 -9999 -9999 -9999 -9999 -9999 -9999 -9999 -9999 -9999 -9999 -9999 -9999 -9999 -9999 -9999 -9999 -9999 -9999 -9999 -9999 -9999 -9999 -9999 -9999 -9999 -9999 -9999 -9999 -9999 -9999 -9999
-9999 -9999 -9999 -9999 -9999 -9999 -9999 -9999 -9999 -9999 -9999 -9999 -9999 -9999 -9999 -9999 -9999 -9999 -9999 -9999 -9999 -9999 -9999 -9999 -9999 -9999 598.2638 596.8221 595.9944 595.2333 593.9957 592.1176 589.6699 587.0472 584.6623 582.6125 580.8964 579.3382 577.8521 576.4135 575.1697 574.6063 575.7003 578.3553 581.6321 584.3161 585.3273 586.2393 -9999 -9999 -9999 -9999 -9999 -9999 -9999 -9999 -9999 -9999 -9999 -9999 -9999 -9999 -9999 -9999 -9999 -9999 -9999 -9999 -9999 -9999 -9999 -9999 -9999 -9999 -9999 -9999 -9999 -9999 -9999 -9999 -9999 -9999 -9999 -9999 -9999 -9999 -9999 -9999 -9999 -9999 -9999 -9999 -9999 -9999 -9999 -9999 -9999 -9999 -9999 -9999 -9999 -9999 -9999 -9999 -9999 -9999 -9999 -9999 -9999 -9999 -9999 -9999 -9999 -9999 -9999 -9999 -9999 -9999 -9999 -9999 -9999 -9999 -9999 -9999 -9999 -9999 -9999 -9999 -9999 -9999 -9999 -9999 -9999 -9999 -9999 -9999 -9999 -9999 -9999 -9999 -9999 -9999 -9999 -9999 -9999 -9999 -9999 -9999 -9999 -9999 -9999 -9999 -9999 -9999 -9999 -9999 -9999 -9999 -9999 -9999 -9999 -9999 -9999 -9999 -9999 -9999 -9999 -9999 -9999 -9999 -9999 -9999 -9999 -9999 -9999 -9999 -9999 -9999 -9999 -9999 -9999 -9999 -9999 -9999 -9999 -9999 -9999 -9999 -9999 -9999 -9999 -9999 -9999 -9999 -9999 -9999 -9999 -9999 -9999 -9999 -9999 -9999 -9999 -9999 -9999 -9999 -9999 -9999
-9999 -9999 -9999 -9999 -9999 -9999 -9999 -9999 -9999 -9999 -9999 -9999 -9999 -9999 -9999 -9999 -9999 -9999 -9999 -9999 -9999 -9999 -9999 -9999 -9999 597.8421 596.0336 594.2651 592.9404 591.6367 589.9766 587.8331 585.2298 582.4742 580.0308 578.0125 576.601 575.5153 574.6425 573.9346 573.4842 573.543 574.6336 577.2017 580.4903 583.4017 585.1219 585.9475 -9999 -9999 -9999 -9999 -9999 -9999 -9999 -9999 -9999 -9999 -9999 -9999 -9999 -9999 -9999 -9999 -9999 -9999 -9999 -9999 -9999 -9999 -9999 -9999 -9999 -9999 -9999 -9999 -9999 -9999 -9999 -9999 -9999 -9999 -9999 -9999 -9999 -9999 -9999 -9999 -9999 -9999 -9999 -9999 -9999 -9999 -9999 -9999 -9999 -9999 -9999 -9999 -9999 -9999 -9999 -9999 -9999 -9999 -9999 -9999 -9999 -9999 -9999 -9999 -9999 -9999 -9999 -9999 -9999 -9999 -9999 -9999 -9999 -9999 -9999 -9999 -9999 -9999 -9999 -9999 -9999 -9999 -9999 -9999 -9999 -9999 -9999 -9999 -9999 -9999 -9999 -9999 -9999 -9999 -9999 -9999 -9999 -9999 -9999 -9999 -9999 -9999 -9999 -9999 -9999 -9999 -9999 -9999 -9999 -9999 -9999 -9999 -9999 -9999 -9999 -9999 -9999 -9999 -9999 -9999 -9999 -9999 -9999 -9999 -9999 -9999 -9999 -9999 -9999 -9999 -9999 -9999 -9999 -9999 -9999 -9999 -9999 -9999 -9999 -9999 -9999 -9999 -9999 -9999 -9999 -9999 -9999 -9999 -9999 -9999 -9999 -9999 -9999 -9999 -9999 -9999 -9999 -9999 -9999 -9999
-9999 -9999 -9999 -9999 -9999 -9999 -9999 -9999 -9999 -9999 -9999 -9999 -9999 -9999 -9999 -9999 -9999 -9999 -9999 -9999 -9999 -9999 -9999 -9999 596.9146 594.9782 592.8162 590.6724 588.9017 587.1797 585.2559 583.0251 580.542 578.0953 575.8712 574.0785 572.8619 572.2239 571.9714 572.002 572.3394 572.8963 573.9226 575.9415 578.941 581.9326 583.9924 585.1516 586.2044 -9999 -9999 -9999 -9999 -9999 -9999 -9999 -9999 -9999 -9999 -9999 -9999 -9999 -9999 -9999 -9999 -9999 -9999 -9999 -9999 -9999 -9999 -9999 -9999 -9999 -9999 -9999 -9999 -9999 -9999 -9999 -9999 -9999 -9999 -9999 -9999 -9999 -9999 -9999 -9999 -9999 -9999 -9999 -9999 -9999 -9999 -9999 -9999 -9999 -9999 -9999 -9999 -9999 -9999 -9999 -9999 -9999 -9999 -9999 -9999 -9999 -9999 -9999 -9999 -9999 -9999 -9999 -9999 -9999 -9999 -9999 -9999 -9999 -9999 -9999 -9999 -9999 -9999 -9999 -9999 -9999 -9999 -9999 -9999 -9999 -9999 -9999 -9999 -9999 -9999 -9999 -9999 -9999 -9999 -9999 -9999 -9999 -9999 -9999 -9999 -9999 -9999 -9999 -9999 -9999 -9999 -9999 -9999 -9999 -9999 -9999 -9999 -9999 -9999 -9999 -9999 -9999 -9999 -9999 -9999 -9999 -9999 -9999 -9999 -9999 -9999 -9999 -9999 -9999 -9999 -9999 -9999 -9999 -9999 -9999 -9999 -9999 -9999 -9999 -9999 -9999 -9999 -9999 -9999 -9999 -9999 -9999 -9999 -9999 -9999 -9999 -9999 -9999 -9999 -9999 -9999 -9999 -9999 -9999
-9999 -9999 -9999 -9999 -9999 -9999 -9999 -9999 -9999 -9999 -9999 -9999 -9999 -9999 -9999 -9999 -9999 -9999 -9999 -9999 -9999 -9999 -9999 595.4561 593.6864 591.3445 588.8437 586.4185 584.3409 582.4211 580.4731 578.4655 576.2728 574.0961 572.1141 570.5751 569.6029 569.3605 569.614 570.256 571.3284 572.1982 573.1896 574.7646 577.3357 580.3047 582.7883 584.3036 586.0715 587.6066 -9999 -9999 -9999 -9999 -9999 -9999 -9999 -9999 -9999 -9999 -9999 -9999 -9999 -9999 -9999 -9999 -9999 -9999 -9999 -9999 -9999 -9999 -9999 -9999 -9999 -9999 -9999 -9999 -9999 -9999 -9999 -9999 -9999 -9999 -9999 -9999 -9999 -9999 -9999 -9999 -9999 -9999 -9999 -9999 -9999 -9999 -9999 -9999 -9999 -9999 -9999 -9999 -9999 -9999 -9999 -9999 -9999 -9999 -9999 -9999 -9999 -9999 -9999 -9999 -9999 -9999 -9999 -9999 -9999 -9999 -9999 -9999 -9999 -9999 -9999 -9999 -9999 -9999 -9999 -9999 -9999 -9999 -9999 -9999 -9999 -9999 -9999 -9999 -9999 -9999 -9999 -9999 -9999 -9999 -9999 -9999 -9999 -9999 -9999 -9999 -9999 -9999 -9999 -9999 -9999 -9999 -9999 -9999 -9999 -9999 -9999 -9999 -9999 -9999 -9999 -9999 -9999 -9999 -9999 -9999 -9999 -9999 -9999 -9999 -9999 -9999 -9999 -9999 -9999 -9999 -9999 -9999 -9999 -9999 -9999 -9999 -9999 -9999 -9999 -9999 -9999 -9999 -9999 -9999 -9999 -9999 -9999 -9999 -9999 -9999 -9999 -9999 -9999 -9999 -9999 -9999 -9999 -9999
-9999 -9999 -9999 -9999 -9999 -9999 -9999 -9999 -9999 -9999 -9999 -9999 -9999 -9999 -9999 -9999 -9999 -9999 -9999 -9999 -9999 -9999 594.8469 592.6981 590.2178 587.4991 584.7082 582.1556 579.9633 578.0678 576.3037 574.4664 572.4794 570.5123 568.7079 567.3589 566.5977 566.7071 567.3876 568.5283 569.9348 571.3104 572.4431 573.8661 575.9272 578.7457 581.6841 583.9348 585.975 587.5919 -9999 -9999 -9999 -9999 -9999 -9999 -9999 -9999 -9999 -9999 -9999 -9999 -9999 -9999 -9999 -9999 -9999 -9999 -9999 -9999 -9999 -9999 -9999 -9999 -9999 -9999 -9999 -9999 -9999 -9999 -9999 -9999 -9999 -9999 -9999 -9999 -9999 -9999 -9999 -9999 -9999 -9999 -9999 -9999 -9999 -9999 -9999 -9999 -9999 -9999 -9999 -9999 -9999 -9999 -9999 -9999 -9999 -9999 -9999 -9999 -9999 -9999 -9999 -9999 -9999 -9999 -9999 -9999 -9999 -9999 -9999 -9999 -9999 -9999 -9999 -9999 -9999 -9999 -9999 -9999 -9999 -9999 -9999 -9999 -9999 -9999 -9999 -9999 -9999 -9999 -9999 -9999 -9999 -9999 -9999 -9999 -9999 -9999 -9999 -9999 -9999 -9999 -9999 -9999 -9999 -9999 -9999 -9999 -9999 -9999 -9999 -9999 -9999 -9999 -9999 -9999 -9999 -9999 -9999 -9999 -9999 -9999 -9999 -9999 -9999 -9999 -9999 -9999 -9999 -9999 -9999 -9999 -9999 -9999 -9999 -9999 -9999 -9999 -9999 -9999 -9999 -9999 -9999 -9999 -9999 -9999 -9999 -9999 -9999 -9999 -9999 -9999 -9999 -9999 -9999 -9999 -9999 -9999
-9999 -9999 -9999 -9999 -9999 -9999 -9999 -9999 -9999 -9999 -9999 -9999 -9999 -9999 -9999 -9999 -9999 -9999 -9999 -9999 -9999 594.7288 592.1311 589.3629 586.4838 583.5897 580.8484 578.3907 576.2979 574.5997 572.9038 571.1403 569.2332 567.3595 565.7498 564.7156 564.22 564.509 565.3407 566.7803 568.3683 569.9456 571.4725 573.0189 574.9863 577.4161 580.5284 583.2987 585.4525 587.0204 -9999 -9999 -9999 -9999 -9999 -9999 -9999 -9999 -9999 -9999 -9999 -9999 -9999 -9999 -9999 -9999 -9999 -9999 -9999 -9999 -9999 -9999 -9999 -9999 -9999 -9999 -9999 -9999 -9999 -9999 -9999 -9999 -9999 -9999 -9999 -9999 -9999 -9999 -9999 -9999 -9999 -9999 -9999 -9999 -9999 -9999 -9999 -9999 -9999 -9999 -9999 -9999 -9999 -9999 -9999 -9999 -9999 -9999 -9999 -9999 -9999 -9999 -9999 -9999 -9999 -9999 -9999 -9999 -9999 -9999 -9999 -9999 -9999 -9999 -9999 -9999 -9999 -9999 -9999 -9999 -9999 -9999 -9999 -9999 -9999 -9999 -9999 -9999 -9999 -9999 -9999 -9999 -9999 -9999 -9999 -9999 -9999 -9999 -9999 -9999 -9999 -9999 -9999 -9999 -9999 -9999 -9999 -9999 -9999 -9999 -9999 -9999 -9999 -9999 -9999 -9999 -9999 -9999 -9999 -9999 -9999 -9999 -9999 -9999 -9999 -9999 -9999 -9999 -9999 -9999 -9999 -9999 -9999 -9999 -9999 -9999 -9999 -9999 -9999 -9999 -9999 -9999 -9999 -9999 -9999 -9999 -9999 -9999 -9999 -9999 -9999 -9999 -9999 -9999 -9999 -9999 -9999 -9999
-9999 -9999 -9999 -9999 -9999 -9999 -9999 -9999 -9999 -9999 -9999 -9999 -9999 -9999 -9999 -9999 -9999 -9999 -9999 -9999 593.9836 591.3989 588.5187 585.5301 582.5994 579.9055 577.5184 575.3893 573.6606 572.0428 570.3218 568.4666 566.542 564.842 563.591 563.0906 563.146 563.0951 563.6362 565.0122 566.7313 568.4359 570.1522 571.9374 573.8295 576.0818 579.2521 582.2367 584.3823 586.2021 587.5385 -9999 -9999 -9999 -9999 -9999 -9999 -9999 -9999 -9999 -9999 -9999 -9999 -9999 -9999 -9999 -9999 -9999 -9999 -9999 -9999 -9999 -9999 -9999 -9999 -9999 -9999 -9999 -9999 -9999 -9999 -9999 -9999 -9999 -9999 -9999 -9999 -9999 -9999 -9999 -9999 -9999 -9999 -9999 -9999 -9999 -9999 -9999 -9999 -9999 -9999 -9999 -9999 -9999 -9999 -9999 -9999 -9999 -9999 -9999 -9999 -9999 -9999 -9999 -9999 -9999 -9999 -9999 -9999 -9999 -9999 -9999 -9999 -9999 -9999 -9999 -9999 -9999 -9999 -9999 -9999 -9999 -9999 -9999 -9999 -9999 -9999 -9999 -9999 -9999 -9999 591.9994 590.3589 588.1499 585.557 583.1421 581.34 580.5675 581.9068 -9999 -9999 -9999 -9999 -9999 -9999 -9999 -9999 -9999 -9999 -9999 -9999 -9999 -9999 -9999 -9999 -9999 -9999 -9999 -9999 -9999 -9999 -9999 -9999 -9999 -9999 -9999 -9999 -9999 -9999 -9999 -9999 -9999 -9999 -9999 -9999 -9999 -9999 -9999 -9999 -9999 -9999 -9999 -9999 -9999 -9999 -9999 -9999 -9999 -9999 -9999 -9999 -9999 -9999 -9999 -9999 -9999 -9999 -9999
-9999 -9999 -9999 -9999 -9999 -9999 -9999 -9999 -9999 -9999 -9999 -9999 -9999 -9999 -9999 -9999 -9999 -9999 -9999 -9999 590.7797 587.7432 584.6726 581.767 579.0916 576.7816 574.8589 573.257 571.7328 570.0743 568.2318 566.2969 564.5428 563.1392 562.2979 562.0958 562.2612 562.2384 562.5654 563.4992 565.0782 566.9543 568.8916 570.8569 572.7598 574.9168 577.8633 580.8569 583.0967 585.4443 587.2305 -9999 -9999 -9999 -9999 -9999 -9999 -9999 -9999 -9999 -9999 -9999 -9999 -9999 -9999 -9999 -9999 -9999 -9999 -9999 -9999 -9999 -9999 -9999 -9999 -9999 -9999 -9999 -9999 -9999 -9999 -9999 -9999 -9999 -9999 -9999 -9999 -9999 -9999 -9999 -9999 -9999 -9999 -9999 -9999 -9999 -9999 -9999 -9999 -9999 -9999 -9999 -9999 -9999 -9999 -9999 -9999 -9999 -9999 -9999 -9999 -9999 -9999 -9999 -9999 -9999 -9999 -9999 -9999 -9999 -9999 -9999 -9999 -9999 -9999 -9999 -9999 -9999 -9999 -9999 -9999 -9999 -9999 -9999 -9999 -9999 -9999 -9999 -9999 592.6417 591.9427 590.9139 589.3512 587.1359 584.459 581.8867 579.9854 579.2955 580.3517 582.4957 584.9714 -9999 -9999 -9999 -9999 -9999 -9999 -9999 -9999 -9999 -9999 -9999 -9999 -9999 -9999 -9999 -9999 -9999 -9999 -9999 -9999 -9999 -9999 -9999 -9999 -9999 -9999 -9999 -9999 -9999 -9999 -9999 -9999 -9999 -9999 -9999 -9999 -9999 -9999 -9999 -9999 -9999 -9999 -9999 -9999 -9999 -9999 -9999 -9999 -9999 -9999 -9999 -9999 -9999 -9999 -9999 -9999 -9999
-9999 -9999 -9999 -9999 -9999 -9999 -9999 -9999 -9999 -9999 -9999 -9999 -9999 -9999 -9999 -9999 -9999 -9999 -9999 590.6136 587.4413 584.1943 581.1843 578.5519 576.3021 574.4777 573.0526 571.6569 570.0614 568.2458 566.3087 564.5431 563.0826 562.0468 561.454 561.3879 561.4614 561.6379 561.861 562.5026 563.6833 565.5178 567.6345 569.7563 571.7938 573.8769 576.3973 579.476 582.2626 584.6332 586.4636 587.9836 -9999 -9999 -9999 -9999 -9999 -9999 -9999 -9999 -9999 -9999 -9999 -9999 -9999 -9999 -9999 -9999 -9999 -9999 -9999 -9999 -9999 -9999 -9999 -9999 -9999 -9999 -9999 -9999 -9999 -9999 -9999 -9999 -9999 -9999 -9999 -9999 -9999 -9999 -9999 -9999 -9999 -9999 -9999 -9999 -9999 -9999 -9999 -9999 -9999 -9999 -9999 -9999 -9999 -9999 -9999 -9999 -9999 -9999 -9999 -9999 -9999 -9999 -9999 -9999 -9999 -9999 -9999 -9999 -9999 -9999 -9999 -9999 -9999 -9999 -9999 -9999 -9999 590.3176 588.177 586.3918 586.0832 586.6426 -9999 -9999 -9999 -9999 591.162 590.8771 590.2817 589.3431 587.6793 585.4337 582.7401 580.1661 578.321 577.8909 578.8271 580.5643 582.6981 584.728 -9999 -9999 -9999 -9999 -9999 -9999 -9999 -9999 -9999 -9999 -9999 -9999 -9999 -9999 -9999 -9999 -9999 -9999 -9999 -9999 -9999 -9999 -9999 -9999 -9999 -9999 -9999 -9999 -9999 -9999 -9999 -9999 -9999 -9999 -9999 -9999 -9999 -9999 -9999 -9999 -9999 -9999 -9999 -9999 -9999 -9999 -9999 -9999 -9999 -9999 -9999 -9999 -9999 -9999 -9999 -9999
-9999 -9999 -9999 -9999 -9999 -9999 -9999 -9999 -9999 -9999 -9999 -9999 -9999 -9999 -9999 -9999 -9999 -9999 590.7355 587.5707 584.2253 581.052 578.315 576.0784 574.3024 572.9756 571.723 570.1521 568.318 566.3705 564.6037 563.1407 562.0815 561.388 561.0143 560.9888 561.118 561.3682 561.4218 561.8755 562.8328 564.4454 566.5845 568.7601 570.8985 572.9943 575.3572 578.2336 581.1984 583.7916 585.7092 587.116 -9999 -9999 -9999 -9999 -9999 -9999 -9999 -9999 -9999 -9999 -9999 -9999 -9999 -9999 -9999 -9999 -9999 -9999 -9999 -9999 -9999 -9999 -9999 -9999 -9999 -9999 -9999 -9999 -9999 -9999 -9999 -9999 -9999 -9999 -9999 -9999 -9999 -9999 -9999 -9999 -9999 -9999 -9999 -9999 -9999 -9999 -9999 -9999 -9999 -9999 -9999 -9999 -9999 -9999 -9999 -9999 -9999 -9999 -9999 -9999 -9999 -9999 -9999 -9999 -9999 -9999 -9999 -9999 -9999 -9999 -9999 -9999 -9999 594.4533 594.2741 593.3666 591.5635 589.5237 587.5381 586.0326 585.5865 585.7236 585.8339 586.0067 586.713 588.1842 589.3838 589.2366 588.397 587.1722 585.2977 582.886 580.2502 577.877 576.3387 576.243 577.3455 578.9115 580.7828 582.8412 584.7545 586.0945 -9999 -9999 -9999 -9999 -9999 -9999 -9999 -9999 -9999 -9999 -9999 -9999 -9999 -9999 -9999 -9999 -9999 -9999 -9999 -9999 -9999 -9999 -9999 -9999 -9999 -9999 -9999 -9999 -9999 -9999 -9999 -9999 -9999 -9999 -9999 -9999 -9999 -9999 -9999 -9999 -9999 -9999 -9999 -9999 -9999 -9999 -9999 -9999 -9999 -9999 -9999 -9999 -9999 -9999
-9999 -9999 -9999 -9999 -9999 -9999 -9999 -9999 -9999 -9999 -9999 -9999 -9999 -9999 -9999 -9999 -9999 -9999 587.8208 584.5674 581.3586 578.4625 576.107 574.3461 573.0825 571.9208 570.4818 568.5414 566.4655 564.6444 563.1687 562.1146 561.3912 560.9456 560.7504 560.7487 560.8187 560.9243 561.0095 561.37 562.0881 563.4069 565.4311 567.7085 569.9939 572.2297 574.5701 577.1594 580.1937 582.9332 584.8441 586.1385 587.2586 -9999 -9999 -9999 -9999 -9999 -9999 -9999 -9999 -9999 -9999 -9999 -9999 -9999 -9999 -9999 -9999 -9999 -9999 -9999 -9999 -9999 -9999 -9999 -9999 -9999 -9999 -9999 -9999 -9999 -9999 -9999 -9999 -9999 -9999 -9999 -9999 -9999 -9999 -9999 -9999 -9999 -9999 -9999 -9999 -9999 -9999 -9999 -9999 -9999 -9999 -9999 -9999 -9999 -9999 -9999 -9999 -9999 -9999 -9999 -9999 -9999 -9999 -9999 -9999 -9999 -9999 -9999 -9999 -9999 -9999 592.8401 593.9027 594.073 593.3559 591.7917 589.79 587.799 586.1129 585.0374 584.6342 584.5344 584.5588 584.9692 585.7119 586.7117 587.635 587.4228 586.1829 584.434 582.2502 579.8832 577.5497 575.6113 574.4779 574.7261 575.8644 577.4574 579.286 581.3779 583.6595 585.7693 587.5133 -9999 -9999 -9999 -9999 -9999 -9999 -9999 -9999 -9999 -9999 -9999 -9999 -9999 -9999 -9999 -9999 -9999 -9999 -9999 -9999 -9999 -9999 -9999 -9999 -9999 -9999 -9999 -9999 -9999 -9999 -9999 -9999 -9999 -9999 -9999 -9999 -9999 -9999 -9999 -9999 -9999 -9999 -9999 -9999 -9999 -9999 -9999 -9999 -9999 -9999 -9999 -9999 -9999
-9999 -9999 -9999 -9999 -9999 -9999 -9999 -9999 -9999 -9999 -9999 -9999 -9999 -9999 -9999 -9999 -9999 -9999 584.7947 581.7313 578.879 576.4459 574.5709 573.3619 572.3298 571.0338 569.0861 566.8358 564.7674 563.1882 562.1085 561.3792 560.8965 560.655 560.5943 560.6102 560.6058 560.5842 560.6228 560.868 561.4329 562.5807 564.4789 566.8205 569.2256 571.5515 573.7775 576.1836 579.1093 581.9601 584.0566 585.3345 586.1964 -9999 -9999 -9999 -9999 -9999 -9999 -9999 -9999 -9999 -9999 -9999 -9999 -9999 -9999 -9999 -9999 -9999 -9999 -9999 -9999 -9999 -9999 -9999 -9999 -9999 -9999 -9999 -9999 -9999 -9999 -9999 -9999 -9999 -9999 -9999 -9999 -9999 -9999 -9999 -9999 -9999 -9999 -9999 -9999 -9999 -9999 -9999 -9999 -9999 -9999 -9999 -9999 -9999 -9999 -9999 -9999 -9999 -9999 -9999 -9999 -9999 -9999 -9999 -9999 -9999 -9999 -9999 588.0537 588.9727 590.6072 592.019 593.0957 592.6885 591.1269 588.9838 586.85 585.0656 583.8359 583.2588 583.1561 583.0543 583.0418 583.7823 584.5923 585.3124 585.7263 585.2053 583.6101 581.4474 579.1378 577.3723 575.6898 574.2925 573.5148 573.6727 574.5831 576.038 577.8662 579.9407 582.2993 584.8332 587.1645 588.666 -9999 -9999 -9999 -9999 -9999 -9999 -9999 -9999 -9999 -9999 -9999 -9999 -9999 -9999 -9999 -9999 -9999 -9999 -9999 -9999 -9999 -9999 -9999 -9999 -9999 -9999 -9999 -9999 -9999 -9999 -9999 -9999 -9999 -9999 -9999 -9999 -9999 -9999 -9999 -9999 -9999 -9999 -9999 -9999 -9999 -9999 -9999 -9999 -9999 -9999 -9999 -9999
-9999 -9999 -9999 -9999 -9999 -9999 -9999 -9999 -9999 -9999 -9999 -9999 -9999 -9999 -9999 -9999 -9999 584.7759 581.8276 579.1094 576.7983 575.0667 573.8123 572.8666 571.774 569.9323 567.5865 565.2886 563.4153 562.1535 561.3686 560.845 560.5591 560.4786 560.5205 560.5521 560.4943 560.3843 560.3639 560.5107 560.9162 561.8077 563.537 565.7902 568.2819 570.7565 573.0212 575.3855 578.1122 581.1313 583.4779 584.7548 585.4536 -9999 -9999 -9999 -9999 -9999 -9999 -9999 -9999 -9999 -9999 -9999 -9999 -9999 -9999 -9999 -9999 -9999 -9999 -9999 -9999 -9999 -9999 -9999 -9999 -9999 -9999 -9999 -9999 -9999 -9999 -9999 -9999 -9999 -9999 -9999 -9999 -9999 -9999 -9999 -9999 -9999 -9999 -9999 -9999 -9999 -9999 -9999 -9999 -9999 -9999 -9999 -9999 -9999 -9999 -9999 -9999 -9999 -9999 -9999 -9999 -9999 -9999 -9999 -9999 592.5485 590.5084 588.5557 587.9309 589.1108 590.184 590.491 590.9034 589.7265 587.541 585.0853 582.9798 581.494 580.6689 580.4424 580.7599 581.1359 581.5063 582.2228 582.898 583.2874 583.2631 582.4856 580.7777 578.6933 577.0035 575.6907 574.5399 573.5862 573.0221 573.0317 573.6102 574.7948 576.4605 578.3981 580.6998 583.3977 586.1416 588.3534 -9999 -9999 -9999 -9999 -9999 -9999 -9999 -9999 -9999 -9999 -9999 -9999 -9999 -9999 -9999 -9999 -9999 -9999 -9999 -9999 -9999 -9999 -9999 -9999 -9999 -9999 -9999 -9999 -9999 -9999 -9999 -9999 -9999 -9999 -9999 -9999 -9999 -9999 -9999 -9999 -9999 -9999 -9999 -9999 -9999 -9999 -9999 -9999 -9999 -9999 -9999 -9999
-9999 -9999 -9999 -9999 -9999 -9999 -9999 -9999 -9999 -9999 -9999 -9999 -9999 -9999 -9999 -9999 -9999 581.6794 579.0648 576.8569 575.2285 574.1115 573.3974 572.5725 571.3337 569.0992 566.5544 564.3249 562.6021 561.4808 560.8724 560.5157 560.3644 560.3873 560.4947 560.5406 560.4634 560.3092 560.2623 560.3502 560.6308 561.332 562.6718 564.7637 567.3562 569.9565 572.3059 574.5684 577.0675 580.1335 582.723 584.1433 584.7761 585.2993 -9999 -9999 -9999 -9999 -9999 -9999 -9999 -9999 -9999 -9999 -9999 -9999 -9999 -9999 -9999 -9999 -9999 -9999 -9999 -9999 -9999 -9999 -9999 -9999 -9999 -9999 -9999 -9999 -9999 -9999 -9999 -9999 -9999 -9999 -9999 594.0066 594.6935 596.0645 597.5624 598.2271 597.5807 -9999 -9999 -9999 -9999 -9999 -9999 -9999 -9999 -9999 -9999 -9999 -9999 -9999 -9999 -9999 -9999 -9999 -9999 -9999 588.9511 591.5073 593.0839 592.3585 590.861 588.6066 586.7228 587.728 588.0384 588.4141 587.6489 585.6624 583.1229 580.7198 578.8751 577.7262 577.1775 577.0875 577.6191 578.1297 578.6041 579.2355 579.884 580.1124 579.9093 579.1378 577.7039 576.3425 575.2851 574.4817 573.8188 573.2564 572.8711 572.7897 573.0873 573.8118 574.9283 576.8547 579.1135 581.8719 584.9998 587.8313 589.8211 -9999 -9999 -9999 -9999 -9999 -9999 -9999 -9999 -9999 -9999 -9999 -9999 -9999 -9999 -9999 -9999 -9999 -9999 -9999 -9999 -9999 -9999 -9999 -9999 -9999 -9999 -9999 -9999 -9999 -9999 -9999 -9999 -9999 -9999 -9999 -9999 -9999 -9999 -9999 -9999 -9999 -9999 -9999 -9999 -9999 -9999 -9999 -9999 -9999 -9999 -9999
-9999 -9999 -9999 -9999 -9999 -9999 -9999 -9999 -9999 -9999 -9999 -9999 -9999 -9999 -9999 -9999 -9999 578.8076 576.7121 575.1608 574.0763 573.4165 572.956 572.2311 570.7915 568.3746 565.7804 563.5566 561.8761 561.0868 560.6593 560.4045 560.3096 560.3615 560.4852 560.5361 560.4634 560.3099 560.2769 560.3373 560.4858 560.9266 561.9235 563.9261 566.6264 569.4259 571.8231 573.8175 576.012 578.8301 581.4807 583.2887 584.014 584.4539 585.1495 585.9681 586.9323 -9999 -9999 -9999 -9999 -9999 -9999 -9999 -9999 -9999 -9999 -9999 -9999 -9999 -9999 -9999 -9999 -9999 -9999 -9999 -9999 -9999 -9999 -9999 -9999 -9999 -9999 -9999 -9999 -9999 595.0554 594.9357 594.9122 595.157 595.8397 596.6627 597.5081 597.8251 597.0957 594.8652 591.6292 588.4465 586.5994 585.8325 -9999 -9999 -9999 590.261 592.2931 593.5311 593.4963 -9999 -9999 -9999 -9999 585.4498 585.7292 586.5775 588.3008 590.5582 591.7204 591.0559 590.0499 587.7886 585.3887 585.6187 585.6722 585.0641 583.3688 580.9847 578.5373 576.6692 575.3777 574.6747 574.4678 574.6321 575.1003 575.5579 575.9202 576.197 576.2677 576.188 575.8879 575.3441 574.6072 573.9655 573.5862 573.3573 573.2018 573.0529 572.9047 572.8491 573.0135 573.5011 574.3491 575.7036 577.7159 580.3916 583.7244 586.9801 589.2704 590.1534 -9999 -9999 -9999 -9999 -9999 -9999 -9999 -9999 -9999 -9999 -9999 -9999 -9999 -9999 -9999 -9999 -9999 -9999 -9999 -9999 -9999 -9999 -9999 -9999 -9999 -9999 -9999 -9999 -9999 -9999 -9999 -9999 -9999 -9999 -9999 -9999 -9999 -9999 -9999 -9999 -9999 -9999 -9999 -9999 -9999 -9999 -9999 -9999 -9999 -9999
-9999 -9999 -9999 -9999 -9999 -9999 -9999 -9999 -9999 -9999 -9999 -9999 -9999 -9999 -9999 -9999 578.4598 576.4398 575.0065 574.0253 573.3499 572.8135 572.5952 571.9294 570.2223 567.6657 565.0521 562.9886 561.5724 560.996 560.6808 560.4601 560.3546 560.3744 560.4636 560.5004 560.4374 560.3182 560.3259 560.4081 560.5084 560.8255 561.6332 563.3755 566.0692 569.0212 571.4628 573.1779 574.9477 577.3235 579.8107 581.8437 582.8892 583.4112 584.277 585.077 586.0347 587.3588 -9999 -9999 -9999 -9999 -9999 -9999 -9999 -9999 -9999 -9999 -9999 -9999 -9999 -9999 -9999 -9999 -9999 -9999 -9999 -9999 -9999 -9999 -9999 595.0201 594.4453 594.4431 594.6409 594.8467 594.9162 594.828 594.7442 594.7987 595.0654 595.4505 595.7027 595.657 594.9209 593.08 590.3739 587.6646 586.0847 585.6292 585.8904 586.44 587.8253 589.6415 591.2644 591.9902 592.6533 590.8542 588.3548 586.5157 585.9178 585.8241 585.9944 586.5831 587.9419 589.4304 590.1217 589.4397 587.9845 585.8594 583.916 582.9597 581.8322 580.4106 578.3627 576.2421 574.2646 572.9252 572.179 571.9276 572.0435 572.4007 572.8416 573.1993 573.4037 573.4287 573.2281 572.8638 572.3879 571.9103 571.5012 571.3776 571.6162 571.9705 572.3621 572.707 572.9072 573.0255 573.2413 573.7147 574.5114 575.6088 576.8813 578.9597 582.1532 585.5914 588.1361 589.0984 -9999 -9999 -9999 -9999 -9999 -9999 -9999 -9999 -9999 -9999 -9999 -9999 -9999 -9999 -9999 -9999 -9999 -9999 -9999 -9999 -9999 -9999 -9999 -9999 -9999 -9999 -9999 -9999 -9999 -9999 -9999 -9999 -9999 -9999 -9999 -9999 -9999 -9999 -9999 -9999 -9999 -9999 -9999 -9999 -9999 -9999 -9999 -9999 -9999 -9999
-9999 -9999 -9999 -9999 -9999 -9999 -9999 -9999 -9999 -9999 -9999 -9999 -9999 -9999 -9999 -9999 576.3619 574.866 573.9967 573.5192 573.2144 572.772 572.4672 571.6395 569.6215 566.979 564.4575 562.5687 561.4349 561.0045 560.7668 560.5582 560.416 560.3756 560.4014 560.4009 560.3361 560.2638 560.3038 560.4336 560.5779 560.942 561.69 563.0171 565.5428 568.4807 570.9543 572.4728 574.0115 575.8069 577.8416 579.86 581.4933 582.6037 583.3545 584.0504 585.0477 586.4054 588.3262 590.6276 -9999 -9999 -9999 -9999 -9999 -9999 -9999 -9999 -9999 -9999 -9999 -9999 -9999 -9999 -9999 -9999 597.0311 596.4924 595.9493 595.493 595.1945 594.3138 593.8431 593.6855 593.6686 593.6397 593.5097 593.2165 592.8712 592.5601 592.3096 592.0953 591.9196 591.6942 591.1435 589.9033 587.9529 585.9143 584.6819 584.5682 584.8682 585.4005 586.5391 588.0922 589.6155 590.6187 590.9376 589.6818 587.8419 586.4377 585.9734 585.9573 586.076 586.7744 586.9738 587.1837 586.9421 585.8368 584.053 581.9194 580.0521 578.6302 577.0859 575.3302 573.4536 571.7421 570.3246 569.4502 569.0606 569.0912 569.4626 569.97 570.4165 570.7068 570.8116 570.6837 570.2938 569.7108 569.0778 568.5465 568.2531 568.3925 569.0367 569.9438 570.969 571.9308 572.6265 573.0705 573.4813 574.1047 575.0306 576.2321 577.4144 577.6169 580.2316 583.6992 586.6521 588.3707 590.669 -9999 -9999 -9999 -9999 -9999 -9999 -9999 -9999 -9999 -9999 -9999 -9999 -9999 -9999 -9999 -9999 -9999 -9999 -9999 -9999 -9999 -9999 -9999 -9999 -9999 -9999 -9999 -9999 -9999 -9999 -9999 -9999 -9999 -9999 -9999 -9999 -9999 -9999 -9999 -9999 -9999 -9999 -9999 -9999 -9999 -9999 -9999 -9999 -9999
-9999 -9999 -9999 -9999 -9999 -9999 -9999 -9999 -9999 -9999 -9999 -9999 -9999 -9999 -9999 576.8873 575.3586 574.1834 573.6836 573.5048 573.4744 572.9678 572.3281 571.1179 568.8432 566.1863 563.7403 561.9023 561.1156 560.8735 560.7413 560.5737 560.4145 560.3209 560.2828 560.2288 560.1394 560.1075 560.1424 560.265 560.4575 560.9805 561.7397 562.6742 564.8939 567.6215 570.0398 571.5189 573.0203 574.4005 575.7537 577.4012 579.0114 580.3655 581.2996 582.418 583.7329 585.2839 587.2336 589.4685 591.4949 -9999 -9999 -9999 -9999 -9999 -9999 -9999 -9999 -9999 -9999 -9999 -9999 -9999 597.2477 596.4329 595.6588 594.9489 594.2437 593.6392 592.9735 592.2012 591.7453 591.5085 591.2408 590.863 590.3094 589.5906 588.8469 588.1501 587.4711 586.8332 586.3953 586.1871 585.9839 585.4551 584.3519 583.0994 582.48 582.7011 582.9246 583.1083 584.2472 585.5115 586.819 587.7556 588.0418 587.3427 586.1538 585.1705 584.8107 584.7097 584.4801 584.4597 584.1788 583.4845 582.3024 580.7442 578.8544 577.0052 575.2442 573.7686 572.2565 570.6319 569.0191 567.6384 566.6155 565.9907 565.7053 565.7942 566.2123 566.7586 567.2865 567.6264 567.7525 567.5673 567.0231 566.3116 565.613 565.0745 564.8272 565.0503 565.8434 567.1227 568.7529 570.4159 571.812 572.7345 573.4273 574.1977 575.1227 576.0162 576.1355 575.9153 578.1202 581.4619 584.8076 587.5341 589.9412 591.8208 -9999 -9999 -9999 -9999 -9999 -9999 -9999 -9999 -9999 -9999 -9999 -9999 -9999 -9999 -9999 -9999 -9999 -9999 -9999 -9999 -9999 -9999 -9999 -9999 -9999 -9999 -9999 -9999 -9999 -9999 -9999 -9999 -9999 -9999 -9999 -9999 -9999 -9999 -9999 -9999 -9999 -9999 -9999 -9999 -9999 -9999 -9999 -9999
-9999 -9999 -9999 -9999 -9999 -9999 -9999 -9999 -9999 -9999 -9999 -9999 -9999 -9999 -9999 576.7659 575.6214 574.726 574.1159 573.6978 573.4748 572.84 571.8809 570.1557 567.8088 565.3181 563.1185 561.5276 560.8275 560.6419 560.5785 560.4655 560.3239 560.2095 560.1306 560.0245 559.8848 559.879 559.8765 559.88 559.9843 560.5833 561.0164 561.8713 563.8146 566.3145 568.7709 570.7233 572.1318 573.2137 574.1168 575.033 576.2642 577.5921 578.655 580.323 581.918 583.6855 585.7053 587.8792 589.9151 591.6548 593.1038 -9999 -9999 -9999 -9999 -9999 -9999 -9999 -9999 -9999 -9999 597.2172 595.8362 594.4123 593.0222 591.8378 590.8674 590.1004 589.3508 588.6185 588.0563 587.5476 586.9437 586.222 585.3369 584.2505 583.1618 582.2134 581.31 580.4745 580.0091 579.9404 580.1384 580.303 580.0098 579.4787 579.3876 579.7957 580.0987 580.3719 581.035 581.9124 582.953 583.7517 584.1567 583.9393 583.3407 582.7215 582.2357 581.6992 581.1885 580.5989 579.7731 578.6105 577.1852 575.5087 573.809 572.1924 570.6682 569.3249 567.956 566.5534 565.1747 563.9922 563.2053 562.6811 562.4235 562.4518 562.77 563.2184 563.7792 564.2022 564.4545 564.3126 563.6841 562.9203 562.2529 561.7913 561.5374 561.7578 562.5453 563.9409 566.0151 568.2871 570.3243 571.8673 572.9157 573.8212 574.6348 575.1105 574.9697 574.8516 576.1969 578.9644 582.2568 585.4416 588.2048 590.2274 591.6468 -9999 -9999 -9999 -9999 -9999 -9999 -9999 -9999 -9999 -9999 -9999 -9999 -9999 -9999 -9999 -9999 -9999 -9999 -9999 -9999 -9999 -9999 -9999 -9999 -9999 -9999 -9999 -9999 -9999 -9999 -9999 -9999 -9999 -9999 -9999 -9999 -9999 -9999 -9999 -9999 -9999 -9999 -9999 -9999 -9999 -9999 -9999
-9999 -9999 -9999 -9999 -9999 -9999 -9999 -9999 -9999 -9999 -9999 -9999 -9999 -9999 578.5328 577.0861 576.4866 576.0311 575.2796 574.1193 573.38 572.4565 571.1909 569.1634 566.7651 564.4568 562.5839 561.34 560.6572 560.4261 560.3669 560.2933 560.1833 560.078 559.9959 559.8793 559.7297 559.6498 559.5776 559.5061 559.5542 559.8328 560.0655 560.9226 562.5592 564.7886 567.0972 569.1918 570.9266 572.0331 572.9254 573.7388 574.89 575.962 577.1992 578.1905 579.7126 581.5244 583.6055 585.8399 587.9765 589.8373 591.3607 592.6624 594.3563 596.2949 -9999 -9999 -9999 -9999 -9999 -9999 597.8172 595.8704 593.7675 591.5038 589.4225 587.6878 586.3939 585.4459 584.6411 583.8779 583.1568 582.345 581.3964 580.4091 579.3238 578.0828 576.9666 576.0535 575.2709 574.6486 574.3712 574.5278 575.0699 575.6027 575.845 575.8386 575.9023 576.2877 576.563 576.7947 577.2275 577.935 578.775 579.4597 579.9025 579.9 579.5385 578.9982 578.3242 577.4797 576.7748 576.032 574.9764 573.7523 572.3811 570.9063 569.4323 568.0074 566.6494 565.428 564.236 563.1224 562.0088 560.9943 560.4153 560.0762 559.9632 559.8699 559.9741 560.2299 560.7063 561.1669 561.5602 561.5739 560.9563 560.1865 559.6185 559.3036 559.1417 559.3951 559.9648 561.1069 563.1776 565.7751 568.3402 570.4592 571.9648 573.0681 573.9086 574.2762 574.0856 573.8682 574.5012 576.5135 579.3637 582.5307 585.5291 587.9099 589.651 590.6135 -9999 -9999 -9999 -9999 -9999 -9999 -9999 -9999 -9999 -9999 -9999 -9999 -9999 -9999 -9999 -9999 -9999 -9999 -9999 -9999 -9999 -9999 -9999 -9999 -9999 -9999 -9999 -9999 -9999 -9999 -9999 -9999 -9999 -9999 -9999 -9999 -9999 -9999 -9999 -9999 -9999 -9999 -9999 -9999 -9999 -9999
-9999 -9999 -9999 -9999 -9999 -9999 -9999 -9999 -9999 -9999 -9999 -9999 -9999 -9999 580.1713 578.9769 578.6176 578.1415 576.8445 575.0478 573.5766 572.0596 570.2128 567.9568 565.6277 563.5007 561.8664 561.0718 560.6102 560.3727 560.2609 560.1685 560.0613 559.9585 559.8792 559.7432 559.58 559.4488 559.3243 559.1936 559.1188 559.1838 559.3573 559.9902 561.2851 563.0845 565.1581 567.2363 569.0961 570.5497 571.6851 572.4509 573.3765 574.1975 575.1254 575.9335 577.0224 578.9484 581.0591 583.4213 585.6888 587.6519 589.2313 590.562 592.2532 594.2267 596.2268 597.9394 -9999 -9999 599.4442 598.1588 596.1584 593.6976 590.8752 587.958 585.3009 583.085 581.4984 580.3623 579.439 578.5973 577.7361 576.7073 575.6273 574.5832 573.5016 572.4017 571.4435 570.703 570.1296 569.7469 569.6589 569.9593 570.6409 571.3759 571.9633 572.3069 572.5642 572.8362 573.0334 573.2639 573.7044 574.5243 575.3386 575.9626 576.354 576.3258 575.9973 575.4171 574.5978 573.5952 572.7307 571.8284 570.7535 569.5576 568.2742 566.9568 565.64 564.3954 563.1836 562.1193 561.1702 560.466 559.7875 558.9907 558.7047 558.9719 559.2173 558.844 558.6289 558.6891 559.0444 559.5587 560.1127 560.4345 559.7732 558.9475 558.3828 558.2811 558.5638 559.0463 558.8611 559.2075 560.7617 563.2436 566.0972 568.737 570.7004 572.0753 573.0574 573.5391 573.4594 573.1923 573.3834 574.5029 576.6389 579.4253 582.431 585.1891 587.4446 589.0717 590.3659 591.551 -9999 -9999 -9999 -9999 -9999 -9999 -9999 -9999 -9999 -9999 -9999 -9999 -9999 -9999 -9999 -9999 -9999 -9999 -9999 -9999 -9999 -9999 -9999 -9999 -9999 -9999 -9999 -9999 -9999 -9999 -9999 -9999 -9999 -9999 -9999 -9999 -9999 -9999 -9999 -9999 -9999 -9999 -9999 -9999
-9999 -9999 -9999 -9999 -9999 -9999 -9999 -9999 -9999 -9999 -9999 -9999 -9999 -9999 582.1021 581.1296 581.0078 580.5554 578.8581 576.3803 574.1983 572.0836 569.7552 567.1303 564.6396 562.7109 561.6277 561.14 560.7542 560.4585 560.2621 560.1213 559.9977 559.8807 559.7749 559.6248 559.4473 559.2729 559.1209 558.9565 558.8109 558.7422 558.8208 559.2087 560.0408 561.3932 563.1372 565.1216 567.0804 568.8196 570.2397 571.248 572.0186 572.5597 573.3459 574.1045 575.0182 576.3986 578.4642 580.8212 583.1008 585.0649 586.6358 588.0744 589.814 591.8191 593.8743 595.6709 596.8671 597.4387 597.1041 595.7009 593.4702 590.5771 587.3307 584.0522 581.0508 578.5587 576.8378 575.6564 574.5825 573.6395 572.6997 571.6461 570.555 569.532 568.4959 567.5215 566.6891 566.0855 565.6451 565.3993 565.399 565.7432 566.465 567.3241 568.1238 568.6668 569.0067 569.1907 569.3339 569.6826 570.4163 571.4858 572.3853 572.9362 573.1631 573.0386 572.6857 572.0702 571.1692 570.1229 569.0937 568.0646 566.9763 565.8149 564.6446 563.4482 562.297 561.2822 560.3641 559.5921 559.0433 558.9727 558.9965 558.3529 558.0814 558.3262 558.539 558.2296 557.9447 557.9027 558.1481 558.6014 559.1064 559.405 558.9879 558.324 557.8065 557.8082 558.2062 558.3607 558.1085 558.1388 559.0533 561.094 563.8911 566.8311 569.3359 571.0659 572.1575 572.8188 572.9534 572.7561 572.6963 573.2026 574.4812 576.6199 579.3275 582.2224 584.9273 587.1864 588.9821 590.4497 591.5736 592.0872 -9999 -9999 -9999 -9999 -9999 -9999 -9999 -9999 -9999 -9999 -9999 -9999 -9999 -9999 -9999 -9999 -9999 -9999 -9999 -9999 -9999 -9999 -9999 -9999 -9999 -9999 -9999 -9999 -9999 -9999 -9999 -9999 -9999 -9999 -9999 -9999 -9999 -9999 -9999 -9999 -9999 -9999
-9999 -9999 -9999 -9999 -9999 -9999 -9999 -9999 -9999 -9999 -9999 -9999 -9999 -9999 -9999 582.9646 583.0222 582.8834 581.2065 578.3852 575.3455 572.6558 569.8983 566.8635 564.0412 562.1169 561.9653 561.4488 561.0054 560.6186 560.3121 560.0964 559.9565 559.8787 559.722 559.5437 559.3505 559.1514 558.957 558.7835 558.6171 558.4983 558.4773 558.6327 559.0404 559.8561 561.2197 563.0114 564.9901 566.8967 568.5828 569.9905 570.8642 571.3655 572.1045 572.8732 573.75 574.9905 576.7461 578.5015 580.3532 582.1211 583.6105 585.0742 586.8296 588.8342 590.874 592.6248 593.6619 594.0141 593.5505 592.1013 589.7264 586.6744 583.3351 580.0025 577.0095 574.6852 572.9404 571.6465 570.4481 569.3542 568.3014 567.2136 566.1286 565.1324 564.1335 563.2229 562.416 561.8626 561.4865 561.28 561.2616 561.551 562.2003 563.0493 563.884 564.4824 564.8061 564.922 565.0477 565.6149 566.8404 568.418 569.7107 570.4042 570.5562 570.258 569.6254 568.803 567.7341 566.5878 565.4581 564.4106 563.3638 562.308 561.3137 560.3314 559.4489 558.7703 558.3195 557.9564 557.7455 557.7881 557.8628 557.6653 557.5228 557.7515 557.9249 557.7377 557.5143 557.4484 557.5965 557.9136 558.2685 558.4736 558.2657 557.8771 557.4482 557.4035 557.6735 557.7739 557.5868 557.5013 558.0129 559.488 562.0385 565.0756 567.944 570.1226 571.4192 572.1458 572.4849 572.4551 572.3276 572.4617 573.1187 574.4468 576.554 579.1931 582.0297 584.7108 586.9712 588.7267 590.1342 591.1185 591.7554 591.9445 -9999 -9999 -9999 -9999 -9999 -9999 -9999 -9999 -9999 -9999 -9999 -9999 -9999 -9999 -9999 -9999 -9999 -9999 -9999 -9999 -9999 -9999 -9999 -9999 -9999 -9999 -9999 -9999 -9999 -9999 -9999 -9999 -9999 -9999 -9999 -9999 -9999 -9999 -9999 -9999
-9999 -9999 -9999 -9999 -9999 -9999 -9999 -9999 -9999 -9999 -9999 -9999 -9999 -9999 -9999 584.8214 584.8896 585.0555 583.4629 580.4083 576.8275 573.6376 570.4852 567.1148 563.9599 561.8375 561.4523 561.2914 560.9785 560.6564 560.3343 560.069 559.8812 559.7933 559.6555 559.4806 559.29 559.0818 558.8701 558.6697 558.5027 558.3879 558.3362 558.3385 558.3629 558.6129 559.5145 561.0598 562.9382 564.9417 566.8452 568.491 569.7399 570.3143 571.2418 572.0653 572.8527 573.8871 575.4081 576.4796 577.6295 579.0558 580.335 581.6981 583.369 585.2808 587.1962 588.7425 589.5039 589.5449 588.9474 587.5413 585.2166 582.2481 579.0971 576.0665 573.3423 571.172 569.4335 567.996 566.6359 565.3894 564.2652 563.2068 562.162 561.1945 560.2332 559.3838 558.5743 558.0298 557.6953 557.4743 557.3655 557.5422 558.0374 558.7103 559.4108 559.9288 560.2151 560.299 560.4302 561.1951 562.8296 564.9103 566.6636 567.6122 567.7661 567.2596 566.3409 565.2418 564.0134 562.7908 561.6484 560.6979 559.8389 559.0251 558.3417 557.7291 557.1641 556.842 556.7296 556.6852 556.6576 556.6812 556.7382 556.8062 556.8881 557.2182 557.3659 557.2828 557.1638 557.1183 557.1818 557.3357 557.5181 557.6298 557.5356 557.3795 557.173 557.0828 557.2211 557.2926 557.2026 557.1134 557.3622 558.462 560.5959 563.5102 566.5096 569.0479 570.6795 571.6293 572.0992 572.2471 572.1736 572.1309 572.3771 573.0903 574.3987 576.4244 578.9476 581.7056 584.2458 586.2908 588.0273 589.4093 590.2198 590.7018 591.1869 -9999 -9999 -9999 -9999 -9999 -9999 -9999 -9999 -9999 -9999 -9999 -9999 -9999 -9999 -9999 -9999 -9999 -9999 -9999 -9999 -9999 -9999 -9999 -9999 -9999 -9999 -9999 -9999 -9999 -9999 -9999 -9999 -9999 -9999 -9999 -9999 -9999 -9999 -9999
-9999 -9999 -9999 -9999 -9999 -9999 -9999 -9999 -9999 -9999 -9999 -9999 -9999 -9999 -9999 586.6539 586.7043 586.8395 585.2306 582.1508 578.2478 574.7751 571.3146 567.6915 564.2468 561.836 561.0415 560.8592 560.6902 560.4943 560.2657 560.0425 559.88 559.7681 559.6284 559.4565 559.2546 559.0555 558.8425 558.6344 558.4641 558.3658 558.3472 558.3595 558.2306 558.2324 558.5088 559.4636 561.0667 563.0018 565.043 566.8571 568.3386 569.6316 570.6473 571.4324 572.038 572.6149 573.662 574.5576 575.4042 576.2903 577.1835 578.2975 579.712 581.3547 583.0189 584.2493 584.6902 584.5105 583.8726 582.5889 580.4532 577.7199 574.9368 572.2874 569.8342 567.7172 565.9216 564.3515 562.8774 561.5991 560.5557 559.6182 558.6909 557.8249 556.9297 556.1419 555.3803 554.8277 554.5103 554.2616 554.0959 554.1702 554.4624 554.8601 555.2999 555.6339 555.8508 555.9606 556.1797 557.0499 558.7842 560.9862 562.9098 564.0034 564.184 563.5997 562.5865 561.384 560.141 558.995 557.9276 557.0951 556.4738 555.9969 555.719 555.5454 555.2966 555.1959 555.202 555.3052 555.3797 555.4125 555.5387 555.9396 556.3474 556.7813 556.8546 556.8464 556.8396 556.8381 556.8382 556.8417 556.8542 556.8641 556.8431 556.8432 556.8372 556.8321 556.8339 556.8417 556.8328 556.8109 556.8578 557.6566 559.4605 562.0939 564.9867 567.6673 569.7445 571.0291 571.7541 572.0821 572.1376 572.0619 572.0859 572.3756 573.0699 574.2838 576.1356 578.563 581.0609 583.2445 585.3037 587.0801 588.3372 589.3301 589.8233 590.08 -9999 -9999 -9999 -9999 -9999 -9999 -9999 -9999 -9999 -9999 -9999 -9999 -9999 -9999 -9999 -9999 -9999 -9999 -9999 -9999 -9999 -9999 -9999 -9999 -9999 -9999 -9999 -9999 -9999 -9999 -9999 -9999 -9999 -9999 -9999 -9999 -9999 -9999
-9999 -9999 -9999 -9999 -9999 -9999 -9999 -9999 -9999 -9999 -9999 -9999 -9999 -9999 -9999 587.9354 587.8796 587.3107 586.287 583.6018 579.7541 576.0278 572.2677 568.4603 564.8014 562.0528 560.8325 560.4374 560.3335 560.2234 560.1045 559.9739 559.8799 559.7809 559.6481 559.4686 559.2646 559.0428 558.8384 558.6396 558.4671 558.3688 558.36 558.3639 558.3276 558.358 558.2772 558.5092 559.5054 561.1923 563.2064 565.0418 566.4943 568.1063 569.6437 570.6671 571.3071 571.7958 572.376 573.0967 573.7676 574.3568 574.9576 575.7216 576.6312 577.6051 578.8757 579.7543 579.9308 579.6848 579.1377 578.0645 576.2589 573.8803 571.3818 568.8736 566.4204 564.2104 562.3571 560.8074 559.4166 558.2821 557.4591 556.7283 555.9943 555.2786 554.4628 553.6796 552.9053 552.3931 552.1376 551.8911 551.7755 551.8155 551.9044 552.074 552.2626 552.4178 552.5438 552.7088 553.1225 553.9585 555.3247 557.1375 558.8301 559.839 560.0215 559.5251 558.6732 557.6241 556.5641 555.6566 554.7722 554.1332 553.7204 553.5158 553.4924 553.6165 553.6282 553.6438 553.7429 554.0178 554.3475 554.5494 554.8461 555.3136 555.7986 556.217 556.4016 556.4919 556.5482 556.5698 556.5516 556.4998 556.4398 556.3962 556.3674 556.3804 556.4182 556.444 556.4413 556.4114 556.3849 556.3715 556.4691 557.0667 558.618 560.8262 563.3605 565.8998 568.2246 570.0532 571.191 571.8164 572.0784 572.08 572.056 572.1185 572.4227 573.1099 574.3398 576.0554 577.9615 579.9503 582.1585 584.277 586.0419 587.4421 588.1313 588.488 589.0953 -9999 -9999 -9999 -9999 -9999 -9999 -9999 -9999 -9999 -9999 -9999 -9999 -9999 -9999 -9999 -9999 -9999 -9999 -9999 -9999 -9999 -9999 -9999 -9999 -9999 -9999 -9999 -9999 -9999 -9999 -9999 -9999 -9999 -9999 -9999 -9999 -9999
-9999 -9999 -9999 -9999 -9999 -9999 -9999 -9999 -9999 -9999 -9999 -9999 -9999 -9999 -9999 -9999 587.3147 586.6167 586.3829 584.6915 581.1085 577.2061 573.2153 569.259 565.447 562.4182 560.7896 560.1466 560.0037 559.9435 559.9194 559.8802 559.8647 559.8032 559.6842 559.5119 559.2927 559.0633 558.8379 558.6392 558.4713 558.36 558.3459 558.3627 558.379 558.4045 558.3576 558.2112 558.52 559.6066 561.3359 563.0264 564.4035 565.998 567.8644 569.4652 570.4197 571.1245 571.6804 572.1843 572.7065 573.0485 573.3912 573.9053 574.4925 575.1302 575.8735 576.2835 576.137 575.8958 575.5641 574.6123 572.948 570.791 568.3499 565.7345 563.1354 560.8629 559.1118 557.8472 556.7883 555.9708 555.4905 554.9817 554.3311 553.5223 552.6577 551.916 551.1564 550.8358 550.7614 550.7249 550.6983 550.7235 550.7884 550.908 550.9697 551.0065 551.0115 550.9644 551.3069 551.9401 552.8799 554.0263 555.1794 555.8788 556.0192 555.7261 555.2305 554.5555 553.85 553.2764 552.7004 552.4084 552.3277 552.3086 552.3295 552.3377 552.3321 552.3441 552.4747 552.9742 553.4709 553.7943 554.2717 554.7966 555.3074 555.7276 555.9939 556.1829 556.3094 556.3668 556.3544 556.2844 556.1819 556.0974 556.0541 556.0571 556.092 556.1333 556.1525 556.1606 556.1858 556.264 556.5234 557.131 558.3269 559.8741 561.7247 563.9313 566.3315 568.5307 570.1882 571.219 571.7793 572.0034 572.0797 572.08 572.1679 572.4521 573.1543 574.2357 575.6221 577.2504 579.1382 581.3746 583.5706 585.465 586.7303 587.5461 588.2385 589.252 -9999 -9999 -9999 -9999 -9999 -9999 -9999 -9999 -9999 -9999 -9999 -9999 -9999 -9999 -9999 -9999 -9999 -9999 -9999 -9999 -9999 -9999 -9999 -9999 -9999 -9999 -9999 -9999 -9999 -9999 -9999 -9999 -9999 -9999 -9999 -9999
-9999 -9999 -9999 -9999 -9999 -9999 -9999 -9999 -9999 -9999 -9999 -9999 -9999 -9999 -9999 -9999 586.9146 586.8696 586.8329 585.5649 582.092 578.0604 573.8914 569.7819 565.8569 562.6542 560.7714 559.9323 559.7256 559.7158 559.7991 559.8799 559.886 559.8281 559.7119 559.5406 559.3272 559.0872 558.8534 558.644 558.4731 558.36 558.3322 558.3461 558.3725 558.3947 558.3596 558.2013 558.1837 558.6366 559.8709 561.1721 562.2834 563.7398 565.6179 567.5386 569.0375 570.2215 571.0245 571.583 572.0092 572.1278 572.2604 572.6644 573.0576 573.4598 573.9424 574.1687 574.0409 573.7352 573.259 572.1654 570.4246 568.1667 565.5302 562.7303 560.1184 558.1427 556.9869 556.3182 555.5875 554.9634 554.5177 554.007 553.2363 552.1309 551.1843 550.7358 550.3965 550.3046 550.3606 550.4697 550.4911 550.5125 550.5796 550.7388 550.7399 550.7399 550.7373 550.5514 550.6259 550.9583 551.5087 552.1595 552.7188 553.0664 553.1609 553.1087 553.0948 552.8979 552.6281 552.3856 552.1578 552.0511 552.0426 552.0574 552.074 552.0604 551.9772 551.9288 551.9677 552.1869 552.4436 552.9642 553.6602 554.2686 554.8184 555.2985 555.6354 555.9338 556.1423 556.2443 556.2489 556.1747 556.0554 555.933 555.884 555.9028 555.9641 556.0399 556.0962 556.1796 556.3412 556.5735 557.1008 557.9413 558.51 559.2931 560.3718 562.0251 564.2134 566.5496 568.592 570.1093 571.0728 571.6049 571.8921 572.0194 572.0792 572.0902 572.4236 572.9785 573.9217 575.1927 576.7852 578.7485 581.1482 583.5594 585.6331 587.1802 588.2587 589.2958 -9999 -9999 -9999 -9999 -9999 -9999 -9999 -9999 -9999 -9999 -9999 -9999 -9999 -9999 -9999 -9999 -9999 -9999 -9999 -9999 -9999 -9999 -9999 -9999 -9999 -9999 -9999 -9999 -9999 -9999 -9999 -9999 -9999 -9999 -9999 -9999
-9999 -9999 -9999 -9999 -9999 -9999 -9999 -9999 -9999 -9999 -9999 -9999 -9999 -9999 -9999 -9999 587.1012 587.3982 587.3647 586.0975 582.6191 578.495 574.2162 570.0117 566.0353 562.777 560.7699 559.7855 559.4968 559.5432 559.7186 559.8798 559.8943 559.8271 559.6999 559.5304 559.3245 559.0969 558.8672 558.6564 558.4808 558.3599 558.3199 558.3145 558.3245 558.3458 558.3658 558.3589 558.2478 558.3702 559.0504 559.9032 560.7817 561.8904 563.4544 565.2897 567.026 568.6555 569.8948 570.6417 571.1282 571.3136 571.4398 571.7261 572.0236 572.3038 572.7555 572.9232 572.8135 572.3605 571.6836 570.2473 568.1659 565.5826 562.7177 559.9128 557.6586 556.4944 556.8214 556.0544 555.2386 554.5596 553.9948 553.2885 552.1353 551.0344 550.4569 550.2692 550.2587 550.3779 550.5044 550.7278 550.7379 550.7363 550.7424 550.851 550.8953 550.9058 550.8608 550.6976 550.6385 550.7661 551.0782 551.5031 551.9127 552.1925 552.2714 552.2468 552.2521 552.2505 552.2527 552.2582 552.2599 552.2589 552.2587 552.2589 552.2593 552.2564 552.1002 552.0063 551.9143 551.9047 551.9874 552.3082 552.93 553.6642 554.3054 554.8864 555.3364 555.7807 556.0757 556.2164 556.2339 556.1644 556.0404 555.9258 555.8826 555.9603 556.0946 556.2605 556.3605 556.5355 556.9097 557.2367 558.02 558.4537 558.6976 559.0177 559.5648 560.5514 562.2653 564.3831 566.488 568.2929 569.773 570.7161 571.3629 571.7651 571.9635 571.9951 572.0704 572.1628 572.7693 573.726 575.0342 576.7562 578.9607 581.7312 584.6103 587.1533 588.942 590.0979 590.342 -9999 -9999 -9999 -9999 -9999 -9999 -9999 -9999 -9999 -9999 -9999 -9999 -9999 -9999 -9999 -9999 -9999 -9999 -9999 -9999 -9999 -9999 -9999 -9999 -9999 -9999 -9999 -9999 -9999 -9999 -9999 -9999 -9999 -9999 -9999
-9999 -9999 -9999 -9999 -9999 -9999 -9999 -9999 -9999 -9999 -9999 -9999 -9999 -9999 -9999 -9999 587.7498 588.106 587.8972 586.4321 582.8875 578.6123 574.2742 570.0417 566.0712 562.8395 560.8173 559.7709 559.4152 559.4662 559.683 559.8796 559.8802 559.7853 559.6429 559.4678 559.2748 559.0704 558.865 558.6714 558.4984 558.3605 558.3192 558.2712 558.2297 558.217 558.2465 558.3103 558.3599 558.3609 558.6975 559.2229 559.8575 560.6522 561.7648 563.2515 564.8858 566.5238 567.9026 568.9496 569.665 570.004 570.1836 570.3469 570.9846 571.5344 571.9393 571.978 571.9247 571.3346 570.1807 568.2452 565.717 562.8527 559.9822 557.5337 555.968 555.5815 555.8771 555.6172 554.9365 554.1978 553.4193 552.3137 551.1414 550.4781 550.2206 550.2644 550.4679 550.7198 550.7493 550.9193 550.9918 551.035 551.0864 551.1827 551.2632 551.3125 551.2915 551.1522 551.0361 551.0488 551.2402 551.5848 551.9842 552.2562 552.2589 552.0813 551.9851 551.9769 552.031 552.1134 552.1935 552.2518 552.2878 552.3101 552.3247 552.3237 552.2606 552.2548 552.0879 551.9313 551.8529 551.9522 552.3034 552.9667 553.8365 554.6323 555.2948 555.8079 556.1466 556.3036 556.3174 556.2535 556.1504 556.0657 556.1003 556.2787 556.5276 556.8886 557.0159 557.2422 557.9706 558.2793 558.6049 558.7565 558.8083 558.8926 559.1086 559.614 560.6043 562.2209 564.0969 565.9125 567.6702 569.1553 570.3394 571.1896 571.7009 571.8762 571.8459 571.7836 572.0731 572.743 573.7764 575.2631 577.3104 580.0088 583.3645 586.7566 589.5178 591.3594 591.8626 590.9892 -9999 -9999 -9999 -9999 -9999 -9999 -9999 -9999 -9999 -9999 -9999 -9999 -9999 -9999 -9999 -9999 -9999 -9999 -9999 -9999 -9999 -9999 -9999 -9999 -9999 -9999 -9999 -9999 -9999 -9999 -9999 -9999 -9999 -9999
-9999 -9999 -9999 -9999 -9999 -9999 -9999 -9999 -9999 -9999 -9999 -9999 -9999 -9999 -9999 -9999 588.6438 588.8698 588.4101 586.7252 583.147 578.6021 574.2446 570.0179 566.0754 562.8931 560.9443 559.8981 559.5044 559.5103 559.7037 559.8798 559.8391 559.7098 559.5452 559.3673 559.1851 559.0094 558.8433 558.6888 558.5509 558.4373 558.3595 558.2227 558.0898 558.0044 558.0031 558.0993 558.2504 558.3598 558.5796 558.9214 559.3586 559.8991 560.6443 561.6776 562.9086 564.0981 565.2559 566.2587 567.0845 567.6642 568.25 569.0116 569.8813 570.5996 570.8088 570.5923 570.6656 569.9666 568.2859 565.8295 562.9839 560.1227 557.6268 555.9094 555.2018 555.1824 555.3235 555.2361 554.5236 553.6326 552.5488 551.5106 550.724 550.337 550.2921 550.4705 550.7343 550.9489 551.054 551.1896 551.2917 551.3843 551.4844 551.5842 551.6825 551.7742 551.8174 551.6909 551.5564 551.5055 551.6145 551.8927 552.2475 552.3279 552.2456 552.0636 551.9286 551.8818 551.9133 551.9917 552.0814 552.158 552.2163 552.2615 552.3 552.3304 552.3404 552.3497 552.2586 552.0856 551.9159 551.8492 551.9916 552.4769 553.622 554.5089 555.3051 555.9315 556.3301 556.5144 556.5171 556.4662 556.401 556.3828 556.5385 556.9245 557.2633 557.995 558.2175 558.3171 558.5989 558.7598 558.8385 558.7886 558.7241 558.7097 558.7504 558.9137 559.3425 560.218 561.5832 563.1937 565.0219 566.8436 568.6413 570.1511 571.1447 571.6127 571.6342 571.4672 571.5492 572.0373 572.8322 574.0668 575.8918 578.4113 581.6353 585.5137 589.0244 591.5122 593.3129 592.6973 -9999 -9999 -9999 -9999 -9999 -9999 -9999 -9999 -9999 -9999 -9999 -9999 -9999 -9999 -9999 -9999 -9999 -9999 -9999 -9999 -9999 -9999 -9999 -9999 -9999 -9999 -9999 -9999 -9999 -9999 -9999 -9999 -9999 -9999
-9999 -9999 -9999 -9999 -9999 -9999 -9999 -9999 -9999 -9999 -9999 -9999 -9999 -9999 -9999 -9999 589.6154 589.4772 588.6986 586.955 583.4578 578.8524 574.3743 570.095 566.167 563.0207 561.1262 560.137 559.7481 559.6901 559.7845 559.88 559.7782 559.6094 559.4262 559.245 559.0757 558.9265 558.8008 558.6923 558.5916 558.4884 558.3597 558.1437 557.9103 557.7284 557.6724 557.8077 558.1266 558.3592 558.5773 558.8481 559.1849 559.5588 559.9506 560.5953 561.2618 561.8412 562.5442 563.2972 564.0261 564.7495 565.5948 566.7582 568.1147 569.2175 569.4296 569.0594 569.0986 567.9597 565.78 562.9997 560.1544 557.7049 555.9691 555.1809 555.0878 555.3053 555.3641 555.111 554.0236 552.9102 551.8531 550.8796 550.4631 550.3689 550.4958 550.7341 550.9576 551.1583 551.3175 551.4706 551.6066 551.7462 551.8864 551.9594 552.0305 552.1265 552.2495 552.1099 551.9966 551.9086 551.9331 552.0804 552.2603 552.3047 552.2236 552.0724 551.9368 551.8621 551.8564 551.9034 551.9734 552.0419 552.1031 552.1595 552.217 552.2777 552.3346 552.375 552.3526 552.2584 552.084 551.9415 551.9604 552.3552 553.45 554.3481 555.3134 556.1116 556.5925 556.8351 556.851 556.8492 556.8539 556.9147 557.2322 557.9899 558.3027 558.6462 558.7771 558.769 558.7533 558.7593 558.6857 558.4321 558.251 558.2025 558.1817 558.1502 558.1735 558.478 559.3463 560.5974 562.2968 564.2184 566.4195 568.518 570.1571 571.0825 571.2932 571.0436 570.9973 571.4086 572.0325 573.0164 574.5686 576.8248 579.8188 583.4317 587.1085 589.5272 592.6558 593.9217 594.1518 -9999 -9999 -9999 -9999 -9999 -9999 -9999 -9999 -9999 -9999 -9999 -9999 -9999 -9999 -9999 -9999 -9999 -9999 -9999 -9999 -9999 -9999 -9999 -9999 -9999 -9999 -9999 -9999 -9999 -9999 -9999 -9999 -9999
-9999 -9999 -9999 -9999 -9999 -9999 -9999 -9999 -9999 -9999 -9999 -9999 -9999 -9999 -9999 -9999 589.998 589.5173 588.6591 587.0742 583.7539 579.1464 574.6492 570.325 566.4224 563.311 561.3879 560.4544 560.1063 559.9778 559.9271 559.8794 559.7053 559.5056 559.3075 559.1238 558.9641 558.8372 558.7448 558.6755 558.6088 558.5168 558.3589 558.0652 557.7279 557.4325 557.2899 557.4495 558.0522 558.3643 558.6053 558.8568 559.1606 559.4703 559.6191 559.8179 559.8827 559.9449 560.1604 560.5626 561.0429 561.701 562.5162 563.7392 565.2544 566.6942 567.4346 567.3625 566.7404 565.1627 562.7433 560.036 557.6265 555.9741 555.1876 555.0681 555.2999 555.4298 555.3023 554.6034 553.4055 552.0535 550.9913 550.5002 550.403 550.5197 550.7355 550.9454 551.1465 551.3434 551.5319 551.7125 551.8826 552.0638 552.2504 552.261 552.2602 552.2622 552.332 552.2618 552.2576 552.1604 552.1294 552.1823 552.26 552.2749 552.2097 552.0915 551.9683 551.8782 551.8402 551.8519 551.8923 551.9401 551.9886 552.0424 552.1071 552.1865 552.2747 552.3514 552.3846 552.3566 552.2591 552.1112 552.0186 552.2491 552.9606 553.9981 555.2784 556.3109 556.855 557.1817 557.3356 557.4543 557.5945 557.816 558.2277 558.5654 558.6779 558.7679 558.781 558.6348 558.3245 558.2311 558.102 557.6064 557.1172 556.9846 556.9564 556.9265 556.9069 557.0559 557.6818 558.5641 560.0018 561.8486 564.0293 566.4373 568.6192 570.1869 570.7739 570.5016 570.3597 570.8532 571.2927 572.0428 573.3059 575.246 577.9146 581.2271 585.3491 589.072 592.5579 594.9415 595.9142 -9999 -9999 -9999 -9999 -9999 -9999 -9999 -9999 -9999 -9999 -9999 -9999 -9999 -9999 -9999 -9999 -9999 -9999 -9999 -9999 -9999 -9999 -9999 -9999 -9999 -9999 -9999 -9999 -9999 -9999 -9999 -9999 -9999
-9999 -9999 -9999 -9999 -9999 -9999 -9999 -9999 -9999 -9999 -9999 -9999 -9999 -9999 -9999 -9999 589.9816 589.1904 588.1584 587.0956 584.186 579.775 575.1801 570.7382 566.8019 563.7095 561.7382 560.8813 560.6107 560.3707 560.1226 559.8773 559.6481 559.4283 559.2202 559.0287 558.8691 558.7534 558.6827 558.6418 558.6019 558.5248 558.3581 558.0153 557.5999 557.199 556.9383 557.035 558.068 558.4027 558.5862 558.79 559.0352 559.2095 559.1888 558.9919 558.6155 558.2883 558.1262 558.1694 558.3628 558.7661 559.3574 560.3623 561.7087 563.0858 563.9406 564.0026 563.2928 561.7501 559.6019 557.456 555.8546 555.1849 555.1172 555.4368 555.6708 555.5152 555.1138 553.9777 552.5275 551.1545 550.5383 550.3929 550.5153 550.7358 550.9412 551.1354 551.3232 551.5135 551.7092 551.9023 552.0836 552.262 552.4353 552.4837 552.4744 552.4481 552.442 552.3916 552.3506 552.2603 552.2147 552.2231 552.2546 552.26 552.2137 552.1243 552.0165 551.9196 551.8575 551.8386 551.8499 551.8721 551.8995 551.9383 551.9977 552.0829 552.1894 552.2964 552.3741 552.4005 552.363 552.2564 552.0273 552.0358 552.4953 553.7768 555.2033 556.4228 557.0269 557.4175 557.6995 557.9402 558.1726 558.3655 558.5489 558.6054 558.4269 558.2854 558.2234 557.9919 557.2595 557.025 556.9399 556.7137 556.4215 556.2939 556.2657 556.2648 556.2839 556.4023 556.7465 557.1619 558.2458 559.8221 561.8167 564.1956 566.6669 568.789 570.0207 569.7501 569.7894 570.2371 570.6302 571.2053 572.1964 573.8522 576.2961 579.4875 583.4144 587.7311 591.7921 594.8652 596.7979 597.7652 -9999 -9999 -9999 -9999 -9999 -9999 -9999 -9999 -9999 -9999 -9999 -9999 -9999 -9999 -9999 -9999 -9999 -9999 -9999 -9999 -9999 -9999 -9999 -9999 -9999 -9999 -9999 -9999 -9999 -9999 -9999 -9999
-9999 -9999 -9999 -9999 -9999 -9999 -9999 -9999 -9999 -9999 -9999 -9999 -9999 -9999 -9999 -9999 -9999 588.3495 587.3924 587.1304 584.6675 580.4598 575.8721 571.3651 567.4008 564.3171 562.3899 561.4915 561.2878 560.8782 560.4072 559.9164 559.6589 559.4165 559.1866 558.9779 558.8053 558.6857 558.6217 558.5955 558.5736 558.5131 558.3581 558.0177 557.5869 557.1445 556.8401 556.9729 557.6675 558.2014 558.3904 558.5714 558.753 558.832 558.6389 558.0889 557.3205 556.7177 556.306 556.1721 556.1812 556.3259 556.6537 557.3246 558.264 559.304 559.9858 560.08 559.5556 558.4167 557.0066 555.8549 555.1125 555.1516 555.6543 556.4562 556.2469 555.4459 554.614 553.4661 552.0455 550.845 550.4734 550.5181 550.7347 550.9417 551.1373 551.3236 551.5046 551.6875 551.879 552.0736 552.2611 552.4513 552.6104 552.6804 552.6777 552.6348 552.5809 552.5088 552.4319 552.3361 552.2601 552.2387 552.2496 552.26 552.2346 552.1706 552.0784 551.98 551.9015 551.8596 551.8476 551.8466 551.8499 551.8674 551.9105 551.9893 552.1015 552.2273 552.3348 552.3941 552.3787 552.2591 552.0039 551.942 552.3674 553.6429 554.8127 555.741 556.7024 557.2924 557.7268 558.0657 558.3561 558.4745 558.3142 558.1335 557.6206 557.1433 557.0086 556.8823 556.5111 556.3141 556.2346 556.1318 556.0106 555.9659 555.9944 556.061 556.1382 556.2154 556.2961 556.4451 557.0231 558.2086 559.8989 562.0807 564.5901 567.0472 568.8108 568.8533 569.5985 570.0585 570.3066 570.698 571.4682 572.7604 574.9429 577.8799 581.4785 585.6077 589.8619 593.6351 596.4613 598.0306 598.5702 -9999 -9999 -9999 -9999 -9999 -9999 -9999 -9999 -9999 -9999 -9999 -9999 -9999 -9999 -9999 -9999 -9999 -9999 -9999 -9999 -9999 -9999 -9999 -9999 -9999 -9999 -9999 -9999 -9999 -9999 -9999
-9999 -9999 -9999 -9999 -9999 -9999 -9999 -9999 -9999 -9999 -9999 -9999 -9999 -9999 -9999 -9999 -9999 587.7218 587.8188 587.6127 585.372 581.2827 576.7483 572.2884 568.3748 565.2966 563.2792 562.2371 561.7889 561.3829 560.869 560.3085 559.8583 559.4999 559.2153 558.9728 558.7761 558.6398 558.5678 558.5427 558.5289 558.4839 558.359 558.0798 557.7031 557.2576 556.8404 556.9181 557.5099 558.1097 558.1278 558.3177 558.5024 558.3357 557.876 556.834 555.842 555.3633 555.1155 555.0065 554.9619 554.981 555.0946 555.3617 555.7858 556.3827 556.7833 556.8597 556.5799 555.9807 555.4556 555.0953 555.1256 555.6118 556.5355 556.9139 556.5044 555.3254 554.0723 552.7927 551.5037 550.7465 550.6037 550.7363 550.9281 551.1321 551.3285 551.5154 551.696 551.874 552.0623 552.2606 552.4612 552.6482 552.7974 552.8756 552.8793 552.8263 552.7422 552.641 552.5333 552.4208 552.3221 552.2601 552.2482 552.2591 552.26 552.2217 552.1458 552.0515 551.9641 551.9065 551.8788 551.8615 551.8444 551.838 551.8606 551.9232 552.0292 552.1609 552.2856 552.3665 552.3695 552.2586 552.0012 551.9313 552.3625 553.6108 554.5696 555.3273 556.1041 556.8108 557.3405 557.6622 557.8953 557.9692 557.3024 556.9833 556.6708 556.3807 556.2609 556.1708 555.9994 555.888 555.8488 555.833 555.8345 555.8893 556.0051 556.1652 556.3297 556.4188 556.3164 556.2189 556.3909 557.0296 558.325 560.2648 562.7061 565.3542 567.7788 569.3964 570.1522 570.329 570.2896 570.5116 571.1732 572.2279 573.9213 576.465 579.6671 582.9948 586.9503 591.0205 594.568 597.0468 598.2078 598.4152 -9999 -9999 -9999 -9999 -9999 -9999 -9999 -9999 -9999 -9999 -9999 -9999 -9999 -9999 -9999 -9999 -9999 -9999 -9999 -9999 -9999 -9999 -9999 -9999 -9999 -9999 -9999 -9999 -9999 -9999
-9999 -9999 -9999 -9999 -9999 -9999 -9999 -9999 -9999 -9999 -9999 -9999 -9999 -9999 -9999 -9999 -9999 588.3644 588.9114 588.7277 586.3116 582.1957 577.7242 573.4323 569.6689 566.6398 564.4824 563.1337 562.3855 561.8757 561.3762 560.7394 559.992 559.6088 559.279 558.9972 558.7712 558.6129 558.525 558.4905 558.4761 558.4435 558.3599 558.1936 557.9557 557.587 556.9307 556.7544 557.0768 558.0435 557.8353 558.1887 558.1453 557.5178 556.6713 555.6273 554.9792 554.7354 554.7195 554.7573 554.7562 554.7335 554.7046 554.6855 554.7417 554.9474 555.1423 555.2112 555.1471 554.9926 554.9775 555.1049 555.6116 556.5093 556.9495 556.8074 555.8416 554.8442 553.6669 552.2553 550.9813 550.6375 550.7371 550.8787 551.0778 551.297 551.509 551.7074 551.8939 552.069 552.2607 552.4727 552.6775 552.8564 552.9948 553.073 553.0806 553.0229 552.9208 552.7949 552.6606 552.5264 552.4047 552.3113 552.26 552.2573 552.2661 552.26 552.2039 552.1221 552.0348 551.9681 551.9305 551.9049 551.8752 551.8493 551.8494 551.8928 551.9841 552.1106 552.241 552.3356 552.3548 552.2587 552.0097 551.9449 552.3764 553.6146 554.4136 554.9648 555.4373 556.0747 556.5865 556.7406 556.7909 556.7292 556.3147 556.0614 555.8974 555.8184 555.7925 555.7659 555.7043 555.6658 555.6746 555.7223 555.8092 555.9489 556.147 556.3953 556.6575 556.8241 556.5992 556.3226 556.1943 556.3917 557.1127 558.6064 560.825 563.4699 566.164 568.5078 570.1057 570.3766 570.1694 570.3654 571.0815 572.0072 573.0486 575.1089 578.0187 580.5328 583.6454 587.5565 591.5331 594.8101 596.7755 597.5072 597.1289 -9999 -9999 -9999 -9999 -9999 -9999 -9999 -9999 -9999 -9999 -9999 -9999 -9999 -9999 -9999 -9999 -9999 -9999 -9999 -9999 -9999 -9999 -9999 -9999 -9999 -9999 -9999 -9999 -9999
-9999 -9999 -9999 -9999 -9999 -9999 -9999 -9999 -9999 -9999 -9999 -9999 -9999 -9999 -9999 -9999 -9999 589.2458 589.8721 589.3948 587.1401 583.0598 578.5651 574.5118 570.8429 567.8642 565.6529 564.1484 563.0548 562.3677 561.8253 561.2681 560.4357 559.8555 559.383 559.0319 558.7728 558.5947 558.4915 558.4448 558.4248 558.4009 558.36 558.3112 558.2832 558.2374 557.5506 556.8544 556.84 557.2998 558.0714 557.9751 557.1143 556.3241 555.5082 554.9139 554.6732 554.8009 555.1592 555.4781 555.5966 555.5834 555.45 555.1481 554.8418 554.7303 554.76 554.7919 554.8722 554.9918 555.3514 555.6992 556.5291 557.0064 557.0363 556.541 555.4335 554.392 553.2503 551.8563 550.7999 550.6321 550.741 550.9447 551.1819 551.4302 551.6683 551.8876 552.0892 552.261 552.4688 552.6931 552.9023 553.074 553.2001 553.2701 553.2775 553.218 553.1061 552.9635 552.8082 552.6523 552.5067 552.3842 552.2983 552.26 552.2563 552.26 552.2377 552.1794 552.1025 552.0341 551.9907 551.9615 551.9279 551.8903 551.8712 551.8945 551.9686 552.0829 552.2094 552.3092 552.3403 552.2589 552.0215 551.9606 552.388 553.6257 554.3262 554.7426 555.054 555.3179 555.4387 555.4565 555.4549 555.4325 555.3411 555.3118 555.325 555.4573 555.533 555.5615 555.562 555.5732 555.6224 555.7149 555.854 556.0452 556.2872 556.566 556.8375 556.9583 556.837 556.569 556.2988 556.1959 556.4819 557.3851 559.1735 561.5259 564.2316 566.9578 569.1366 569.9314 569.6633 569.9755 570.7139 571.6013 572.459 573.5406 575.6579 577.8847 580.5758 583.9109 587.8441 591.5463 594.236 595.4387 595.6141 595.2875 595.1923 -9999 -9999 -9999 -9999 -9999 -9999 -9999 -9999 -9999 -9999 -9999 -9999 -9999 -9999 -9999 -9999 -9999 -9999 -9999 -9999 -9999 -9999 -9999 -9999 -9999 -9999 -9999
-9999 -9999 -9999 -9999 -9999 -9999 -9999 -9999 -9999 -9999 -9999 -9999 -9999 -9999 -9999 -9999 -9999 589.9997 590.4143 589.8712 587.7605 583.7103 578.9381 574.9714 571.5054 568.6315 566.3973 564.868 563.6967 562.7651 562.0609 561.3988 560.5929 559.8976 559.3989 559.0284 558.7577 558.5723 558.4624 558.4091 558.3837 558.36 558.3386 558.3298 558.3624 558.4701 558.1062 557.0594 556.7654 556.7814 556.942 556.639 555.7905 555.2974 554.8866 554.7233 554.926 555.5192 556.4017 557.2288 557.5484 557.5533 557.2782 556.584 555.8765 555.4714 555.3417 555.2761 555.4075 555.6702 556.4054 556.7625 557.1475 557.2006 556.8023 555.7917 554.8986 553.8361 552.474 551.1154 550.6479 550.7379 550.8386 551.0315 551.2767 551.5411 551.7977 552.0334 552.2552 552.4355 552.6625 552.9063 553.1248 553.2919 553.4083 553.4636 553.4648 553.4014 553.2849 553.1337 552.9656 552.7927 552.6253 552.4734 552.3477 552.2601 552.2449 552.2558 552.26 552.2223 552.1608 552.0968 552.0507 552.0192 551.9856 551.9452 551.9144 551.9199 551.9763 552.0759 552.1929 552.2905 552.3274 552.2591 552.0364 551.9799 552.3993 553.6369 554.229 554.5446 554.779 554.8451 554.8286 554.783 554.7573 554.7659 554.8014 554.9005 555.0662 555.3051 555.415 555.4689 555.5005 555.5413 555.6183 555.7408 555.9088 556.1213 556.3687 556.625 556.8414 556.9736 556.9636 556.8344 556.5687 556.3018 556.3014 556.7979 557.9421 559.777 562.246 565.0464 567.6661 569.3005 568.9783 569.6274 570.3911 571.3298 572.1547 572.5049 573.7973 575.5865 577.8816 580.709 583.9673 587.4841 590.4962 592.2361 593.0174 593.3608 593.6786 594.1957 595.1971 -9999 -9999 -9999 -9999 -9999 -9999 -9999 -9999 -9999 -9999 -9999 -9999 -9999 -9999 -9999 -9999 -9999 -9999 -9999 -9999 -9999 -9999 -9999 -9999 -9999
-9999 -9999 -9999 -9999 -9999 -9999 -9999 -9999 -9999 -9999 -9999 -9999 -9999 -9999 -9999 -9999 -9999 590.6305 590.8542 590.2338 588.1302 584.0841 579.2278 575.2952 571.9791 569.2579 567.0325 565.4604 564.2028 562.9944 562.1487 561.4085 560.611 559.8965 559.381 558.9968 558.7217 558.5387 558.4329 558.3828 558.36 558.339 558.3327 558.3605 558.4843 558.5791 558.3253 557.4728 556.8292 556.3124 555.9396 555.4515 555.0068 554.8163 554.8203 555.0826 555.7565 556.8881 558.1486 559.1606 559.5542 559.5787 559.3111 558.6236 557.7635 556.9894 556.585 556.2769 556.5601 556.7355 557.0252 557.2545 557.3657 557.1282 556.5118 555.443 554.5931 553.6028 552.1645 550.8707 550.6224 550.7396 550.8931 551.1047 551.3613 551.6364 551.8979 552.1148 552.2668 552.5403 552.8306 553.1094 553.3402 553.4969 553.6099 553.6437 553.6385 553.5645 553.4448 553.2938 553.1227 552.9417 552.76 552.587 552.4344 552.3182 552.26 552.2537 552.26 552.2468 552.2064 552.1522 552.1063 552.0722 552.0382 551.9988 551.9648 551.9591 551.9999 552.0841 552.1884 552.2787 552.3157 552.2593 552.06 552.0104 552.4161 553.6452 554.0414 554.2419 554.4293 554.51 554.5058 554.4681 554.4473 554.472 554.5524 554.6974 554.9031 555.1411 555.3093 555.3961 555.4531 555.5154 555.6129 555.757 555.9422 556.1609 556.4008 556.639 556.8391 556.9364 556.9866 556.9576 556.8281 556.5092 556.3312 556.4778 557.0831 558.4082 560.3453 562.8553 565.5878 567.9496 569.3481 569.7516 570.1302 570.9138 571.4697 571.754 572.4432 573.7955 575.6998 578.0586 580.6774 583.2972 586.0609 587.9118 589.1907 590.2401 591.223 592.2313 593.5726 595.0211 596.3447 -9999 -9999 -9999 -9999 -9999 -9999 -9999 -9999 -9999 -9999 -9999 -9999 -9999 -9999 -9999 -9999 -9999 -9999 -9999 -9999 -9999 -9999 -9999
-9999 -9999 -9999 -9999 -9999 -9999 -9999 -9999 -9999 -9999 -9999 -9999 -9999 -9999 -9999 -9999 -9999 591.3257 591.3146 590.5771 588.3934 584.3472 579.546 575.5829 572.2735 569.6168 567.4636 565.8268 564.3881 563.0518 562.1602 561.3966 560.577 559.8898 559.3445 558.9388 558.6621 558.4901 558.3985 558.36 558.3426 558.339 558.36 558.4311 558.5281 558.5538 558.3358 557.6223 556.8137 555.9008 555.2997 554.8972 554.7673 554.9503 555.3958 556.0526 557.2099 558.4268 559.5721 560.2915 560.5842 560.5758 560.3749 559.9406 559.3268 558.2686 557.5547 557.1564 557.1541 557.2188 557.2372 557.2621 557.1221 556.5931 555.7033 555.004 554.2905 553.3531 551.9023 550.8165 550.7394 550.7988 550.9495 551.1701 551.4391 551.7285 552.0074 552.2539 552.4355 552.7136 553.0262 553.3247 553.5562 553.671 553.7885 553.7905 553.7893 553.6983 553.5786 553.4359 553.2723 553.0931 552.906 552.72 552.547 552.4027 552.3046 552.26 552.2535 552.26 552.2408 552.1998 552.157 552.1207 552.084 552.0444 552.0108 552.0012 552.0322 552.1033 552.1942 552.2737 552.3062 552.2596 552.0984 552.0535 552.4302 553.6241 553.7207 553.8914 554.1628 554.3295 554.3864 554.3839 554.377 554.4045 554.4861 554.6259 554.8132 555.0197 555.1917 555.3099 555.389 555.4669 555.5829 555.7435 555.9407 556.1604 556.3876 556.5994 556.7618 556.8408 556.9307 556.9392 556.8411 556.6624 556.4807 556.4706 556.795 557.4929 558.7747 560.7572 563.2079 565.698 567.7466 568.9863 569.7608 570.2021 570.6425 571.0178 571.5254 572.4618 574.0172 576.0123 578.162 580.0348 581.8152 583.2414 584.6733 586.2558 587.8917 589.5089 591.2677 593.2209 594.8566 595.824 597.4615 -9999 -9999 -9999 -9999 -9999 -9999 -9999 -9999 -9999 -9999 -9999 -9999 -9999 -9999 -9999 -9999 -9999 -9999 -9999 -9999 -9999
-9999 -9999 -9999 -9999 -9999 -9999 -9999 -9999 -9999 -9999 -9999 -9999 -9999 -9999 -9999 -9999 -9999 591.8138 591.7195 590.9519 588.6496 584.5364 579.7253 575.8291 572.4602 569.77 567.6125 565.9286 564.4209 563.0574 562.1564 561.3649 560.4444 559.8217 559.2443 558.8321 558.5721 558.4261 558.36 558.3395 558.3405 558.36 558.4089 558.462 558.473 558.3643 558.1 557.5032 556.6821 555.5098 554.9357 554.7828 555.0499 555.7215 556.7295 557.7084 558.7206 559.6694 560.3245 560.7084 560.7955 560.6516 560.497 560.1956 559.5915 558.5276 557.9227 557.5696 557.4279 557.3708 557.2549 556.9955 556.5319 555.695 555.1519 554.6293 553.9047 552.7508 551.2428 550.7245 550.7398 550.825 550.9896 551.2225 551.5055 551.8095 552.0864 552.2707 552.5757 552.9094 553.2464 553.5565 553.7839 553.7939 553.8859 553.9021 553.8762 553.7902 553.6871 553.5618 553.4132 553.2438 553.0592 552.8671 552.6779 552.5049 552.3615 552.2602 552.2403 552.2515 552.26 552.2354 552.2017 552.1664 552.1271 552.0847 552.0505 552.04 552.0667 552.13 552.2106 552.2802 552.3058 552.2602 552.1589 552.0854 552.3707 553.3898 553.2969 553.7389 554.1125 554.3335 554.4287 554.4507 554.4503 554.4686 554.5298 554.6393 554.7867 554.95 555.0994 555.2181 555.3098 555.3917 555.5278 555.7041 555.9088 556.1287 556.3485 556.5511 556.7184 556.8396 556.9001 556.9267 556.9054 556.838 556.6702 556.5439 556.5747 556.8574 557.6104 558.939 560.8708 563.0834 565.1404 566.6761 567.7392 568.4456 569.1716 569.9009 570.547 571.4269 572.6552 574.3605 576.1926 577.3248 578.2571 579.0372 580.274 582.0375 584.0914 586.2126 588.252 590.8191 593.0869 594.9188 596.6508 597.8079 -9999 -9999 -9999 -9999 -9999 -9999 -9999 -9999 -9999 -9999 -9999 -9999 -9999 -9999 -9999 -9999 -9999 -9999 -9999 -9999
-9999 -9999 -9999 -9999 -9999 -9999 -9999 -9999 -9999 -9999 -9999 -9999 -9999 -9999 -9999 -9999 -9999 592.008 591.9896 591.3448 588.9771 584.8652 580.1224 576.1874 572.6293 569.8329 567.6302 565.9054 564.3795 563.043 562.1378 561.2832 560.1177 559.4938 559.007 558.6603 558.458 558.36 558.3328 558.3378 558.36 558.4026 558.4432 558.4456 558.3593 558.129 557.7484 557.1561 556.3862 555.3345 554.9122 555.1002 555.8581 557.1447 558.351 559.3211 559.8494 560.2295 560.4152 560.4968 560.3551 559.9487 559.7956 559.5553 558.779 558.2291 557.8482 557.5834 557.4412 557.285 557.0315 556.5093 555.6582 555.1603 554.8177 554.3865 553.645 552.2791 550.9335 550.7385 550.7367 550.834 551.0132 551.2592 551.5586 551.8967 552.2491 552.4862 552.8102 553.1573 553.4946 553.7908 553.9861 554.0262 554.0494 554.0275 553.9707 553.8844 553.7899 553.6803 553.5485 553.3931 553.2167 553.0248 552.8265 552.6339 552.4623 552.3296 552.2601 552.2477 552.26 552.254 552.2355 552.2081 552.1697 552.1254 552.0894 552.0776 552.102 552.161 552.2369 552.3046 552.3397 552.326 552.258 552.069 552.1305 552.6393 553.5659 554.0087 554.3127 554.4976 554.5824 554.6034 554.5981 554.5997 554.6318 554.7031 554.8069 554.9269 555.0449 555.1476 555.2316 555.3107 555.4684 555.6559 555.8616 556.0774 556.2911 556.4874 556.6517 556.7725 556.8401 556.8878 556.9247 556.9189 556.8385 556.6794 556.5486 556.5531 556.8668 557.6515 558.9175 560.5887 562.2859 563.6826 564.7514 565.5863 566.6049 567.8009 569.0152 570.2191 571.4354 572.734 574.0901 574.9769 575.575 576.0504 576.7983 578.3651 580.4295 582.7576 585.2226 587.9418 590.569 592.9932 595.1614 596.6771 597.5823 -9999 -9999 -9999 -9999 -9999 -9999 -9999 -9999 -9999 -9999 -9999 -9999 -9999 -9999 -9999 -9999 -9999 -9999 -9999
-9999 -9999 -9999 -9999 -9999 -9999 -9999 -9999 -9999 -9999 -9999 -9999 -9999 -9999 -9999 -9999 -9999 592.0297 592.0077 591.342 589.1616 585.169 580.4283 576.3093 572.6749 569.8115 567.5425 565.7193 564.1524 562.9243 562.0629 561.2332 560.0162 559.282 558.7939 558.4907 558.36 558.3244 558.334 558.36 558.3986 558.4323 558.4335 558.3594 558.1451 557.7706 557.225 556.4802 555.5637 555.0791 555.1424 555.8421 557.1869 558.5547 559.6091 560.0913 560.1954 560.1418 559.8754 559.7637 559.5054 558.7817 558.5322 558.3852 558.0234 557.7286 557.5065 557.2911 557.2218 557.0291 556.4943 555.6435 555.1438 554.8573 554.6023 554.1671 553.3742 551.9359 550.8293 550.7394 550.7366 550.8387 551.0269 551.2796 551.5777 551.9067 552.2611 552.6472 553.0695 553.4503 553.7958 554.0918 554.2628 554.2943 554.2554 554.1764 554.0787 553.9763 553.8817 553.7898 553.6771 553.5388 553.3751 553.1895 552.9888 552.7848 552.5931 552.4322 552.3197 552.26 552.2553 552.26 552.2561 552.2408 552.2101 552.1683 552.1322 552.1188 552.1396 552.1941 552.2654 552.3293 552.3638 552.3499 552.2596 552.0229 551.9921 552.4226 553.6194 554.2118 554.5325 554.6998 554.7692 554.7808 554.7668 554.7526 554.7577 554.7931 554.8572 554.9402 555.0305 555.1205 555.2094 555.3098 555.4458 555.6179 555.8123 556.0182 556.2239 556.4152 556.5778 556.7021 556.7844 556.8402 556.9109 556.9487 556.9271 556.8384 556.6655 556.525 556.5487 556.8707 557.5823 558.5619 559.7718 560.7355 561.5239 562.3183 563.4599 564.9717 566.6667 568.4312 570.0228 571.3196 572.3697 573.1548 573.7349 574.2032 574.8844 576.1006 577.7199 579.5741 581.8566 584.4778 587.2111 590.0551 592.6947 594.7448 595.9593 596.6841 -9999 -9999 -9999 -9999 -9999 -9999 -9999 -9999 -9999 -9999 -9999 -9999 -9999 -9999 -9999 -9999 -9999 -9999
-9999 -9999 -9999 -9999 -9999 -9999 -9999 -9999 -9999 -9999 -9999 -9999 -9999 -9999 -9999 -9999 -9999 592.012 591.9942 591.2308 588.9511 585.3055 580.697 576.4373 572.6813 569.7151 567.3138 565.2455 563.5147 562.5096 561.7761 560.9958 559.8887 559.1143 558.6262 558.3622 558.308 558.3263 558.36 558.3929 558.4218 558.4227 558.3598 558.185 557.8502 557.3201 556.5908 555.6086 555.1494 555.1935 555.8265 557.1314 558.524 559.6463 560.1751 560.2091 559.9086 559.5417 558.7787 558.5045 558.2822 557.7635 557.5511 557.4526 557.3167 557.1984 557.0672 556.8633 556.8405 556.6225 555.6685 555.1677 554.8975 554.7098 554.4382 553.857 552.7649 551.2586 550.7349 550.6628 550.7099 550.84 551.0432 551.3051 551.6032 551.9176 552.2639 552.8 553.37 553.8014 554.1921 554.4832 554.6199 554.6067 554.494 554.3494 554.2019 554.0696 553.9623 553.8755 553.7897 553.6743 553.5287 553.3547 553.1578 552.9486 552.7422 552.556 552.4066 552.3052 552.26 552.2515 552.26 552.2588 552.2413 552.2095 552.1779 552.1641 552.1802 552.2272 552.2904 552.3445 552.3656 552.3388 552.2556 551.9899 551.9381 552.3897 553.6328 554.3231 554.6873 554.8632 554.9296 554.9366 554.9176 554.8943 554.8818 554.8901 554.9227 554.976 555.0438 555.1219 555.2092 555.3099 555.4305 555.5832 555.7622 555.9561 556.1533 556.3403 556.5045 556.6398 556.7483 556.8398 556.8969 556.9437 556.9622 556.9313 556.838 556.6608 556.534 556.5634 556.814 557.1734 557.9392 558.4 558.8139 559.4363 560.4539 561.9716 563.9022 566.0768 568.1184 569.7621 570.8879 571.66 572.4517 573.0367 573.7234 574.703 575.9437 577.3846 579.1129 581.1086 583.6124 586.5435 589.5553 592.0881 593.8987 595.201 596.3871 -9999 -9999 -9999 -9999 -9999 -9999 -9999 -9999 -9999 -9999 -9999 -9999 -9999 -9999 -9999 -9999 -9999
-9999 -9999 -9999 -9999 -9999 -9999 -9999 -9999 -9999 -9999 -9999 -9999 -9999 -9999 -9999 -9999 -9999 591.8027 591.8389 591.1172 588.376 585.3472 580.9189 576.5612 572.6483 569.5443 567.0207 564.8325 563.109 562.0972 561.316 560.2671 559.5038 558.8884 558.4957 558.3595 558.3269 558.3599 558.3868 558.4093 558.4106 558.3599 558.2197 557.9536 557.5177 556.8506 555.9499 555.2992 555.2435 555.8508 557.1251 558.4718 559.5981 560.1505 560.2117 559.8543 559.198 558.472 557.7861 557.504 557.2991 556.9144 556.8418 556.8452 556.8416 556.842 556.8389 556.7037 556.5292 556.1277 555.3767 555.094 554.8785 554.6837 554.3668 553.6786 552.3183 550.9448 550.7368 550.6652 550.7156 550.8587 551.077 551.3573 551.6786 552.0068 552.3121 552.9767 553.7064 554.2031 554.6445 554.949 555.0496 554.9755 554.7696 554.5586 554.3555 554.1802 554.0457 553.949 553.8727 553.7897 553.6693 553.5135 553.3265 553.118 552.9019 552.6942 552.5104 552.362 552.2602 552.2385 552.2467 552.26 552.2581 552.2418 552.2197 552.2087 552.22 552.2572 552.3087 552.3481 552.3417 552.2608 552.1171 551.9027 551.9001 552.3857 553.6364 554.3728 554.7695 554.9619 555.0371 555.0492 555.0322 555.0072 554.9872 554.98 554.9912 555.0221 555.0712 555.137 555.2175 555.31 555.4154 555.5482 555.7097 555.8916 556.0809 556.2634 556.4276 556.5682 556.6852 556.7781 556.8401 556.9023 556.9491 556.9636 556.9316 556.8381 556.672 556.5439 556.5214 556.5953 556.8279 556.929 557.1185 557.6298 558.3203 559.4478 561.1846 563.3948 565.672 567.7027 569.2255 570.0181 571.3922 572.161 572.9058 573.7806 574.7817 575.8855 577.1631 578.7054 580.71 583.2123 586.2225 589.2087 591.6489 593.5499 595.1328 -9999 -9999 -9999 -9999 -9999 -9999 -9999 -9999 -9999 -9999 -9999 -9999 -9999 -9999 -9999 -9999 -9999
-9999 -9999 -9999 -9999 -9999 -9999 -9999 -9999 -9999 -9999 -9999 -9999 -9999 -9999 -9999 -9999 -9999 591.3804 591.4867 591.2138 589.0252 585.7558 581.2112 576.6917 572.58 569.2963 566.6223 564.3246 562.7533 561.7339 560.9721 560.0247 559.3127 558.7219 558.3647 558.3035 558.328 558.36 558.3889 558.3929 558.3599 558.2418 558.0209 557.6748 557.18 556.4838 555.4517 555.2069 555.7457 557.0993 558.4808 559.5872 560.1302 560.1806 559.842 559.1506 558.3251 557.5285 556.9378 556.8419 556.8264 556.6379 556.5972 556.6302 556.6921 556.7404 556.7829 556.686 556.4294 556.02 555.547 555.2968 554.963 554.6761 554.3098 553.5748 552.1017 550.8595 550.7374 550.6715 550.7295 550.8861 551.1202 551.4253 551.7999 552.2341 552.5846 553.1549 553.8001 554.4899 555.0933 555.4723 555.5491 555.4304 555.1079 554.8474 554.5792 554.3416 554.1592 554.0331 553.947 553.8755 553.7897 553.6599 553.4897 553.288 553.0681 552.8461 552.6379 552.4591 552.3267 552.26 552.2429 552.25 552.26 552.26 552.2495 552.2434 552.2511 552.2775 552.3167 552.3466 552.3328 552.2574 552.0347 551.8386 551.8765 552.3829 553.6334 554.3828 554.7952 555.0018 555.0911 555.1173 555.1111 555.0907 555.0698 555.0546 555.0534 555.0689 555.1028 555.1565 555.228 555.3101 555.396 555.5098 555.6548 555.8245 556.0063 556.184 556.3459 556.4879 556.6082 556.7042 556.7755 556.8401 556.9039 556.949 556.9606 556.9286 556.8386 556.6841 556.5483 556.4852 556.4553 556.4137 556.4767 556.743 557.0021 557.7405 558.9287 560.8055 563.0393 565.3023 567.3319 568.8907 570.3275 571.3203 572.1282 572.9933 573.9044 574.8127 575.7672 576.9036 578.4247 580.4818 583.1616 586.4063 589.3481 591.76 593.8901 -9999 -9999 -9999 -9999 -9999 -9999 -9999 -9999 -9999 -9999 -9999 -9999 -9999 -9999 -9999 -9999 -9999
-9999 -9999 -9999 -9999 -9999 -9999 -9999 -9999 -9999 -9999 -9999 -9999 -9999 -9999 -9999 -9999 -9999 590.6403 590.4525 590.2602 588.4639 585.6417 581.2862 576.8065 572.6274 569.2328 566.4483 564.0962 562.512 561.3264 560.256 559.9354 559.2354 558.616 558.3583 558.3074 558.3599 558.3842 558.3911 558.3601 558.2758 558.0817 557.7602 557.3021 556.6998 555.8773 555.31 555.5407 556.7876 558.3594 559.5978 560.2056 560.2972 559.9188 559.1863 558.3067 557.4827 556.8858 556.6163 556.5932 556.6235 556.5864 556.6011 556.6536 556.7263 556.7817 556.8401 556.7739 556.4156 555.9899 555.6312 555.315 554.8718 554.4924 554.0912 553.2839 551.7046 550.7732 550.6152 550.6266 550.7321 550.9126 551.156 551.4595 551.8267 552.2624 552.7576 553.3565 553.9406 554.7974 555.5744 556.0546 556.1091 556.0233 555.5955 555.3207 554.9463 554.6049 554.3416 554.1583 554.0385 553.9572 553.8845 553.7896 553.6442 553.4556 553.2382 553.0083 552.7836 552.5818 552.4216 552.3159 552.26 552.246 552.2499 552.2562 552.26 552.26 552.2651 552.2788 552.3009 552.3138 552.2599 552.1327 551.9374 551.8024 551.89 552.3907 553.6295 554.3684 554.7839 555.0021 555.1089 555.1558 555.1683 555.1571 555.1394 555.1166 555.1063 555.1102 555.1312 555.1726 555.2346 555.3099 555.3644 555.463 555.5958 555.7549 555.9288 556.1012 556.2599 556.4011 556.5232 556.6229 556.7017 556.7722 556.8401 556.9031 556.9436 556.9501 556.9144 556.8384 556.7111 556.649 556.5535 556.3951 556.2887 556.2581 556.3438 556.7335 557.3171 558.6561 560.5842 562.7975 565.022 567.071 568.8435 570.1846 571.1362 572.0663 573.0284 573.8978 574.6774 575.502 576.5973 578.229 580.6186 583.913 587.1052 589.8477 592.3932 595.1525 -9999 -9999 -9999 -9999 -9999 -9999 -9999 -9999 -9999 -9999 -9999 -9999 -9999 -9999 -9999 -9999
-9999 -9999 -9999 -9999 -9999 -9999 -9999 -9999 -9999 -9999 -9999 -9999 -9999 -9999 -9999 -9999 -9999 590.0507 589.136 588.4447 587.2537 585.3136 581.3447 576.9923 572.8375 569.3969 566.51 564.1219 562.5266 561.2272 560.0113 559.5237 559.0005 558.3926 558.2526 558.2775 558.3599 558.3934 558.3943 558.3594 558.1942 557.9069 557.4749 556.8713 556.0757 555.3553 555.3976 556.3438 557.9629 559.4153 560.1953 560.4635 560.3232 559.775 558.5922 557.5249 556.8884 556.7072 556.6437 556.6418 556.6682 556.6824 556.7181 556.7684 556.8395 556.8411 556.925 556.7919 556.2742 555.8085 555.5666 555.257 554.5984 554.0825 553.6693 552.6729 551.1819 550.7325 550.601 550.6331 550.7616 550.9572 551.2025 551.4911 551.8322 552.2686 552.9139 553.6998 554.4127 555.1998 556.0361 556.5793 556.6895 556.6868 556.6261 556.1531 555.554 555.0322 554.636 554.3561 554.1722 554.0577 553.9794 553.9009 553.7895 553.6212 553.4113 553.1784 552.9418 552.7203 552.5342 552.3958 552.3062 552.26 552.2468 552.2468 552.251 552.2552 552.26 552.26 552.2601 552.2596 552.1594 552.0143 551.8702 551.8271 551.9983 552.4784 553.65 554.3494 554.7548 554.9822 555.11 555.1855 555.226 555.2239 555.2131 555.1754 555.1567 555.147 555.153 555.1785 555.2209 555.2696 555.3102 555.4103 555.5357 555.6843 555.8488 556.014 556.1685 556.3081 556.4305 556.5321 556.6154 556.6926 556.7689 556.8401 556.8976 556.9249 556.8992 556.8401 556.8388 556.8934 556.8911 556.6656 556.4058 556.1573 556.0919 556.2347 556.4952 557.1799 558.5435 560.4241 562.5493 564.7985 566.8734 568.5045 569.6874 570.7837 571.9604 572.9532 573.7125 574.3478 575.1037 576.3229 578.3767 581.6449 584.94 587.8468 590.6122 593.6036 -9999 -9999 -9999 -9999 -9999 -9999 -9999 -9999 -9999 -9999 -9999 -9999 -9999 -9999 -9999 -9999
-9999 -9999 -9999 -9999 -9999 -9999 -9999 -9999 -9999 -9999 -9999 -9999 -9999 -9999 -9999 -9999 -9999 -9999 589.5088 587.7264 586.5913 585.3336 581.6299 577.2899 573.1301 569.6924 566.7712 564.3519 562.7264 561.256 559.9532 559.2549 558.7618 558.3604 558.2424 558.2768 558.3599 558.3865 558.36 558.2934 558.0858 557.7289 557.2246 556.6097 555.7081 555.3099 555.7411 557.2905 558.8327 559.8438 560.2698 560.3785 560.1774 559.6479 558.3189 557.0456 556.7555 556.8391 556.8392 556.8007 556.7968 556.8092 556.8398 556.84 556.8988 556.9276 556.7654 556.2601 555.7894 555.361 555.2888 554.9384 554.2949 553.5834 553.241 552.0199 550.887 550.7362 550.6383 550.6785 550.8214 551.0312 551.2831 551.5623 551.8719 552.2684 552.9714 553.8375 554.7704 555.3991 556.1807 556.7875 556.8385 556.841 556.9539 556.8369 556.52 555.6865 555.082 554.6482 554.3619 554.1917 554.094 554.0205 553.9292 553.7895 553.5911 553.358 553.1117 552.8723 552.6614 552.4937 552.3733 552.2979 552.26 552.2456 552.2415 552.2425 552.2441 552.2358 552.2119 552.1619 552.051 551.9205 551.8381 551.905 552.234 552.8093 553.7341 554.3438 554.7299 554.9658 555.1169 555.2278 555.3096 555.3104 555.3094 555.2382 555.2175 555.1875 555.1736 555.1841 555.2147 555.2583 555.31 555.3827 555.4855 555.6175 555.7686 555.9237 556.0712 556.2072 556.3278 556.4276 556.5112 556.594 556.6813 556.7676 556.8401 556.8915 556.8756 556.8401 556.9355 557.1033 557.2202 557.1061 556.7155 556.3264 556.1593 556.2161 556.2864 556.4933 557.1367 558.4442 560.2336 562.362 564.5358 566.3787 567.8354 569.2142 570.6107 571.8689 572.7743 573.3811 573.9104 574.7642 576.4309 579.6154 582.9015 585.8347 588.6526 591.6178 -9999 -9999 -9999 -9999 -9999 -9999 -9999 -9999 -9999 -9999 -9999 -9999 -9999 -9999 -9999 -9999
-9999 -9999 -9999 -9999 -9999 -9999 -9999 -9999 -9999 -9999 -9999 -9999 -9999 -9999 -9999 -9999 -9999 -9999 591.272 589.5788 588.004 586.0132 582.0994 577.6596 573.5003 570.1479 567.2601 564.7454 562.8198 561.1852 559.8693 559.0779 558.6202 558.3597 558.2693 558.2939 558.36 558.3903 558.36 558.2445 557.9808 557.5355 556.8815 556.0686 555.3371 555.4612 556.5081 558.2548 559.4254 559.841 560.0464 560.1033 559.8996 559.4611 558.2683 557.0449 556.8354 556.8258 556.8157 556.8398 556.8399 556.84 556.8252 556.8151 556.8401 556.7874 556.1125 555.4763 555.2917 555.0468 554.9106 554.6165 554.1286 553.4993 552.4616 551.1835 550.7341 550.6409 550.631 550.7179 550.8923 551.1295 551.405 551.6997 551.9989 552.3055 553.0219 553.9521 555.115 555.4709 555.8956 556.2053 556.295 556.5098 556.8328 557.0466 557.0257 556.5865 555.7013 555.0271 554.5961 554.3578 554.2396 554.1707 554.0956 553.9745 553.7899 553.556 553.2994 553.0416 552.8058 552.6093 552.4591 552.355 552.2922 552.26 552.2422 552.2334 552.231 552.2155 552.1747 552.0939 551.9758 551.8617 551.8146 551.9181 552.2698 552.9716 553.7632 554.3389 554.7314 554.9849 555.1635 555.3113 555.433 555.46 555.4185 555.3123 555.3093 555.2408 555.1995 555.1945 555.2155 555.2557 555.3099 555.3541 555.4377 555.554 555.6907 555.8323 555.9696 556.0978 556.212 556.3059 556.3851 556.4687 556.5646 556.6661 556.7607 556.8389 556.8397 556.8578 556.9757 557.1847 557.4108 557.4136 557.1097 556.6628 556.3846 556.4481 556.4672 556.3725 556.4711 557.0845 558.3671 560.1329 562.1595 564.1349 565.8876 567.5132 569.0862 570.5655 571.8127 572.5988 573.0721 573.6975 575.0787 577.9866 581.109 583.9227 586.5721 589.35 -9999 -9999 -9999 -9999 -9999 -9999 -9999 -9999 -9999 -9999 -9999 -9999 -9999 -9999 -9999 -9999
-9999 -9999 -9999 -9999 -9999 -9999 -9999 -9999 -9999 -9999 -9999 -9999 -9999 -9999 -9999 -9999 -9999 -9999 593.2413 591.7402 589.7482 586.9772 582.7271 578.0964 573.9705 570.6815 567.8455 565.1874 562.8636 560.9266 559.642 558.8908 558.5147 558.3598 558.3002 558.3141 558.36 558.3939 558.3601 558.2048 557.8947 557.4111 556.735 555.7505 555.3099 555.8159 557.4172 559.0564 559.0587 559.4916 559.797 560.0218 559.9952 559.6948 558.546 557.5078 556.9064 556.8361 556.7301 556.7161 556.7186 556.7626 556.8376 556.8776 556.8458 556.4923 555.5555 555.1992 554.9629 554.7376 554.5334 554.2297 553.7601 553.0176 551.991 550.8876 550.7372 550.6356 550.6411 550.7582 550.9662 551.2367 551.5459 551.8816 552.2414 552.5168 553.0843 553.9031 554.968 555.0887 555.2358 555.2927 555.295 555.7371 556.256 556.8071 557.1302 557.0697 556.5172 555.4134 554.8187 554.5333 554.4175 554.3658 554.3127 554.2109 554.0329 553.7911 553.5192 553.2394 552.9755 552.7478 552.5668 552.4341 552.3455 552.2917 552.26 552.2362 552.2322 552.2094 552.1664 552.0776 551.9615 551.8678 551.8583 551.9941 552.3617 553.1737 553.8291 554.3992 554.812 555.0893 555.3149 555.5363 555.6798 555.7159 555.6569 555.5363 555.436 555.3105 555.2374 555.2141 555.219 555.2433 555.278 555.3101 555.3883 555.4943 555.6171 555.7432 555.8658 555.9818 556.0837 556.1659 556.2352 556.3121 556.4056 556.5043 556.5842 556.6249 556.6385 556.7104 556.8615 557.0767 557.3599 557.5011 557.3163 556.9386 556.6229 556.6684 556.7292 556.5273 556.2823 556.3748 557.0406 558.3365 560.047 561.9752 563.9174 565.7601 567.5148 569.2068 570.7902 572.0283 572.5946 573.1096 574.2731 576.8216 579.7423 582.4349 584.882 587.3372 -9999 -9999 -9999 -9999 -9999 -9999 -9999 -9999 -9999 -9999 -9999 -9999 -9999 -9999 -9999 -9999
-9999 -9999 -9999 -9999 -9999 -9999 -9999 -9999 -9999 -9999 -9999 -9999 -9999 -9999 -9999 -9999 -9999 -9999 594.6813 593.409 591.2334 588.0127 583.5298 578.6196 574.635 571.3463 568.4666 565.6373 562.9594 560.7694 559.4395 558.7297 558.4319 558.3599 558.3274 558.3337 558.36 558.3931 558.3591 558.1384 557.7563 557.2064 556.4823 555.4189 555.3514 556.4831 558.147 559.6105 559.8375 560.0576 560.2143 560.2709 560.16 559.8414 559.0238 558.2291 557.5052 557.0344 556.8641 556.8511 556.873 557.0128 557.1821 557.5271 557.2169 556.6174 555.6483 555.1985 554.7339 554.4298 554.1526 553.7919 553.2731 552.4883 551.4825 550.8552 550.738 550.6316 550.6492 550.7938 551.0353 551.3351 551.6567 551.9701 552.2595 552.5677 553.0121 553.5752 554.1954 554.9174 554.6074 554.4048 554.136 554.8333 555.4326 556.1405 556.7979 557.0417 556.6257 555.4811 554.9233 554.6891 554.6298 554.6158 554.5938 554.5171 554.3406 554.092 553.7922 553.4829 553.1841 552.9193 552.7049 552.5448 552.4308 552.3536 552.2999 552.2601 552.2599 552.2249 552.1937 552.1123 552.0181 551.9601 552.0247 552.2722 552.8213 553.6425 554.1361 554.6062 555.0165 555.3202 555.6381 555.9017 556.0416 556.0673 555.9808 555.8181 555.6348 555.4489 555.3104 555.2548 555.2319 555.2383 555.2667 555.3099 555.3547 555.4421 555.5496 555.6581 555.7629 555.8618 555.947 556.0113 556.0651 556.1279 556.2083 556.2923 556.3494 556.3547 556.3419 556.4025 556.5721 556.7799 557.0641 557.3159 557.2933 557.0071 556.7087 556.6436 556.7736 556.6389 556.2747 556.05 556.2644 557.0282 558.3434 560.032 561.9805 564.0335 566.0618 568.0738 570.0973 571.7819 572.4301 572.8883 573.9035 576.1656 578.9727 581.6688 583.9464 585.9393 -9999 -9999 -9999 -9999 -9999 -9999 -9999 -9999 -9999 -9999 -9999 -9999 -9999 -9999 -9999 -9999
-9999 -9999 -9999 -9999 -9999 -9999 -9999 -9999 -9999 -9999 -9999 -9999 -9999 -9999 -9999 -9999 -9999 -9999 595.592 594.319 592.1229 588.9446 584.4158 579.3881 575.4276 572.0372 569.0421 566.0507 563.1061 560.6716 559.3097 558.6234 558.3777 558.36 558.3491 558.3521 558.36 558.36 558.2712 557.9899 557.5162 556.8368 555.9313 555.3085 555.5318 556.9016 558.507 559.7844 560.2689 560.5168 560.6212 560.5424 560.2841 559.885 559.3668 558.8431 558.374 558.0853 557.6812 557.6074 557.7192 558.174 558.2612 557.7435 556.9783 555.9756 555.0588 554.5243 554.2351 554.0591 553.7889 553.4119 552.8905 552.1263 550.9708 550.7329 550.6283 550.5868 550.6506 550.8315 551.1073 551.4367 551.7726 552.0649 552.2687 552.5994 552.969 553.3392 553.6409 553.8895 553.9027 553.8127 553.661 554.0702 554.9025 555.4435 556.0876 556.5253 556.0869 555.3337 554.96 554.8531 554.9037 554.9297 554.9361 554.8906 554.7015 554.4569 554.1395 553.7927 553.4491 553.1373 552.8857 552.7032 552.567 552.4699 552.3997 552.3469 552.3101 552.2603 552.2597 552.1812 552.1241 552.1074 552.2604 552.6046 553.1438 553.7756 554.301 554.8 555.2784 555.6697 556.0576 556.3557 556.4604 556.4642 556.3348 556.1112 555.8536 555.6074 555.4169 555.3098 555.2456 555.2306 555.2467 555.2773 555.3101 555.3915 555.4861 555.5782 555.6633 555.7422 555.8069 555.8504 555.8827 555.9244 555.9845 556.049 556.0859 556.0768 556.0286 556.0496 556.169 556.3555 556.6012 556.901 557.0295 556.8829 556.6428 556.4424 556.5073 556.4694 556.1794 555.868 555.839 556.257 557.1516 558.5226 560.3177 562.4956 564.8738 567.2781 569.6628 571.6282 572.3737 572.8327 573.7653 575.8414 578.6002 581.3235 583.5257 585.1434 -9999 -9999 -9999 -9999 -9999 -9999 -9999 -9999 -9999 -9999 -9999 -9999 -9999 -9999 -9999 -9999
-9999 -9999 -9999 -9999 -9999 -9999 -9999 -9999 -9999 -9999 -9999 -9999 -9999 -9999 -9999 -9999 -9999 -9999 595.9973 594.6609 592.2855 589.6667 585.36 580.3542 576.3132 572.6577 569.4954 566.3996 563.37 560.8391 559.338 558.5989 558.3558 558.36 558.3662 558.3698 558.36 558.3599 558.1736 557.796 557.2322 556.4909 555.4521 555.3252 556.0925 557.5344 558.9988 559.9292 560.4143 560.6541 560.7462 560.6356 560.3188 559.8963 559.5791 559.2819 559.0079 558.7737 558.4831 558.3703 558.3823 558.4144 558.0098 556.8693 555.5433 554.8782 554.0372 553.8029 553.7925 553.7825 553.5083 553.1387 552.6833 552.0651 550.9348 550.6843 550.6126 550.6092 550.6997 550.9006 551.1986 551.5539 551.9184 552.2471 552.4559 552.7645 553.1084 553.3956 553.5521 553.7998 554.1138 554.7493 554.2753 554.9244 555.2869 555.3188 555.3515 555.438 555.3321 555.0923 555.016 555.0867 555.2922 555.3168 555.3137 555.2932 555.062 554.8636 554.5439 554.1893 553.7927 553.4211 553.1248 552.9313 552.7734 552.6573 552.5688 552.5 552.4384 552.3743 552.3279 552.2604 552.259 552.2632 552.5006 552.9045 553.405 553.8413 554.416 554.9421 555.3859 555.9769 556.4725 556.819 556.8505 556.8365 556.6508 556.3544 556.0269 555.7238 555.4788 555.3103 555.236 555.2162 555.2301 555.2637 555.3099 555.3578 555.4287 555.5034 555.5693 555.6271 555.6711 555.6929 555.7 555.7123 555.7489 555.7927 555.813 555.8073 555.7559 555.7312 555.7982 555.9033 556.0754 556.3444 556.5683 556.5936 556.4232 556.2842 556.1348 556.0948 555.9233 555.6719 555.5816 555.8609 556.6002 557.6084 559.2213 561.4149 563.9315 566.5511 569.1785 571.373 572.2633 572.777 573.649 575.4965 578.2289 580.9904 583.3043 584.9751 -9999 -9999 -9999 -9999 -9999 -9999 -9999 -9999 -9999 -9999 -9999 -9999 -9999 -9999 -9999 -9999
-9999 -9999 -9999 -9999 -9999 -9999 -9999 -9999 -9999 -9999 -9999 -9999 -9999 -9999 -9999 -9999 -9999 -9999 595.9716 594.832 592.7943 590.4661 586.3737 581.4217 577.0581 573.1636 569.8738 566.6884 563.5594 560.9582 559.3842 558.6046 558.3516 558.36 558.3807 558.3976 558.3998 558.3561 558.04 557.5353 556.8401 555.9317 555.3141 555.6022 556.6815 558.1753 559.5822 560.3279 560.6045 560.6915 560.6821 560.5348 560.2277 559.8793 559.6121 559.4207 559.2559 559.0551 558.7776 558.5446 558.2643 557.7491 556.6672 555.2869 554.2072 555.0593 554.4985 554.1912 553.9212 553.6627 553.3584 553.0061 552.6084 552.1711 551.3761 551.0225 550.8538 550.7893 550.844 551.0262 551.3188 551.6763 552.028 552.2739 552.6174 553.0089 553.412 553.7556 553.8489 554.3562 555.0466 555.3054 555.2275 555.3233 555.3893 555.3086 555.1481 555.1058 555.1091 555.0996 555.3119 555.5355 555.8383 555.8154 555.6939 555.5494 555.3294 555.2806 554.9707 554.6709 554.2416 553.8053 553.4456 553.2629 553.067 552.929 552.8122 552.7217 552.6343 552.5428 552.4609 552.3934 552.3898 552.4619 552.728 553.1757 553.7398 554.1494 554.6808 555.2601 555.8225 556.4034 556.8448 557.1239 557.1665 557.0814 556.8412 556.4709 556.094 555.765 555.5006 555.3103 555.2286 555.205 555.2147 555.2422 555.2765 555.3101 555.3668 555.4315 555.4807 555.5192 555.5446 555.5492 555.5308 555.5024 555.5173 555.5415 555.5493 555.5493 555.5248 555.4954 555.5109 555.5565 555.616 555.76 555.964 556.1495 556.1339 556.0228 555.9377 555.8044 555.6345 555.4426 555.3588 555.5411 556.0812 556.9857 558.5815 560.8271 563.4661 566.1744 568.8212 571.0544 572.1088 572.7016 573.5445 575.1653 577.7652 580.505 583.1101 585.2993 -9999 -9999 -9999 -9999 -9999 -9999 -9999 -9999 -9999 -9999 -9999 -9999 -9999 -9999 -9999 -9999
-9999 -9999 -9999 -9999 -9999 -9999 -9999 -9999 -9999 -9999 -9999 -9999 -9999 -9999 -9999 -9999 -9999 -9999 595.1748 593.8661 592.5035 590.9798 587.2274 582.3107 577.7185 573.6104 570.1652 566.8777 563.6669 561.0187 559.4129 558.6168 558.3566 558.36 558.3742 558.3765 558.3357 558.1879 557.8121 557.2335 556.4982 555.4731 555.3083 555.7979 556.9006 558.4122 559.7988 560.4976 560.7878 560.7654 560.5917 560.2958 559.8964 559.5337 559.2367 559.0785 558.9509 558.7092 558.2912 557.8168 557.0402 556.1141 555.1488 554.6174 553.9335 554.8474 554.6017 554.2817 553.9927 553.7411 553.4657 553.1529 552.7776 552.2963 551.8024 551.533 551.2775 551.106 551.0789 551.2107 551.4768 551.834 552.2355 552.5084 552.8919 553.3439 553.793 554.1459 554.3651 554.7458 555.1816 555.3104 555.3101 555.3101 555.3099 555.2175 555.0913 555.1172 555.2947 555.4577 556.1047 556.7144 556.7864 556.4218 556.0933 555.8679 555.7053 555.6187 555.3818 555.243 554.8035 554.3826 553.8976 553.7462 553.4494 553.2932 553.125 553.0084 552.8844 552.7542 552.6349 552.5459 552.5244 552.6052 552.8516 553.2655 553.7928 554.3277 554.91 555.4708 556.2545 556.827 557.1536 557.3027 557.2772 557.0997 556.8078 556.3684 555.9971 555.7055 555.4792 555.3103 555.2315 555.2037 555.2068 555.2255 555.2493 555.2741 555.3101 555.3665 555.3969 555.4164 555.4277 555.4247 555.3951 555.3115 555.3098 555.3101 555.3104 555.31 555.3101 555.3093 555.3089 555.3093 555.3087 555.3069 555.3508 555.6442 555.7383 555.764 555.7133 555.6367 555.501 555.336 555.2586 555.4147 555.9182 556.8683 558.5248 560.8148 563.4983 566.2563 568.9054 571.0876 572.1049 572.6724 573.4802 575.029 577.5706 580.3651 583.2324 585.8513 -9999 -9999 -9999 -9999 -9999 -9999 -9999 -9999 -9999 -9999 -9999 -9999 -9999 -9999 -9999 -9999
