ncols         312
nrows         41
xllcorner     696800
yllcorner     6064300
cellsize      50
NODATA_value  -9999
-9999 -9999 -9999 -9999 -9999 -9999 -9999 -9999 -9999 -9999 -9999 -9999 -9999 -9999 -9999 -9999 -9999 -9999 -9999 -9999 -9999 -9999 -9999 -9999 -9999 -9999 -9999 -9999 -9999 -9999 -9999 -9999 -9999 -9999 -9999 -9999 -9999 -9999 -9999 -9999 -9999 -9999 -9999 -9999 -9999 -9999 -9999 -9999 -9999 561.0414 562.8696 564.7029 566.1007 566.8953 567.9391 569.2961 569.964 568.9501 566.6813 563.9657 561.3874 559.9887 560.1691 561.3308 563.32 565.7694 568.3669 570.3724 571.2113 571.002 569.6602 567.8229 565.3675 562.4425 559.4604 556.7989 554.4396 552.8342 552.5244 552.2206 551.8719 551.5897 551.2053 550.4904 549.7276 549.4037 549.1862 548.9363 548.8138 548.8965 549.2026 549.6265 549.7383 549.735 549.7837 549.9681 550.1758 550.313 549.8113 549.1833 548.6691 548.314 548.1228 547.8901 547.9329 548.4894 549.7418 551.1197 552.3282 553.0566 553.8739 554.3204 554.663 554.6942 555.0378 555.7722 556.9547 558.0406 558.856 559.1862 558.4964 556.9144 555.4147 554.1299 552.8629 551.6113 550.9534 550.4573 550.166 549.9363 549.775 549.6486 549.2909 549.0586 548.9471 549.161 549.9113 551.117 552.2158 552.7106 552.9835 553.3511 553.4646 553.4539 553.5002 553.8337 554.2783 555.6607 558.4922 562.7336 567.5543 571.8286 574.6877 575.636 574.9913 573.5904 571.9457 -9999 -9999 -9999 -9999 -9999 -9999 -9999 -9999 -9999 -9999 -9999 -9999 -9999 -9999 -9999 -9999 -9999 -9999 -9999 -9999 -9999 -9999 -9999 -9999 -9999 -9999 -9999 -9999 -9999 -9999 588.3773 -9999 -9999 -9999 -9999 -9999 -9999 -9999 -9999 -9999 -9999 -9999 -9999 -9999 -9999 -9999 -9999 -9999 -9999 -9999 -9999 -9999 -9999 -9999 -9999 -9999 -9999 -9999 -9999 -9999 -9999 -9999 -9999 -9999 -9999 -9999 -9999 -9999 -9999 -9999 -9999 -9999 -9999 -9999 -9999 -9999 -9999 -9999 -9999 -9999 -9999 -9999 -9999 -9999 -9999 -9999 -9999 -9999 -9999 -9999 -9999 -9999 -9999 -9999 -9999 -9999 -9999 -9999 -9999 -9999 -9999 -9999 -9999 -9999 -9999 -9999 -9999 -9999 -9999 -9999 -9999 -9999 -9999 -9999 -9999 -9999 -9999 -9999 -9999 -9999 -9999 -9999 -9999 -9999 -9999 -9999 -9999 -9999 -9999 -9999 -9999 -9999 -9999 -9999 -9999 -9999 -9999 -9999 -9999 -9999 -9999 -9999 -9999 -9999 -9999 -9999 -9999 -9999 -9999 -9999 -9999 -9999 -9999 -9999 -9999
-9999 -9999 -9999 -9999 -9999 -9999 -9999 -9999 -9999 -9999 -9999 -9999 -9999 -9999 -9999 -9999 -9999 -9999 -9999 -9999 -9999 -9999 -9999 -9999 -9999 -9999 -9999 -9999 -9999 -9999 -9999 -9999 -9999 -9999 -9999 -9999 -9999 -9999 -9999 -9999 -9999 -9999 -9999 -9999 -9999 -9999 -9999 -9999 -9999 564.4531 566.006 567.6909 569.2059 570.3502 571.4995 572.7714 573.0878 571.9708 569.9342 567.5259 565.3102 563.838 563.6584 564.7629 566.4877 568.6099 570.7557 572.1257 572.5507 571.9706 570.3424 568.5375 565.888 562.6184 559.1075 555.9884 553.8285 552.7326 552.8289 553.1788 553.406 553.5526 552.7692 551.4747 550.3331 549.6044 549.0823 548.8291 548.8593 549.2092 549.91 550.889 551.3342 551.496 551.7133 552.1323 552.324 552.118 551.0854 549.8188 548.973 548.4432 548.1331 547.9519 547.8823 548.1244 548.8057 549.8275 550.8525 551.2996 551.7496 552.0598 552.4576 552.6709 552.9807 553.809 555.2867 556.6149 557.2553 557.082 556.0212 554.3498 552.7469 551.6277 550.9706 550.332 549.8074 549.6596 549.6541 549.6594 549.6498 549.4014 549.0037 548.6648 548.4768 548.5673 549.024 549.7714 550.5803 551.2359 551.9246 552.4631 552.5854 552.5684 552.538 552.5604 552.6992 553.6021 555.4841 558.8197 563.2814 567.8054 571.4043 573.5245 574.2518 574.0581 573.4744 572.809 -9999 -9999 -9999 -9999 -9999 -9999 -9999 -9999 -9999 -9999 -9999 -9999 -9999 -9999 -9999 -9999 -9999 -9999 -9999 -9999 -9999 -9999 -9999 -9999 -9999 590.9938 590.5786 589.4379 587.7134 585.7805 583.7742 581.6074 579.322 577.3409 575.8735 -9999 -9999 -9999 -9999 -9999 -9999 -9999 -9999 -9999 -9999 -9999 -9999 -9999 -9999 -9999 -9999 -9999 -9999 -9999 -9999 -9999 -9999 -9999 -9999 -9999 -9999 -9999 -9999 -9999 -9999 -9999 -9999 -9999 -9999 -9999 -9999 -9999 -9999 -9999 -9999 -9999 -9999 -9999 -9999 -9999 -9999 -9999 -9999 -9999 -9999 -9999 -9999 -9999 -9999 -9999 -9999 -9999 -9999 -9999 -9999 -9999 -9999 -9999 -9999 -9999 -9999 -9999 -9999 -9999 -9999 -9999 -9999 -9999 -9999 -9999 -9999 -9999 -9999 -9999 -9999 -9999 -9999 -9999 -9999 -9999 -9999 -9999 -9999 -9999 -9999 -9999 -9999 -9999 -9999 -9999 -9999 -9999 -9999 -9999 -9999 -9999 -9999 -9999 -9999 -9999 -9999 -9999 -9999 -9999 -9999 -9999 -9999 -9999 -9999 -9999 -9999 -9999 -9999 -9999
-9999 -9999 -9999 -9999 -9999 -9999 -9999 -9999 -9999 -9999 -9999 -9999 -9999 -9999 -9999 -9999 -9999 -9999 -9999 -9999 -9999 -9999 -9999 -9999 -9999 -9999 -9999 -9999 -9999 -9999 -9999 -9999 -9999 -9999 -9999 -9999 -9999 -9999 -9999 -9999 -9999 -9999 -9999 -9999 -9999 -9999 -9999 -9999 -9999 -9999 570.464 571.7902 573.1671 574.0164 574.4684 575.243 575.1323 574.0434 572.3141 570.2966 568.4368 567.1649 566.7515 567.3281 568.2495 569.6433 570.9974 571.9019 571.9315 571.0027 569.0394 566.6414 563.751 560.5468 557.2076 554.4146 552.9725 552.9877 553.7578 554.8057 555.6204 555.889 554.742 552.8351 551.0334 549.7159 549.0626 548.8942 549.1351 549.8112 551.0709 552.506 553.4452 553.8406 554.2135 554.7678 554.7151 553.7295 552.1136 550.3338 549.1727 548.5301 548.2282 548.1279 547.9995 548.0025 548.1938 548.9103 549.5938 549.7874 549.911 550.0948 550.5405 550.9206 551.1517 551.7967 553.2571 554.6488 555.3033 555.0503 553.676 552.064 550.7195 549.9044 549.6779 549.5746 549.2332 549.1404 549.1984 549.2623 549.2331 549.0175 548.6998 548.4091 548.2284 548.232 548.4741 548.9151 549.445 549.9849 550.821 551.1452 551.1855 551.1569 551.1406 551.205 551.3679 552.122 553.215 555.6143 559.2801 563.5954 567.5521 570.5657 572.5621 573.5388 573.9335 574.2966 575.8392 -9999 -9999 -9999 580.8633 580.5932 581.4568 582.6199 584.2895 -9999 -9999 -9999 -9999 -9999 -9999 -9999 -9999 -9999 -9999 -9999 -9999 -9999 590.9396 588.0457 586.7887 586.2161 585.5954 584.6495 583.4543 582.2914 581.0654 579.5668 577.8307 576.1965 575.03 574.4784 575.2284 576.4409 577.8303 576.7626 576.6089 577.3969 576.0793 -9999 -9999 -9999 -9999 -9999 -9999 -9999 -9999 -9999 -9999 -9999 -9999 -9999 -9999 -9999 -9999 -9999 -9999 -9999 -9999 -9999 -9999 -9999 -9999 -9999 -9999 -9999 -9999 -9999 -9999 -9999 -9999 -9999 -9999 -9999 -9999 -9999 -9999 -9999 -9999 -9999 -9999 -9999 -9999 -9999 -9999 -9999 -9999 -9999 -9999 -9999 -9999 -9999 -9999 -9999 -9999 -9999 -9999 -9999 -9999 -9999 -9999 -9999 -9999 -9999 -9999 -9999 -9999 -9999 -9999 -9999 -9999 -9999 -9999 -9999 -9999 -9999 -9999 -9999 -9999 -9999 -9999 -9999 -9999 -9999 -9999 -9999 -9999 -9999 -9999 -9999 -9999 -9999 -9999 -9999 -9999 -9999 -9999 -9999 -9999 -9999 -9999 -9999 -9999 -9999 -9999 -9999 -9999 -9999 -9999 -9999
-9999 -9999 -9999 -9999 -9999 -9999 -9999 -9999 -9999 -9999 -9999 -9999 -9999 -9999 -9999 -9999 -9999 -9999 -9999 -9999 -9999 -9999 -9999 -9999 -9999 -9999 -9999 -9999 -9999 -9999 -9999 -9999 572.2971 572.4675 572.9174 573.0057 572.6057 -9999 -9999 -9999 -9999 -9999 -9999 -9999 -9999 -9999 -9999 -9999 -9999 -9999 -9999 -9999 576.1631 576.5311 575.9363 576.1716 575.8667 574.7991 573.4191 571.6599 569.9236 568.4971 567.6901 567.4751 567.6589 568.2386 569.0927 569.6515 569.3294 567.9044 565.5654 562.7552 559.8046 557.0875 554.699 553.1317 553.4271 554.0141 555.1721 556.6602 557.4983 557.4294 556.1608 553.7749 551.3632 549.754 549.1312 549.1538 549.6654 550.6879 552.2668 554.0883 555.5121 556.1003 556.5143 556.9773 556.4786 554.6322 552.2354 550.1651 549.0383 548.4478 548.1972 548.142 548.1299 548.1298 548.1357 548.4783 548.8946 549.0832 549.1505 549.2321 549.4395 549.6292 549.7081 550.1132 551.2794 552.4985 552.9816 552.6503 551.3785 550.4697 549.7269 549.4508 549.2858 549.188 549.0239 548.9728 548.9815 548.9901 548.9042 548.7163 548.4969 548.3071 548.1705 548.1146 548.1985 548.428 548.7621 549.1627 549.6389 549.7653 549.7596 549.7548 549.8385 550.1677 550.4034 550.8679 551.478 553.0955 555.8041 559.3678 563.1908 566.5989 569.4868 571.7869 573.3245 574.7504 576.6371 578.4908 579.923 580.3302 579.7385 578.8195 579.6205 580.8519 582.3893 584.2678 586.2739 588.1696 -9999 -9999 -9999 -9999 -9999 -9999 -9999 -9999 595.0631 590.6731 586.585 583.7474 582.1124 581.065 580.1735 579.256 578.3452 577.6971 577.162 576.4426 575.4485 574.457 573.8333 573.7164 574.2859 575.6248 576.949 576.7874 575.9714 575.8718 576.2964 574.0897 -9999 -9999 -9999 -9999 -9999 -9999 -9999 -9999 -9999 -9999 -9999 -9999 -9999 -9999 -9999 -9999 -9999 -9999 -9999 -9999 -9999 -9999 -9999 -9999 -9999 -9999 -9999 -9999 -9999 -9999 -9999 -9999 -9999 -9999 -9999 -9999 -9999 -9999 -9999 -9999 -9999 -9999 -9999 -9999 -9999 -9999 -9999 -9999 -9999 -9999 -9999 -9999 -9999 -9999 -9999 -9999 -9999 -9999 -9999 -9999 -9999 -9999 -9999 -9999 -9999 -9999 -9999 -9999 -9999 -9999 -9999 -9999 -9999 -9999 -9999 -9999 -9999 -9999 -9999 -9999 -9999 -9999 -9999 -9999 -9999 -9999 -9999 -9999 -9999 -9999 -9999 -9999 -9999 -9999 -9999 -9999 -9999 -9999 -9999 -9999 -9999 -9999 -9999 -9999 -9999 -9999 -9999 -9999 -9999 -9999
-9999 -9999 -9999 -9999 -9999 -9999 -9999 -9999 -9999 -9999 -9999 -9999 -9999 -9999 -9999 -9999 -9999 -9999 -9999 -9999 -9999 -9999 -9999 -9999 -9999 -9999 -9999 -9999 -9999 -9999 573.2712 574.5617 575.2253 574.556 575.689 576.3511 576.1584 575.8524 -9999 -9999 -9999 -9999 -9999 -9999 -9999 -9999 -9999 -9999 -9999 -9999 -9999 -9999 -9999 -9999 -9999 576.3796 574.999 573.804 572.363 570.8414 569.2829 567.6443 566.4154 565.4552 564.8383 564.865 565.3105 565.6206 565.1207 563.5002 561.0656 558.3727 555.9303 554.1334 553.2334 553.342 554.8754 555.4938 556.92 558.1368 558.7247 558.1986 556.6393 553.8073 551.1909 549.6938 549.3108 549.6354 550.4316 551.6891 553.4107 555.0827 556.5129 557.2512 557.5913 557.7809 556.6028 554.373 551.7622 549.8254 548.7848 548.2734 548.0778 548.0575 548.0848 548.0939 548.1007 548.2729 548.5821 548.8397 548.9609 548.9836 548.9926 548.9927 548.9994 549.2432 549.8869 550.7329 550.8905 550.619 549.7083 550.2637 550.5375 550.4785 550.0435 549.7238 549.5256 549.4215 549.2365 549.0479 548.8285 548.6324 548.4955 548.4023 548.3038 548.1739 548.1211 548.1896 548.3583 548.5891 548.8185 548.8882 548.8989 548.9659 549.1794 549.5629 549.6397 549.7687 550.2758 551.318 553.1147 555.6603 558.7282 561.9665 565.2475 568.474 571.194 573.5138 575.7592 577.6933 578.9383 579.1657 578.131 576.8569 577.4702 578.6383 580.0076 581.8402 583.9436 585.9962 587.7206 588.9147 -9999 -9999 -9999 -9999 -9999 592.7863 589.7332 585.6853 581.8405 578.924 576.8838 575.4095 574.2311 573.1879 572.3311 571.9725 571.9476 571.9346 571.7477 571.5212 571.4818 571.7967 572.5512 573.9772 575.4769 576.1626 575.1768 575.3262 574.8347 574.0237 570.6871 -9999 -9999 -9999 -9999 -9999 -9999 -9999 -9999 -9999 -9999 -9999 -9999 -9999 -9999 -9999 -9999 -9999 -9999 -9999 -9999 -9999 -9999 -9999 -9999 -9999 -9999 -9999 -9999 -9999 -9999 -9999 -9999 -9999 -9999 -9999 -9999 -9999 -9999 -9999 -9999 -9999 -9999 -9999 -9999 -9999 -9999 -9999 -9999 -9999 -9999 -9999 -9999 -9999 -9999 -9999 -9999 -9999 -9999 -9999 -9999 -9999 -9999 -9999 -9999 -9999 -9999 -9999 -9999 -9999 -9999 -9999 -9999 -9999 -9999 -9999 -9999 -9999 -9999 -9999 -9999 -9999 -9999 -9999 -9999 -9999 -9999 -9999 -9999 -9999 -9999 -9999 -9999 -9999 -9999 -9999 -9999 -9999 -9999 -9999 -9999 -9999 -9999 -9999 -9999 -9999 -9999 -9999 -9999 -9999
-9999 -9999 -9999 -9999 -9999 -9999 -9999 -9999 -9999 -9999 -9999 -9999 -9999 -9999 -9999 -9999 -9999 -9999 -9999 -9999 -9999 -9999 -9999 -9999 -9999 -9999 -9999 -9999 -9999 -9999 576.6805 576.3182 576.2379 577.4671 576.5391 577.7541 577.587 577.5229 577.6213 577.7701 -9999 -9999 -9999 -9999 -9999 -9999 -9999 -9999 -9999 -9999 -9999 -9999 -9999 576.9164 576.7473 575.0449 573.2982 571.6048 569.8804 568.2794 566.6083 564.7023 562.8947 561.5378 560.6281 560.4541 560.7266 561.0136 560.6307 559.158 557.0675 554.984 553.3534 552.6168 552.641 553.4584 555.226 556.8016 558.1825 558.7823 558.7299 557.7598 555.7053 552.8314 550.4902 549.545 549.6427 550.3762 551.585 553.1493 554.5643 555.0297 556.9555 558.3779 557.7967 557.2411 555.6273 553.1771 550.8639 549.3221 548.4705 548.0732 547.9385 547.9538 548.0149 548.0551 548.0748 548.1688 548.4077 548.7404 548.9864 549.0529 548.9885 548.8983 548.8674 549.0135 549.3532 549.6503 549.696 550.1763 551.1607 552.4208 553.0228 552.9156 552.1368 551.33 550.9354 550.7543 550.1886 549.5988 549.1008 548.842 548.7462 548.6989 548.5877 548.3417 548.1626 548.1044 548.1495 548.2461 548.3347 548.359 548.371 548.4429 548.6227 548.8687 548.9835 549.1517 549.5951 550.2506 551.3141 552.921 555.0617 557.6845 560.7338 564.1744 567.5601 570.5794 573.1074 575.1198 576.3315 576.493 575.694 574.6839 574.6535 575.3046 576.4916 578.3268 580.6091 582.8562 584.6843 585.9389 586.6607 587.1218 -9999 -9999 589.0406 587.6353 584.5673 580.6888 576.8674 573.6583 571.1565 569.2997 567.9317 566.7806 565.8871 565.6493 565.8862 566.3148 566.7278 567.2045 567.8575 568.7659 569.8705 571.2328 572.5932 573.7079 574.4256 575.2982 575.4185 573.5093 570.1003 566.521 -9999 -9999 -9999 -9999 -9999 -9999 -9999 -9999 -9999 -9999 -9999 -9999 -9999 -9999 -9999 -9999 -9999 -9999 -9999 -9999 -9999 -9999 -9999 -9999 -9999 -9999 -9999 -9999 -9999 -9999 -9999 -9999 -9999 -9999 -9999 -9999 -9999 -9999 -9999 -9999 -9999 -9999 -9999 -9999 -9999 -9999 -9999 -9999 -9999 -9999 -9999 -9999 -9999 -9999 -9999 -9999 -9999 -9999 -9999 -9999 -9999 -9999 -9999 -9999 -9999 -9999 -9999 -9999 -9999 -9999 -9999 -9999 -9999 -9999 -9999 -9999 -9999 -9999 -9999 -9999 -9999 -9999 -9999 -9999 -9999 -9999 -9999 -9999 -9999 -9999 -9999 -9999 -9999 -9999 -9999 -9999 -9999 -9999 -9999 -9999 -9999 -9999 -9999 -9999 -9999 -9999 -9999 -9999
-9999 -9999 -9999 -9999 -9999 -9999 -9999 -9999 -9999 -9999 -9999 -9999 -9999 -9999 -9999 -9999 -9999 -9999 -9999 -9999 -9999 -9999 -9999 -9999 -9999 -9999 -9999 -9999 -9999 580.4338 578.8029 576.5993 575.1245 575.499 575.5016 576.1675 576.4671 577.0941 577.6706 578.0379 578.4192 -9999 -9999 -9999 -9999 -9999 -9999 -9999 -9999 -9999 -9999 -9999 577.6527 576.661 575.0211 572.9214 570.6934 568.3721 566.2285 564.4468 562.6459 560.5266 558.6537 557.4305 556.7685 556.6589 556.8141 557.0502 556.9978 556.101 554.6317 553.1518 552.4435 552.5479 553.2693 554.7297 556.2887 557.5507 558.7028 558.2485 557.8522 556.4863 554.2028 551.8103 550.1738 549.6733 550.2673 551.5566 553.3765 555.3604 556.8385 557.0486 556.4954 557.7615 558.2028 556.3245 553.8886 551.6024 549.8298 548.7355 548.1473 547.8979 547.8361 547.8806 547.9694 548.0428 548.0845 548.1553 548.3129 548.6511 549.0131 549.2024 549.1816 549.0955 549.0962 549.2668 549.619 549.9124 550.8369 552.056 553.6466 555.0726 555.7109 555.5378 554.5991 553.4339 553.2266 553.1596 552.1327 550.6536 549.663 549.3145 549.2 549.0781 548.7983 548.4858 548.2411 548.11 548.0776 548.09 548.0927 548.0715 548.0569 548.0908 548.1953 548.3433 548.4742 548.6751 549.0529 549.593 550.2347 551.1326 552.562 554.428 556.8177 559.7302 562.9866 566.1839 568.811 570.6867 571.7108 571.7972 571.1031 570.164 569.8499 570.2822 571.4742 573.3886 575.9174 578.5035 580.6716 582.2431 583.2654 583.9777 584.7247 585.2932 584.9413 583.0845 579.8414 575.8589 571.8041 568.1999 565.2948 563.212 561.9337 560.9673 560.2242 560.1474 560.4256 560.8358 561.4101 562.3696 563.5621 564.9297 566.3353 567.4942 568.4189 569.4212 570.6479 571.9194 572.5455 571.3799 568.8698 565.883 -9999 -9999 -9999 -9999 -9999 -9999 -9999 -9999 -9999 -9999 -9999 -9999 -9999 -9999 -9999 -9999 -9999 -9999 -9999 -9999 -9999 -9999 -9999 -9999 -9999 -9999 -9999 -9999 -9999 -9999 -9999 -9999 -9999 -9999 -9999 -9999 -9999 -9999 -9999 -9999 -9999 -9999 -9999 -9999 -9999 -9999 -9999 -9999 -9999 -9999 -9999 -9999 -9999 -9999 -9999 -9999 -9999 -9999 -9999 -9999 -9999 -9999 -9999 -9999 -9999 -9999 -9999 -9999 -9999 -9999 -9999 -9999 -9999 -9999 -9999 -9999 -9999 -9999 -9999 -9999 -9999 -9999 -9999 -9999 -9999 -9999 -9999 -9999 -9999 -9999 -9999 -9999 -9999 -9999 -9999 -9999 -9999 -9999 -9999 -9999 -9999 -9999 -9999 -9999 -9999 -9999 -9999 -9999
-9999 -9999 -9999 -9999 -9999 -9999 -9999 -9999 -9999 -9999 -9999 -9999 -9999 -9999 -9999 -9999 -9999 -9999 -9999 -9999 -9999 -9999 -9999 -9999 -9999 -9999 -9999 -9999 -9999 582.2897 579.7764 576.4801 573.8398 572.537 572.1271 572.6102 573.7036 575.2377 576.5432 577.4556 578.0858 578.3812 -9999 -9999 -9999 -9999 -9999 -9999 -9999 -9999 -9999 575.9427 575.9835 574.7721 572.7167 570.1396 567.3229 564.4925 562.1162 560.3568 558.6652 556.7968 555.3723 554.6393 554.3549 554.348 554.4502 554.6724 554.9834 554.694 553.9149 553.1998 553.0528 553.7895 555.0043 556.3367 556.8363 557.4775 558.0406 557.8595 556.8097 554.8912 552.7931 551.0983 550.1432 550.2466 551.3096 553.2001 555.4617 557.4485 558.3304 557.0887 557.8051 558.6113 556.9182 554.3272 551.9238 550.0912 548.9199 548.2355 547.9028 547.7982 547.8116 547.8727 547.969 548.0693 548.1445 548.2094 548.3818 548.668 549.0533 549.3591 549.4064 549.3481 549.4163 549.6541 550.1288 550.962 552.4017 554.1093 555.7161 556.812 557.2758 557.0732 556.3575 555.1603 555.438 555.2616 553.7745 551.6063 550.202 549.8974 549.6778 549.3007 548.926 548.5906 548.3287 548.1744 548.1091 548.0751 548.0164 547.9496 547.8982 547.8795 547.91 547.9854 548.0939 548.2778 548.584 549.0071 549.504 549.8973 550.9106 552.2121 553.7908 555.8657 558.3474 561.0417 563.2457 564.767 565.5299 565.5306 564.8839 563.9941 563.6557 564.0738 565.3201 567.2746 570.0076 573.0023 575.6857 577.8423 579.566 580.9122 582.0095 582.3683 581.5689 579.2286 575.6195 571.2889 566.9158 563.0569 560.1275 558.2045 557.2673 556.8966 556.8147 557.4 557.8098 557.8104 557.7961 558.7505 560.129 561.5179 562.7342 563.5942 564.241 564.8837 565.899 567.4108 568.8638 569.2131 568.105 565.91 563.4921 -9999 -9999 -9999 -9999 -9999 -9999 -9999 -9999 -9999 -9999 -9999 -9999 -9999 -9999 -9999 -9999 -9999 -9999 -9999 -9999 -9999 -9999 -9999 -9999 -9999 -9999 -9999 -9999 -9999 -9999 -9999 -9999 -9999 -9999 -9999 -9999 -9999 -9999 -9999 -9999 -9999 -9999 -9999 -9999 -9999 -9999 -9999 -9999 -9999 -9999 -9999 -9999 -9999 -9999 -9999 -9999 -9999 -9999 -9999 -9999 -9999 -9999 -9999 -9999 -9999 -9999 -9999 -9999 -9999 -9999 -9999 -9999 -9999 -9999 -9999 -9999 -9999 -9999 -9999 -9999 -9999 -9999 -9999 -9999 -9999 -9999 -9999 -9999 -9999 -9999 -9999 -9999 -9999 -9999 -9999 -9999 -9999 -9999 -9999 -9999 -9999 -9999 -9999 -9999 -9999 -9999 -9999
-9999 -9999 -9999 -9999 -9999 -9999 -9999 -9999 -9999 -9999 -9999 -9999 -9999 -9999 -9999 -9999 -9999 -9999 -9999 -9999 -9999 -9999 -9999 -9999 -9999 -9999 -9999 -9999 -9999 582.2346 579.3004 575.7278 572.3923 569.8091 568.3329 568.4167 569.9937 572.3167 574.46 576.01 577.1171 577.6014 577.0732 575.8778 574.6381 -9999 -9999 -9999 -9999 -9999 573.9164 574.2118 574.0662 572.7278 570.2086 567.1144 563.7418 560.7747 558.6938 557.2898 556.0988 554.7778 554.1006 553.9406 553.9681 554.0807 554.2522 554.5466 554.8543 554.9211 554.654 554.5687 554.955 555.8832 557.0359 558.0732 558.3734 558.0968 558.1619 557.5845 555.6749 553.4965 551.7839 550.6902 550.2684 550.8799 552.5023 554.9243 557.2507 558.5796 557.9786 558.3754 557.9296 556.5958 554.3841 552.0538 550.1904 548.9885 548.278 547.9179 547.7921 547.8049 547.8708 547.947 548.0293 548.1282 548.2401 548.3547 548.5359 548.8828 549.2983 549.6518 549.658 549.5345 549.6557 549.892 550.4114 551.3954 553.192 555.2633 556.7242 557.6266 557.9319 557.5656 556.6178 555.6021 556.7209 555.905 555.1245 552.7708 550.6476 550.4161 549.8466 549.3691 548.9905 548.6779 548.4305 548.2832 548.2131 548.1559 548.046 547.9395 547.8535 547.7861 547.7538 547.7664 547.8263 547.9521 548.1639 548.4441 548.7566 549.0807 549.7544 550.7369 551.6334 552.9156 554.4731 556.2411 557.6913 558.7067 559.2003 559.2025 558.8033 558.3055 558.1849 558.5482 559.4928 561.1521 563.6918 566.8327 569.918 572.7463 575.4097 577.7041 579.3816 579.8152 578.6843 575.9201 571.8647 567.1528 562.6561 558.9939 556.3619 554.8193 554.5573 555.2038 556.1839 557.4806 558.1088 557.7545 557.3453 557.6978 558.4238 559.3519 560.1942 560.7892 561.0356 561.2975 562.2252 563.9481 566.273 568.046 568.1383 566.4144 564.1756 -9999 -9999 -9999 -9999 -9999 -9999 -9999 -9999 -9999 -9999 -9999 -9999 -9999 -9999 -9999 -9999 -9999 -9999 -9999 -9999 -9999 -9999 -9999 -9999 -9999 -9999 -9999 -9999 -9999 -9999 -9999 -9999 -9999 -9999 -9999 -9999 -9999 -9999 -9999 -9999 -9999 -9999 -9999 -9999 -9999 -9999 -9999 -9999 -9999 -9999 -9999 -9999 -9999 -9999 -9999 -9999 -9999 -9999 -9999 -9999 -9999 -9999 -9999 -9999 -9999 -9999 -9999 -9999 -9999 -9999 -9999 -9999 -9999 -9999 -9999 -9999 -9999 -9999 -9999 -9999 -9999 -9999 -9999 -9999 -9999 -9999 -9999 -9999 -9999 -9999 -9999 -9999 -9999 -9999 -9999 -9999 -9999 -9999 -9999 -9999 -9999 -9999 -9999 -9999 -9999 -9999 -9999
-9999 -9999 -9999 -9999 -9999 -9999 -9999 -9999 -9999 -9999 -9999 -9999 -9999 -9999 -9999 -9999 -9999 -9999 -9999 -9999 -9999 -9999 -9999 -9999 -9999 -9999 -9999 -9999 -9999 580.5242 578.0142 574.8946 571.4952 568.1328 565.4312 565.2045 566.3185 568.7985 571.4078 573.6028 575.2274 575.837 575.6831 574.5163 573.3185 572.7271 -9999 -9999 -9999 572.9091 572.5118 572.8131 572.5439 570.9141 567.8499 564.1313 560.6282 558.3349 557.146 556.1541 555.5692 555.0118 554.6846 554.9335 555.1205 555.2831 555.4266 555.6778 555.858 556.1601 556.5325 556.6772 556.9769 557.5421 558.3514 558.7672 558.9944 558.5236 557.8062 556.1816 554.0112 552.0982 551.2303 550.6265 550.581 551.5687 553.7012 556.2891 558.2045 558.1999 557.24 556.4813 555.4036 553.7662 551.8624 550.1664 549.0021 548.2872 547.9179 547.7967 547.824 547.9194 548.0189 548.0847 548.1401 548.2151 548.339 548.5146 548.783 549.2125 549.7264 550.1758 550.0323 549.6859 549.7642 549.9971 550.4742 551.3401 552.8948 554.8203 556.6147 557.6671 558.0911 557.8307 556.9565 555.9985 558.0997 555.8295 555.996 553.8473 551.3073 550.1821 549.7112 549.3668 549.0642 548.7892 548.5618 548.4237 548.3431 548.2397 548.1183 547.9908 547.8706 547.7684 547.7017 547.6644 547.6688 547.723 547.8414 548.0146 548.2255 548.5062 548.9958 549.6653 550.3113 550.9985 551.8212 552.8533 553.6066 554.1286 554.3618 554.3541 554.2087 554.1481 554.3781 554.6693 555.2256 556.3457 558.2853 560.8616 563.8774 567.1138 570.6255 573.9092 576.299 577.0795 575.8729 572.8965 568.563 563.7227 559.4307 556.1857 554.0233 552.9964 553.6028 555.394 557.7331 559.7278 560.794 560.2998 559.0932 558.3403 558.2411 558.6162 559.0477 559.5316 559.5311 559.6506 560.9265 563.5048 566.3627 568.4228 568.7169 566.4074 564.8599 -9999 -9999 -9999 -9999 -9999 -9999 -9999 -9999 -9999 -9999 -9999 -9999 -9999 -9999 -9999 -9999 -9999 -9999 -9999 -9999 -9999 -9999 -9999 -9999 -9999 -9999 -9999 -9999 -9999 -9999 -9999 -9999 -9999 -9999 -9999 -9999 -9999 -9999 -9999 -9999 -9999 -9999 -9999 -9999 -9999 -9999 -9999 -9999 -9999 -9999 -9999 -9999 -9999 -9999 -9999 -9999 -9999 -9999 -9999 -9999 -9999 -9999 -9999 -9999 -9999 -9999 -9999 -9999 -9999 -9999 -9999 -9999 -9999 -9999 -9999 -9999 -9999 -9999 -9999 -9999 -9999 -9999 -9999 -9999 -9999 -9999 -9999 -9999 -9999 -9999 -9999 -9999 -9999 -9999 -9999 -9999 -9999 -9999 -9999 -9999 -9999 -9999 -9999 -9999 -9999 -9999 -9999
-9999 -9999 -9999 -9999 -9999 -9999 -9999 -9999 -9999 -9999 -9999 -9999 -9999 -9999 -9999 -9999 -9999 -9999 -9999 -9999 -9999 -9999 -9999 -9999 -9999 -9999 -9999 -9999 -9999 -9999 576.6782 574.3947 571.5881 568.1388 564.7833 563.5529 563.7847 565.3657 567.8158 570.369 572.5536 573.8863 574.0309 573.2834 572.2689 571.6952 572.1819 572.7092 572.6115 572.1047 571.7975 571.7743 571.1747 569.183 565.7636 561.8325 558.7396 557.8378 557.0771 556.0749 556.3972 556.6097 556.7024 556.9467 557.1193 557.3114 557.3737 557.2455 557.0656 556.693 557.6576 558.288 558.2973 558.5651 559.04 559.9605 559.1057 557.8852 556.1464 554.3384 552.6681 551.3324 550.9955 550.8385 551.1453 552.4842 554.7854 557.1236 558.2751 557.6909 555.8658 554.17 552.7488 551.3531 549.9896 548.9658 548.2971 547.9267 547.7919 547.8311 547.9675 548.1172 548.2316 548.285 548.2924 548.3181 548.404 548.6228 549.0005 549.6346 550.4713 551.0525 550.6812 550.204 550.0441 550.14 550.5076 551.1984 552.2619 553.6862 555.6063 557.251 558.1171 558.338 558.1252 557.2618 556.4722 557.1582 556.844 554.755 552.0148 550.1053 549.8099 549.5349 549.2372 548.9536 548.7172 548.5703 548.4471 548.3422 548.2358 548.1133 547.9763 547.8418 547.7318 547.6544 547.6177 547.6033 547.6461 547.7415 547.8893 548.121 548.5007 549.0118 549.538 549.8094 550.3625 550.8953 551.1377 551.2617 551.2989 551.2829 551.3134 551.598 552.1957 552.4658 552.7451 553.3404 554.554 556.2303 558.5874 561.6128 565.3763 569.2737 572.3346 573.6561 572.6883 569.7427 565.4367 560.8397 557.0297 554.3528 552.753 552.3503 553.4819 556.0632 559.0785 561.2982 563.2985 563.1161 561.6343 560.0043 559.2362 559.0907 559.2124 559.6259 560.2775 561.238 562.9061 565.3849 567.9248 569.4797 568.3199 567.7139 565.5139 -9999 -9999 -9999 -9999 -9999 -9999 -9999 -9999 -9999 -9999 -9999 -9999 -9999 -9999 -9999 -9999 -9999 -9999 -9999 -9999 -9999 -9999 -9999 -9999 -9999 -9999 -9999 -9999 -9999 -9999 -9999 -9999 -9999 -9999 -9999 -9999 -9999 -9999 -9999 -9999 -9999 -9999 -9999 -9999 -9999 -9999 -9999 -9999 -9999 -9999 -9999 -9999 -9999 -9999 -9999 -9999 -9999 -9999 -9999 -9999 -9999 -9999 -9999 -9999 -9999 -9999 -9999 -9999 -9999 -9999 -9999 -9999 -9999 -9999 -9999 -9999 -9999 -9999 -9999 -9999 -9999 -9999 -9999 -9999 -9999 -9999 -9999 -9999 -9999 -9999 -9999 -9999 -9999 -9999 -9999 -9999 -9999 -9999 -9999 -9999 -9999 -9999 -9999 -9999 -9999 -9999 -9999
-9999 -9999 -9999 -9999 -9999 -9999 -9999 -9999 -9999 -9999 -9999 -9999 -9999 -9999 -9999 -9999 -9999 -9999 -9999 -9999 -9999 -9999 -9999 -9999 -9999 -9999 -9999 -9999 -9999 -9999 575.8866 574.4374 572.3269 569.1085 565.3656 562.2924 561.8632 562.4858 564.1331 566.4495 568.83 570.6677 571.5721 571.3448 571.1788 570.5554 571.0875 571.7155 571.7302 571.1613 570.5885 570.0546 569.2623 567.4916 564.5152 560.9312 558.1605 556.8947 556.8832 557.2969 557.9377 558.4416 558.5488 558.4389 558.3778 558.1879 558.3066 558.308 558.1877 557.929 558.6237 558.82 558.8773 559.4642 559.947 559.1508 557.6326 555.8671 554.1121 552.8103 551.8069 551.1243 550.8357 551.1339 551.9196 553.6517 555.6774 557.636 557.9 556.4173 554.0809 552.1545 550.8593 549.7851 548.9297 548.3283 547.9728 547.8191 547.8278 547.9612 548.1636 548.3561 548.4775 548.5154 548.4858 548.4459 548.4713 548.6342 549.0482 549.7976 551.0591 551.7805 551.1945 550.632 550.3168 550.2723 550.5239 551.0954 551.7975 553.1093 555.1357 557.063 558.1832 558.859 559.5502 559.66 558.9612 558.605 557.5788 555.5444 552.7417 550.5243 550.2982 549.8159 549.4189 549.1001 548.8503 548.6851 548.5698 548.4874 548.4092 548.3071 548.1724 548.0181 547.8713 547.7488 547.6586 547.597 547.5813 547.6157 547.7062 547.8762 548.1566 548.5248 548.9023 549.1835 549.5644 549.6761 549.6719 549.6475 549.6282 549.6381 549.7718 550.2772 550.9368 551.2254 551.5568 551.9199 552.518 553.3318 554.8359 557.1211 560.3704 564.1362 567.4651 569.2821 568.7186 566.0507 562.1191 558.0864 554.9462 553.0187 552.2227 552.2172 553.4916 556.3297 559.9833 563.2224 565.4929 565.9464 564.4469 562.4844 561.2453 560.9936 561.4856 562.182 563.1469 564.3062 565.6451 567.575 569.3518 570.0101 569.1491 567.4631 -9999 -9999 -9999 -9999 -9999 -9999 -9999 -9999 -9999 -9999 -9999 -9999 -9999 -9999 -9999 -9999 -9999 -9999 -9999 -9999 -9999 -9999 -9999 -9999 -9999 -9999 -9999 -9999 -9999 -9999 -9999 -9999 -9999 -9999 -9999 -9999 -9999 -9999 -9999 -9999 -9999 -9999 -9999 -9999 -9999 -9999 -9999 -9999 -9999 -9999 -9999 -9999 -9999 -9999 -9999 -9999 -9999 -9999 -9999 -9999 -9999 -9999 -9999 -9999 -9999 -9999 -9999 -9999 -9999 -9999 -9999 -9999 -9999 -9999 -9999 -9999 -9999 -9999 -9999 -9999 -9999 -9999 -9999 -9999 -9999 -9999 -9999 -9999 -9999 -9999 -9999 -9999 -9999 -9999 -9999 -9999 -9999 -9999 -9999 -9999 -9999 -9999 -9999 -9999 -9999 -9999 -9999 -9999
-9999 -9999 -9999 -9999 -9999 -9999 -9999 -9999 -9999 -9999 -9999 -9999 -9999 -9999 -9999 -9999 -9999 -9999 -9999 -9999 -9999 -9999 -9999 -9999 -9999 -9999 -9999 -9999 -9999 -9999 575.3555 574.3544 572.6605 570.0476 566.8464 563.3372 560.9117 560.3424 561.0533 562.5168 564.59 566.5291 568.1743 569.2007 569.4767 569.2994 569.8607 570.1805 570.097 569.3859 568.4545 567.412 566.5366 565.4165 563.4283 560.9579 558.9532 558.2661 558.5204 558.738 558.7944 558.5718 558.4279 558.5598 558.6325 558.7534 559.2706 559.3887 559.2617 558.4861 558.7451 558.8065 559.0593 559.2025 558.6511 557.2161 555.4594 553.8839 552.7804 551.8812 551.2079 550.9878 550.9717 551.6859 553.3527 555.1949 556.1683 557.8215 556.9037 554.6396 552.3842 550.8575 549.812 549.0503 548.477 548.1063 547.9197 547.8794 547.9581 548.1356 548.3652 548.5829 548.7213 548.7498 548.6937 548.6058 548.5624 548.6613 549.0397 549.8734 551.4305 552.5752 551.5392 550.9243 550.5067 550.3188 550.3937 550.7454 551.3838 552.8708 554.9721 556.9666 558.1555 559.0963 560.4735 561.2664 561.0786 559.7181 558.1905 556.1454 553.4595 551.0958 549.9006 549.5292 549.2892 549.0891 548.9379 548.837 548.7605 548.703 548.6476 548.565 548.4431 548.2861 548.1183 547.9617 547.827 547.7188 547.6488 547.6243 547.6533 547.753 547.9383 548.1957 548.4654 548.6953 548.8977 548.9262 548.8712 548.8213 548.8255 548.9236 549.1765 549.6453 550.1229 550.6044 551.1277 551.3879 551.575 551.856 552.5637 553.9526 556.314 559.3521 562.1956 564.1461 563.9562 561.7996 558.5955 555.4794 553.2899 552.4696 552.5072 552.6736 554.1406 557.0596 560.9839 564.7635 567.4711 568.3851 566.9929 565.0101 563.7327 563.5422 564.1925 564.8923 565.8997 566.8885 567.163 568.6198 569.8396 570.0273 568.8481 -9999 -9999 -9999 -9999 -9999 -9999 -9999 -9999 -9999 -9999 -9999 -9999 -9999 -9999 -9999 -9999 -9999 -9999 -9999 -9999 -9999 -9999 -9999 -9999 -9999 -9999 -9999 -9999 -9999 -9999 -9999 -9999 -9999 -9999 -9999 -9999 -9999 -9999 -9999 -9999 -9999 -9999 -9999 -9999 -9999 -9999 -9999 -9999 -9999 -9999 -9999 -9999 -9999 -9999 -9999 -9999 -9999 -9999 -9999 -9999 -9999 -9999 -9999 -9999 -9999 -9999 -9999 -9999 -9999 -9999 -9999 -9999 -9999 -9999 -9999 -9999 -9999 -9999 -9999 -9999 -9999 -9999 -9999 -9999 -9999 -9999 -9999 -9999 -9999 -9999 -9999 -9999 -9999 -9999 -9999 -9999 -9999 -9999 -9999 -9999 -9999 -9999 -9999 -9999 -9999 -9999 -9999 -9999 -9999
-9999 -9999 -9999 -9999 -9999 -9999 -9999 -9999 -9999 -9999 -9999 -9999 -9999 -9999 -9999 -9999 -9999 -9999 -9999 -9999 -9999 -9999 -9999 -9999 573.0665 573.3103 573.7062 -9999 574.3286 574.6743 574.4532 573.6605 571.9091 569.9622 567.7922 564.3571 561.0663 559.2027 559.0408 559.7942 561.1359 562.597 564.0749 565.8819 567.1959 567.9136 568.5378 568.4853 567.9681 566.7001 565.0863 563.7073 562.8562 562.173 561.204 559.8687 558.4999 558.2807 558.2939 558.1402 557.7101 557.0891 556.685 556.6671 556.8107 557.1916 557.6432 558.0002 558.5204 558.6334 558.8003 558.7808 558.6359 557.8672 556.6599 555.1378 553.857 553.0947 552.3084 551.606 551.1724 551.0773 551.6478 553.0061 555.2108 557.1356 557.6123 556.8944 555.3124 553.0026 551.2631 550.1769 549.5505 548.8802 548.4141 548.1475 548.0373 548.0414 548.1403 548.3219 548.5546 548.7753 548.9264 548.9699 548.9065 548.7892 548.6946 548.7277 549.054 549.906 551.5853 552.5849 551.928 551.2025 550.6474 550.3253 550.2782 550.5538 551.2639 552.7427 554.7416 556.6683 557.8557 558.8022 559.9823 561.6575 561.85 560.1339 558.5723 556.6807 554.1665 551.7266 550.2784 549.6518 549.3589 549.191 549.1143 549.0728 549.0275 548.9843 548.9408 548.8722 548.7607 548.6128 548.444 548.275 548.1127 547.964 547.8413 547.7563 547.7189 547.7438 547.8438 548.0089 548.2029 548.3772 548.5043 548.5322 548.5086 548.5035 548.5735 548.7574 549.0687 549.4463 549.6923 550.2087 550.7491 551.1374 551.157 551.1302 551.2725 552.0446 553.3954 555.4398 557.4925 558.971 559.005 557.6266 555.4564 553.4258 552.3397 552.4493 553.3976 553.4753 555.3199 558.5685 562.5549 566.2116 568.7632 569.5696 568.6531 566.7952 565.5013 565.2793 565.9532 566.8345 567.8672 568.6714 569.188 569.7084 570.5502 570.7666 -9999 -9999 -9999 -9999 -9999 -9999 -9999 -9999 -9999 -9999 -9999 -9999 -9999 -9999 -9999 -9999 -9999 -9999 -9999 -9999 -9999 -9999 -9999 -9999 -9999 -9999 -9999 -9999 -9999 -9999 -9999 -9999 -9999 -9999 -9999 -9999 -9999 -9999 -9999 -9999 -9999 -9999 -9999 -9999 -9999 -9999 -9999 -9999 -9999 -9999 -9999 -9999 -9999 -9999 -9999 -9999 -9999 -9999 -9999 -9999 -9999 -9999 -9999 -9999 -9999 -9999 -9999 -9999 -9999 -9999 -9999 -9999 -9999 -9999 -9999 -9999 -9999 -9999 -9999 -9999 -9999 -9999 -9999 -9999 -9999 -9999 -9999 -9999 -9999 -9999 -9999 -9999 -9999 -9999 -9999 -9999 -9999 -9999 -9999 -9999 -9999 -9999 -9999 -9999 -9999 -9999 -9999 -9999 -9999 -9999
-9999 -9999 -9999 -9999 -9999 -9999 -9999 -9999 -9999 -9999 -9999 -9999 -9999 -9999 -9999 -9999 -9999 -9999 -9999 -9999 -9999 -9999 572.1147 571.9442 572.1798 572.5339 572.9313 573.3433 573.6041 573.7695 573.4552 572.5587 571.24 569.8044 567.6036 564.4276 561.1074 558.8622 557.981 558.0444 558.6649 559.4637 560.5149 562.0238 563.7849 565.4987 566.6035 566.608 565.2947 562.9838 561.1091 559.6494 558.9117 558.6145 558.5101 558.4578 558.2275 557.7358 557.1877 556.5789 555.6729 554.9271 554.5792 554.5472 554.7153 555.209 555.8522 556.6986 557.6132 558.4037 558.5486 558.2034 557.4442 556.1402 554.8779 553.7322 554.131 553.3695 552.4197 551.6365 551.1736 551.2619 552.3068 554.5381 556.9122 558.4562 557.317 555.9108 553.678 551.6838 550.4306 549.7001 549.2599 548.8182 548.4918 548.3084 548.2408 548.2587 548.3511 548.5159 548.7286 548.9416 549.096 549.1567 549.1166 549.0014 548.8779 548.847 549.0781 549.83 551.4084 552.6655 552.0195 551.3018 550.684 550.2794 550.1577 550.3921 551.1057 552.3714 554.0698 555.861 557.2901 558.267 559.2893 561.0593 561.9098 560.1785 558.7197 557.0891 554.9467 552.5662 550.9001 550.0262 549.6453 549.4281 549.3881 549.3754 549.3244 549.2799 549.2434 549.1917 549.0994 548.958 548.804 548.6462 548.4824 548.3063 548.1378 547.9943 547.8903 547.8414 547.8625 547.953 548.0867 548.2253 548.3347 548.3918 548.424 548.4827 548.6198 548.8719 549.2396 549.6462 549.7573 550.019 550.3419 550.5694 550.5737 550.5227 550.5806 550.9933 551.5456 552.719 553.9746 555.0341 555.191 554.4786 553.2372 552.2928 551.9208 552.4009 553.5558 554.8037 557.3954 560.9645 564.7167 567.7267 569.6966 570.2643 569.7248 568.2228 566.817 566.6187 567.4137 568.2195 569.0093 569.5372 569.8396 570.2308 -9999 -9999 -9999 -9999 -9999 -9999 -9999 -9999 -9999 -9999 -9999 -9999 -9999 -9999 -9999 -9999 -9999 -9999 -9999 -9999 -9999 -9999 -9999 -9999 -9999 -9999 -9999 -9999 -9999 -9999 -9999 -9999 -9999 -9999 -9999 -9999 -9999 -9999 -9999 -9999 -9999 -9999 -9999 -9999 -9999 -9999 -9999 -9999 -9999 -9999 -9999 -9999 -9999 -9999 -9999 -9999 -9999 -9999 -9999 -9999 -9999 -9999 -9999 -9999 -9999 -9999 -9999 -9999 -9999 -9999 -9999 -9999 -9999 -9999 -9999 -9999 -9999 -9999 -9999 -9999 -9999 -9999 -9999 -9999 -9999 -9999 -9999 -9999 -9999 -9999 -9999 -9999 -9999 -9999 -9999 -9999 -9999 -9999 -9999 -9999 -9999 -9999 -9999 -9999 -9999 -9999 -9999 -9999 -9999 -9999 -9999 -9999
-9999 -9999 -9999 -9999 -9999 -9999 -9999 -9999 -9999 -9999 -9999 -9999 -9999 -9999 -9999 -9999 -9999 -9999 -9999 -9999 -9999 570.6709 570.2965 570.3908 570.9682 571.5123 572.0979 572.4008 572.2882 571.8721 571.1538 570.1641 568.9547 567.4274 565.53 563.0882 560.5483 558.6121 557.5248 557.1745 557.3152 557.4451 557.8733 558.9699 560.2975 561.6066 562.7258 562.8889 561.4882 559.3317 557.7109 556.6558 556.1678 556.06 556.2072 556.5172 556.5119 556.0404 555.4482 554.7423 554.2146 553.7833 553.5965 553.6083 553.707 554.0021 554.5363 555.6727 557.0644 557.9869 557.7939 557.035 555.6813 554.3363 553.2256 552.8691 553.3289 553.2177 552.4252 551.6263 551.18 551.4124 553.2424 555.7472 557.5494 558.2786 557.0443 554.8395 552.4564 550.8905 549.9817 549.6262 549.2144 548.8799 548.6455 548.5195 548.4797 548.501 548.5787 548.7177 548.9026 549.0931 549.2462 549.3253 549.3171 549.2341 549.121 549.0495 549.1671 549.7945 551.3148 552.6516 552.1097 551.3307 550.6381 550.1743 549.9826 550.105 550.6168 551.5653 553.1653 555.0871 556.8481 557.8595 558.9213 560.3083 561.559 560.0175 558.7352 557.4524 555.8725 553.6163 551.6103 550.4759 549.9088 549.6608 549.658 549.6577 549.5693 549.5231 549.4973 549.4704 549.4147 549.2864 549.1549 549.0315 548.8916 548.7052 548.5013 548.3088 548.1459 548.0303 547.9807 548.0049 548.089 548.2026 548.3145 548.4067 548.4917 548.6034 548.7789 549.0398 549.3643 549.6596 549.7488 549.8372 549.9651 550.0515 550.0532 550.0659 550.0994 550.2533 550.5137 551.0811 551.7062 552.4727 552.6702 552.4775 552.1326 552.145 552.4323 553.2821 554.8526 557.2009 560.3831 563.8949 566.9398 568.9323 570.0346 570.3854 570.2155 569.5255 568.4987 568.4575 569.2147 569.6715 569.7386 569.8517 570.013 -9999 -9999 -9999 -9999 -9999 -9999 -9999 -9999 -9999 -9999 -9999 -9999 -9999 -9999 -9999 -9999 -9999 -9999 -9999 -9999 -9999 -9999 -9999 -9999 -9999 -9999 -9999 -9999 -9999 -9999 -9999 -9999 -9999 -9999 -9999 -9999 -9999 -9999 -9999 -9999 -9999 -9999 -9999 -9999 -9999 -9999 -9999 -9999 -9999 -9999 -9999 -9999 -9999 -9999 -9999 -9999 -9999 -9999 -9999 -9999 -9999 -9999 -9999 -9999 -9999 -9999 -9999 -9999 -9999 -9999 -9999 -9999 -9999 -9999 -9999 -9999 -9999 -9999 -9999 -9999 -9999 -9999 -9999 -9999 -9999 -9999 -9999 -9999 -9999 -9999 -9999 -9999 -9999 -9999 -9999 -9999 -9999 -9999 -9999 -9999 -9999 -9999 -9999 -9999 -9999 -9999 -9999 -9999 -9999 -9999 -9999 -9999 -9999
-9999 -9999 -9999 -9999 -9999 -9999 -9999 -9999 -9999 -9999 -9999 -9999 -9999 -9999 -9999 -9999 -9999 -9999 -9999 -9999 -9999 568.0547 567.5538 567.6804 568.53 569.5433 570.4297 570.5639 569.9193 568.8218 567.545 566.0956 564.9166 563.7234 562.9719 561.5745 560.1189 558.7971 557.7533 557.1796 557.211 557.0054 556.7792 557.0753 557.5953 558.2245 558.738 558.7436 557.8668 556.8237 555.9623 555.3512 554.9877 554.844 554.9031 555.0685 555.0401 554.7146 554.2882 553.9766 553.7587 553.6328 553.6503 553.7322 553.6301 553.6074 553.8799 554.6376 555.8976 556.3005 555.9831 555.2005 554.0408 552.9376 552.2318 552.11 552.498 552.6337 552.1608 551.5326 551.18 551.6014 553.6119 556.042 557.3146 557.3565 555.7628 553.4966 551.7114 550.4796 549.702 549.4594 549.2102 549.0107 548.8463 548.7509 548.7245 548.7474 548.8119 548.926 549.0813 549.2455 549.3837 549.4775 549.5089 549.4709 549.4054 549.3375 549.3306 549.8002 551.2811 552.683 552.5104 551.337 550.5102 550.0283 549.8115 549.8537 550.2845 551.2306 552.7446 554.5551 556.3513 557.3414 558.3903 559.5882 560.488 559.6681 558.6454 557.7053 556.6639 554.6752 552.4807 551.0051 550.2118 549.845 549.7404 549.7063 549.66 549.6599 549.6599 549.6602 549.6584 549.5396 549.4545 549.387 549.3015 549.1117 548.8849 548.658 548.4519 548.2844 548.1758 548.1411 548.178 548.2668 548.3809 548.5003 548.6239 548.769 548.9572 549.1947 549.4536 549.6597 549.699 549.6606 549.6604 549.6611 549.6664 549.7853 549.8221 549.8606 549.9664 550.1973 550.5496 551.0388 551.217 551.4359 551.9174 552.8785 554.0952 555.7214 557.8754 560.7512 563.9121 566.7701 568.7885 569.7555 570.0605 570.043 570.2012 -9999 570.0608 -9999 -9999 -9999 -9999 -9999 -9999 -9999 -9999 -9999 -9999 -9999 -9999 -9999 -9999 -9999 -9999 -9999 -9999 -9999 -9999 -9999 -9999 -9999 -9999 -9999 -9999 -9999 -9999 -9999 -9999 -9999 -9999 -9999 -9999 -9999 -9999 -9999 -9999 -9999 -9999 -9999 -9999 -9999 -9999 -9999 -9999 -9999 -9999 -9999 -9999 -9999 -9999 -9999 -9999 -9999 -9999 -9999 -9999 -9999 -9999 -9999 -9999 -9999 -9999 -9999 -9999 -9999 -9999 -9999 -9999 -9999 -9999 -9999 -9999 -9999 -9999 -9999 -9999 -9999 -9999 -9999 -9999 -9999 -9999 -9999 -9999 -9999 -9999 -9999 -9999 -9999 -9999 -9999 -9999 -9999 -9999 -9999 -9999 -9999 -9999 -9999 -9999 -9999 -9999 -9999 -9999 -9999 -9999 -9999 -9999 -9999 -9999 -9999 -9999 -9999 -9999 -9999 -9999 -9999
-9999 -9999 -9999 -9999 -9999 -9999 -9999 -9999 -9999 -9999 -9999 -9999 -9999 -9999 -9999 -9999 -9999 -9999 -9999 -9999 -9999 565.8591 565.1799 565.0362 565.6265 566.423 567.3136 567.2053 566.0518 564.5513 563.0519 561.452 560.9879 561.4357 561.7911 561.3488 560.936 560.1539 559.0145 557.9754 557.7966 558.0154 557.5835 556.4305 556.2679 556.3386 556.2609 556.1732 555.7767 555.418 555.1901 554.9756 554.713 554.4689 554.3393 554.3107 554.2518 554.1343 554.0891 554.2158 554.3701 554.5467 554.7451 554.8819 554.3649 553.8249 553.6445 553.8802 554.3646 554.5079 554.3298 553.7878 552.9161 552.2209 551.7104 551.5784 551.8698 552.1283 551.8669 551.4165 551.18 551.551 552.9222 554.8589 555.7309 555.3497 553.8018 552.4136 551.2933 550.4982 549.9681 549.658 549.3853 549.2625 549.1031 548.9932 548.9589 548.9798 549.037 549.1314 549.2611 549.3964 549.5068 549.5974 549.6597 549.66 549.6596 549.6548 549.5333 549.8361 551.1978 552.5919 552.0555 551.0044 550.1967 549.8419 549.6874 549.6602 550.036 551.0887 552.6215 554.416 556.1732 556.8641 557.489 558.4822 559.9153 559.8607 558.6196 557.9034 557.1155 555.5067 553.3721 551.5343 550.5322 550.0082 549.7801 549.6958 549.6696 549.6885 549.7154 549.7344 549.7293 549.6606 549.6598 549.6606 549.6543 549.4601 549.2325 548.9935 548.7664 548.5686 548.4193 548.3369 548.3285 548.3864 548.4916 548.6232 548.7684 548.9296 549.1143 549.3177 549.5116 549.6431 549.6598 549.5578 549.4708 549.4338 549.4854 549.6517 549.6583 549.6605 549.7391 549.8076 550.0122 550.3799 550.788 551.4915 552.8487 554.6185 556.7805 559.1237 561.5979 564.358 566.9557 568.8737 569.6291 569.9988 569.7042 569.4191 -9999 -9999 -9999 -9999 -9999 -9999 -9999 -9999 -9999 -9999 -9999 -9999 -9999 -9999 -9999 -9999 -9999 -9999 -9999 -9999 -9999 -9999 -9999 -9999 -9999 -9999 -9999 -9999 -9999 -9999 -9999 -9999 -9999 -9999 -9999 -9999 -9999 -9999 -9999 -9999 -9999 -9999 -9999 -9999 -9999 -9999 -9999 -9999 -9999 -9999 -9999 -9999 -9999 -9999 -9999 -9999 -9999 -9999 -9999 -9999 -9999 -9999 -9999 -9999 -9999 -9999 -9999 -9999 -9999 -9999 -9999 -9999 -9999 -9999 -9999 -9999 -9999 -9999 -9999 -9999 -9999 -9999 -9999 -9999 -9999 -9999 -9999 -9999 -9999 -9999 -9999 -9999 -9999 -9999 -9999 -9999 -9999 -9999 -9999 -9999 -9999 -9999 -9999 -9999 -9999 -9999 -9999 -9999 -9999 -9999 -9999 -9999 -9999 -9999 -9999 -9999 -9999 -9999 -9999 -9999 -9999 -9999
-9999 -9999 -9999 -9999 -9999 -9999 -9999 -9999 -9999 -9999 -9999 -9999 -9999 -9999 -9999 -9999 -9999 -9999 -9999 -9999 565.4625 565.0004 564.1738 563.9698 563.7655 563.5646 564.007 563.5698 562.0933 560.8484 559.9307 558.9398 559.8517 561.7828 563.3864 564.1617 564.1999 563.398 561.8923 560.198 559.1354 559.3621 557.9771 556.6862 556.0463 555.7339 555.2567 554.9543 554.7998 554.8184 554.9591 554.9985 554.8183 554.5162 554.2687 554.1522 554.1414 554.2637 554.6561 555.3418 556.168 556.7643 557.0428 556.9059 555.7855 554.4381 553.7012 553.4458 553.4778 553.5002 553.4133 553.1394 552.6785 552.1011 551.5728 551.3175 551.437 551.7018 551.5691 551.2784 551.0884 551.1888 551.7156 552.8967 553.3201 552.9697 552.333 551.678 551.1477 550.787 550.4929 550.1048 549.7062 549.6399 549.4003 549.2324 549.1707 549.186 549.239 549.3201 549.4297 549.537 549.5991 549.66 549.7083 549.7163 549.7092 549.6879 549.6598 549.923 550.7825 551.9811 551.2064 550.329 549.6986 549.6571 549.6593 549.5219 549.7089 550.7947 552.4776 554.4894 556.4412 557.5871 558.4193 558.2731 559.7911 559.9108 558.6146 558.0229 557.3705 556.104 554.085 552.1456 550.9 550.1799 549.8194 549.6722 549.6397 549.6684 549.7159 549.7566 549.7755 549.7698 549.7916 549.8104 549.7936 549.6606 549.4904 549.2687 549.0454 548.8431 548.6775 548.5651 548.5186 548.541 548.6245 548.7515 548.9022 549.0663 549.2397 549.4097 549.5485 549.6141 549.576 549.4383 549.2874 549.1902 549.1933 549.286 549.3475 549.4508 549.6498 549.7079 549.9933 550.5406 551.4119 552.8685 554.9464 557.4222 560.1284 562.6942 565.0414 567.2238 569.1017 570.2124 570.3915 569.977 568.9203 -9999 -9999 -9999 -9999 -9999 -9999 -9999 -9999 -9999 -9999 -9999 -9999 -9999 -9999 -9999 -9999 -9999 -9999 -9999 -9999 -9999 -9999 -9999 -9999 -9999 -9999 -9999 -9999 -9999 -9999 -9999 -9999 -9999 -9999 -9999 -9999 -9999 -9999 -9999 -9999 -9999 -9999 -9999 -9999 -9999 -9999 -9999 -9999 -9999 -9999 -9999 -9999 -9999 -9999 -9999 -9999 -9999 -9999 -9999 -9999 -9999 -9999 -9999 -9999 -9999 -9999 -9999 -9999 -9999 -9999 -9999 -9999 -9999 -9999 -9999 -9999 -9999 -9999 -9999 -9999 -9999 -9999 -9999 -9999 -9999 -9999 -9999 -9999 -9999 -9999 -9999 -9999 -9999 -9999 -9999 -9999 -9999 -9999 -9999 -9999 -9999 -9999 -9999 -9999 -9999 -9999 -9999 -9999 -9999 -9999 -9999 -9999 -9999 -9999 -9999 -9999 -9999 -9999 -9999 -9999 -9999 -9999 -9999
-9999 -9999 -9999 -9999 -9999 -9999 -9999 -9999 -9999 -9999 -9999 -9999 -9999 -9999 -9999 -9999 -9999 -9999 -9999 -9999 -9999 566.0482 565.5976 564.7361 563.5 562.246 561.8658 561.2449 560.1585 559.4218 559.9869 560.6553 562.5452 565.1161 567.3767 568.7083 568.8776 567.8793 565.9667 563.6024 561.3333 559.6064 558.0651 557.1172 556.3466 555.7051 554.9308 554.4919 554.5551 554.8381 555.09 555.1612 555.0012 554.7184 554.4995 554.4609 554.6163 555.0087 555.8402 557.0588 558.5016 559.543 559.5999 558.6484 557.1497 555.1445 553.8699 553.2272 552.9973 552.9554 552.9586 552.8911 552.6854 552.1772 551.6564 551.2471 551.1329 551.2202 551.2205 551.1396 551.0931 551.1794 551.2092 551.3855 551.513 551.594 551.4718 551.2915 551.1801 551.1772 551.1333 550.7314 550.2947 549.9999 549.6655 549.4437 549.3511 549.3616 549.4083 549.4753 549.5715 549.6596 549.6601 549.6927 549.7133 549.704 549.679 549.6525 549.6599 549.812 550.1913 550.5687 549.9468 549.6533 549.431 549.5236 549.6904 549.5872 549.498 550.2337 552.1764 554.6475 556.8506 558.1147 558.7775 558.324 559.7802 559.9602 558.7181 558.2391 557.6295 556.4675 554.5289 552.6178 551.1773 550.301 549.8396 549.6417 549.5967 549.6318 549.6959 549.7574 549.8011 549.8283 549.8571 549.8738 549.8551 549.7738 549.6583 549.4554 549.2552 549.0729 548.916 548.7969 548.7273 548.7174 548.7709 548.8788 549.021 549.1783 549.3378 549.4805 549.5795 549.5989 549.5115 549.319 549.0892 548.905 548.8299 548.8611 548.9418 549.0834 549.3267 549.6627 550.3597 551.371 552.8983 555.0204 557.6451 560.5938 563.5865 566.069 567.8164 569.14 570.3273 571.1594 571.0831 569.961 568.0432 566.349 566.3049 568.3486 571.1063 573.2375 -9999 -9999 -9999 -9999 -9999 -9999 -9999 -9999 -9999 -9999 -9999 -9999 -9999 -9999 -9999 -9999 -9999 -9999 -9999 -9999 -9999 -9999 -9999 -9999 -9999 -9999 -9999 -9999 -9999 -9999 -9999 -9999 -9999 -9999 -9999 -9999 -9999 -9999 -9999 -9999 -9999 -9999 -9999 -9999 -9999 -9999 -9999 -9999 -9999 -9999 -9999 -9999 -9999 -9999 -9999 -9999 -9999 -9999 -9999 -9999 -9999 -9999 -9999 -9999 -9999 -9999 -9999 -9999 -9999 -9999 -9999 -9999 -9999 -9999 -9999 -9999 -9999 -9999 -9999 -9999 -9999 -9999 -9999 -9999 -9999 -9999 -9999 -9999 -9999 -9999 -9999 -9999 -9999 -9999 -9999 -9999 -9999 -9999 -9999 -9999 -9999 -9999 -9999 -9999 -9999 -9999 -9999 -9999 -9999 -9999 -9999 -9999 -9999 -9999 -9999 -9999 -9999 -9999
-9999 -9999 -9999 -9999 -9999 -9999 -9999 -9999 -9999 -9999 -9999 -9999 -9999 -9999 -9999 -9999 -9999 -9999 -9999 -9999 -9999 568.21 567.8035 566.3451 564.4141 562.466 561.4757 560.9842 560.7887 561.1555 562.33 564.1362 566.6819 569.656 572.2859 573.866 573.9796 572.7152 570.4775 567.7136 564.7278 561.9491 559.7202 558.1791 556.9896 555.848 554.8665 554.365 554.6368 555.3289 555.5811 555.484 555.2594 555.0629 555.0349 555.2554 555.714 556.3943 557.6735 559.3272 561.1104 562.3398 561.3874 559.4666 557.6591 555.3102 553.8285 553.0453 552.7282 552.6746 552.7398 552.787 552.6931 552.2662 551.8057 551.3501 551.0668 550.9602 550.9432 550.9823 551.0542 551.1389 551.1799 551.1787 551.1431 551.1746 551.1717 551.18 551.2555 551.3611 551.3827 551.171 550.7975 550.4008 549.9883 549.6625 549.5113 549.5164 549.5459 549.5841 549.6599 549.7125 549.7159 549.7189 549.7095 549.6792 549.6417 549.6119 549.6106 549.6597 549.6931 549.7262 549.5752 549.6885 549.7869 550.0552 550.4687 550.3616 549.8721 550.428 552.1845 554.7341 556.9976 558.2502 558.8076 558.9712 560.0623 560.5459 559.3261 558.7039 557.9784 556.8771 554.8987 552.8311 551.2559 550.3202 549.819 549.6001 549.5511 549.5934 549.6715 549.7491 549.8088 549.8483 549.8741 549.8807 549.8533 549.778 549.6603 549.526 549.3807 549.2399 549.1116 549.0059 548.9325 548.9025 548.9266 549.007 549.1297 549.2733 549.4178 549.5409 549.6138 549.6119 549.4929 549.2285 548.8969 548.6078 548.457 548.4558 548.5564 548.7282 549.0652 549.7189 551.0189 552.6718 554.8208 557.4938 560.5743 563.8048 566.8973 569.1174 570.1047 570.5541 571.3552 571.9895 571.8043 570.2119 567.5757 565.1147 564.8561 567.103 570.5308 573.3345 574.2178 573.2662 -9999 -9999 -9999 -9999 -9999 -9999 -9999 -9999 -9999 -9999 -9999 -9999 -9999 -9999 -9999 -9999 -9999 -9999 -9999 -9999 -9999 -9999 -9999 -9999 -9999 -9999 -9999 -9999 -9999 -9999 -9999 -9999 -9999 -9999 -9999 -9999 -9999 -9999 -9999 -9999 -9999 -9999 -9999 -9999 -9999 -9999 -9999 -9999 -9999 -9999 -9999 -9999 -9999 -9999 -9999 -9999 -9999 -9999 -9999 -9999 -9999 -9999 -9999 -9999 -9999 -9999 -9999 -9999 -9999 -9999 -9999 -9999 -9999 -9999 -9999 -9999 -9999 -9999 -9999 -9999 -9999 -9999 -9999 -9999 -9999 -9999 -9999 -9999 -9999 -9999 -9999 -9999 -9999 -9999 -9999 -9999 -9999 -9999 -9999 -9999 -9999 -9999 -9999 -9999 -9999 -9999 -9999 -9999 -9999 -9999 -9999 -9999 -9999 -9999 -9999 -9999
-9999 -9999 -9999 -9999 -9999 -9999 -9999 -9999 -9999 -9999 -9999 -9999 -9999 -9999 -9999 -9999 -9999 -9999 -9999 -9999 -9999 570.7654 569.779 567.9286 565.6127 563.588 562.334 562.1533 562.7538 563.8878 565.6694 568.1653 571.1187 574.2799 577.031 578.6192 578.5332 577.0491 574.6921 571.8522 568.6451 565.3948 562.4573 559.9592 557.9325 556.2977 555.0352 554.4193 554.8196 555.871 556.3016 556.0669 555.8058 555.7929 556.0988 556.7656 557.6814 558.7399 560.1987 561.8221 563.6409 564.031 561.5623 560.011 557.4611 554.9755 553.5776 552.8618 552.5891 552.5737 552.6753 552.7619 552.7006 552.394 551.9846 551.571 551.2261 551.0081 550.8945 550.9227 551.0342 551.1216 551.1559 551.1583 551.1799 551.18 551.18 551.2389 551.3492 551.4599 551.4993 551.4021 551.1716 550.7881 550.3302 549.9174 549.6625 549.6593 549.6598 549.6603 549.7178 549.7538 549.7543 549.7395 549.713 549.6782 549.6533 549.6508 549.6704 549.6903 549.6665 549.7597 550.1318 550.9229 551.3946 551.8969 552.2717 551.9906 551.1445 551.016 552.3922 554.8124 557.0309 558.2273 558.7943 559.0691 560.4192 561.6407 560.0599 558.9119 558.0872 556.965 554.9717 552.8599 551.2479 550.2885 549.7758 549.5547 549.5098 549.5596 549.6476 549.7358 549.8033 549.8448 549.8635 549.8594 549.826 549.7574 549.66 549.5612 549.4558 549.3527 549.2573 549.1755 549.1135 549.0789 549.0834 549.136 549.2333 549.3578 549.488 549.6003 549.66 549.6602 549.5404 549.1909 548.7407 548.3372 548.1318 548.1316 548.2788 548.478 548.9136 549.846 551.6622 553.9326 556.655 559.8872 563.3856 566.9174 569.924 571.7708 572.0571 571.7823 572.0224 572.3871 572.0923 570.5997 567.6572 564.7133 563.6675 565.9244 569.5953 572.7118 573.8065 572.9397 571.0203 -9999 -9999 -9999 -9999 -9999 -9999 -9999 -9999 -9999 -9999 -9999 -9999 -9999 -9999 -9999 -9999 -9999 -9999 -9999 -9999 -9999 -9999 -9999 -9999 -9999 -9999 -9999 -9999 -9999 -9999 -9999 -9999 -9999 -9999 -9999 -9999 -9999 -9999 -9999 -9999 -9999 -9999 -9999 -9999 -9999 -9999 -9999 -9999 -9999 -9999 -9999 -9999 -9999 -9999 -9999 -9999 -9999 -9999 -9999 -9999 -9999 -9999 -9999 -9999 -9999 -9999 -9999 -9999 -9999 -9999 -9999 -9999 -9999 -9999 -9999 -9999 -9999 -9999 -9999 -9999 -9999 -9999 -9999 -9999 -9999 -9999 -9999 -9999 -9999 -9999 -9999 -9999 -9999 -9999 -9999 -9999 -9999 -9999 -9999 -9999 -9999 -9999 -9999 -9999 -9999 -9999 -9999 -9999 -9999 -9999 -9999 -9999 -9999 -9999 -9999
-9999 -9999 -9999 -9999 -9999 -9999 -9999 -9999 -9999 -9999 -9999 -9999 -9999 -9999 -9999 -9999 -9999 -9999 -9999 -9999 -9999 -9999 570.8062 568.5891 566.3737 564.8024 564.046 564.2786 565.3984 567.0638 569.2853 572.1132 575.2108 578.2836 580.8358 582.1934 581.8417 580.2379 578.0117 575.4054 572.377 569.0589 565.7087 562.459 559.4118 556.9542 555.4664 554.7015 554.9042 555.8317 556.7872 556.7771 556.8357 557.266 558.0603 559.3242 560.7291 562.0129 563.1763 564.3533 565.1086 563.455 561.9934 559.4483 556.7886 554.5677 553.3575 552.7748 552.5958 552.6503 552.7896 552.8954 552.8861 552.6899 552.2681 551.8644 551.541 551.2675 551.0882 551.0519 551.1237 551.174 551.1732 551.1692 551.1915 551.2169 551.2629 551.3427 551.4392 551.5215 551.5641 551.5437 551.4319 551.1686 550.7067 550.2195 549.8623 549.7334 549.7292 549.7784 549.8148 549.8185 549.7953 549.7627 549.733 549.7209 549.7532 549.8481 550.0067 550.213 550.4548 551.0663 551.9551 552.9991 553.5826 553.9971 554.0255 553.3325 552.3232 551.5791 552.7712 554.9135 556.9919 558.0124 558.5576 558.714 560.563 561.4594 560.608 559.1031 558.0518 556.7984 554.814 552.7778 551.2076 550.2535 549.7443 549.5261 549.4837 549.5355 549.6256 549.7167 549.7864 549.8264 549.8387 549.8277 549.7932 549.7352 549.66 549.585 549.5059 549.4283 549.3588 549.3008 549.2572 549.2305 549.2275 549.2595 549.3307 549.4319 549.5468 549.6598 549.7362 549.7616 549.6534 549.2056 548.648 548.1416 547.9363 547.9405 548.1213 548.3217 548.8466 550.022 552.144 554.8595 558.0645 561.7863 565.6678 569.238 572.0839 573.6094 573.2205 572.1581 572.0977 572.1196 571.5845 569.9238 566.84 563.7546 562.3569 564.4177 567.9365 571.0989 572.4287 572.1814 571.4015 570.1294 -9999 -9999 -9999 -9999 -9999 -9999 -9999 -9999 -9999 -9999 -9999 -9999 -9999 -9999 -9999 -9999 -9999 -9999 -9999 -9999 -9999 -9999 -9999 -9999 -9999 -9999 -9999 -9999 -9999 -9999 -9999 -9999 -9999 -9999 -9999 -9999 -9999 -9999 -9999 -9999 -9999 -9999 -9999 -9999 -9999 -9999 -9999 -9999 -9999 -9999 -9999 -9999 -9999 -9999 -9999 -9999 -9999 -9999 -9999 -9999 -9999 -9999 -9999 -9999 -9999 -9999 -9999 -9999 -9999 -9999 -9999 -9999 -9999 -9999 -9999 -9999 -9999 -9999 -9999 -9999 -9999 -9999 -9999 -9999 -9999 -9999 -9999 -9999 -9999 -9999 -9999 -9999 -9999 -9999 -9999 -9999 -9999 -9999 -9999 -9999 -9999 -9999 -9999 -9999 -9999 -9999 -9999 -9999 -9999 -9999 -9999 -9999 -9999 -9999
-9999 -9999 -9999 -9999 -9999 -9999 -9999 -9999 -9999 -9999 -9999 -9999 -9999 -9999 -9999 -9999 -9999 -9999 -9999 -9999 -9999 -9999 -9999 568.425 567.009 566.2149 566.2048 566.9352 568.3389 570.3577 572.7803 575.6955 578.6539 -9999 -9999 -9999 -9999 582.0746 580.1017 577.9189 575.3087 572.2541 568.8601 565.2817 561.6938 558.6552 556.6749 555.6792 555.5812 556.0927 557.0355 557.8733 558.6965 559.8392 561.2946 562.7696 564.3239 565.4684 565.96 565.9331 565.3622 563.4178 560.9062 558.3292 556.0522 554.298 553.3263 552.8671 552.777 552.9053 553.0999 553.2022 553.1908 553.0419 552.6972 552.2648 551.9882 551.6771 551.4339 551.3203 551.3218 551.304 551.236 551.2084 551.2439 551.2878 551.369 551.4562 551.5246 551.5754 551.6295 551.698 551.7356 551.6212 551.199 550.6216 550.1166 549.8485 549.8296 549.946 549.9659 549.9194 549.8495 549.7917 549.7693 549.8086 549.9455 550.2087 550.6086 551.1282 551.5895 552.6696 553.9586 555.1052 555.6402 555.7776 555.4897 554.4877 553.375 552.6836 553.3212 554.9317 556.7794 557.432 557.6245 558.439 560.4023 560.9683 560.3887 559.3474 557.8881 556.3701 554.4769 552.6635 551.1899 550.2814 549.7799 549.5506 549.4929 549.5305 549.609 549.6919 549.7574 549.795 549.8049 549.7929 549.7625 549.7161 549.66 549.6038 549.5437 549.483 549.4288 549.3872 549.3601 549.3463 549.3465 549.3677 549.4167 549.4904 549.5752 549.6601 549.7617 549.7952 549.6586 549.2104 548.6407 548.1295 547.8384 547.7482 547.8411 548.1121 548.7542 550.2584 552.5248 555.3746 558.8058 562.6524 566.4792 569.7916 572.3875 573.2907 572.9558 571.83 571.2938 570.8345 569.9185 567.7901 564.6591 561.8968 560.9115 562.6754 565.756 568.7582 570.7164 571.5365 571.9584 572.0018 571.5388 -9999 -9999 -9999 -9999 -9999 -9999 -9999 -9999 -9999 -9999 -9999 -9999 -9999 -9999 -9999 -9999 -9999 -9999 -9999 -9999 -9999 -9999 -9999 -9999 -9999 -9999 -9999 -9999 -9999 -9999 -9999 -9999 -9999 -9999 -9999 -9999 -9999 -9999 -9999 -9999 -9999 -9999 -9999 -9999 -9999 -9999 -9999 -9999 -9999 -9999 -9999 -9999 -9999 -9999 -9999 -9999 -9999 -9999 -9999 -9999 -9999 -9999 -9999 -9999 -9999 -9999 -9999 -9999 -9999 -9999 -9999 -9999 -9999 -9999 -9999 -9999 -9999 -9999 -9999 -9999 -9999 -9999 -9999 -9999 -9999 -9999 -9999 -9999 -9999 -9999 -9999 -9999 -9999 -9999 -9999 -9999 -9999 -9999 -9999 -9999 -9999 -9999 -9999 -9999 -9999 -9999 -9999 -9999 -9999 -9999 -9999 -9999 -9999
-9999 -9999 -9999 -9999 -9999 -9999 -9999 -9999 -9999 -9999 -9999 -9999 -9999 -9999 -9999 -9999 -9999 -9999 -9999 -9999 -9999 -9999 -9999 -9999 -9999 -9999 568.8235 569.9274 571.4617 573.568 -9999 -9999 -9999 -9999 -9999 -9999 -9999 -9999 580.7629 579.025 576.8688 574.3451 571.3947 568.0731 564.6249 561.4966 559.134 557.7524 557.5127 558.231 559.7831 561.3593 562.5575 563.9043 565.313 566.7111 567.6995 567.6567 567.0504 565.3186 563.6807 561.789 559.674 557.5523 555.7366 554.3414 553.5826 553.1768 553.126 553.3163 553.5876 553.676 553.654 553.5378 553.2966 552.9086 552.7014 552.2499 551.9282 551.6869 551.5743 551.4629 551.3181 551.2479 551.3034 551.3881 551.5053 551.5929 551.6287 551.655 551.7455 551.9535 552.2311 552.3933 552.0304 551.2525 550.5146 550.0492 549.9706 550.1328 550.1759 550.0636 549.9202 549.8245 549.8155 549.9294 550.2115 550.6974 551.4071 552.3342 553.0326 554.254 555.5843 556.6271 557.1312 557.0553 556.4618 555.4457 554.1578 553.356 553.5524 554.6248 556.3315 557.0758 557.4108 558.2692 559.9485 560.1383 559.4788 558.5859 557.4096 556.1238 554.5397 552.8641 551.4218 550.5314 549.9823 549.6853 549.5668 549.5588 549.6044 549.6651 549.7181 549.7521 549.7639 549.757 549.7349 549.7007 549.66 549.6191 549.5747 549.5271 549.4819 549.4474 549.4291 549.4257 549.4333 549.4529 549.4895 549.5437 549.6055 549.6603 549.772 549.8053 549.6579 549.2158 548.6495 548.1295 547.7777 547.5858 547.5573 547.7637 548.4233 550.154 552.4996 555.3058 558.5033 562.026 565.4237 568.0458 570.1045 570.6617 570.1957 569.4716 568.9608 568.1738 566.8082 564.598 561.8123 560.1736 560.3463 561.6225 563.6208 565.9835 568.4118 570.5052 572.2892 573.6467 574.0212 -9999 -9999 -9999 -9999 -9999 -9999 -9999 -9999 -9999 -9999 -9999 -9999 -9999 -9999 -9999 -9999 -9999 -9999 -9999 -9999 -9999 -9999 -9999 -9999 -9999 -9999 -9999 -9999 -9999 -9999 -9999 -9999 -9999 -9999 -9999 -9999 -9999 -9999 -9999 -9999 -9999 -9999 -9999 -9999 -9999 -9999 -9999 -9999 -9999 -9999 -9999 -9999 -9999 -9999 -9999 -9999 -9999 -9999 -9999 -9999 -9999 -9999 -9999 -9999 -9999 -9999 -9999 -9999 -9999 -9999 -9999 -9999 -9999 -9999 -9999 -9999 -9999 -9999 -9999 -9999 -9999 -9999 -9999 -9999 -9999 -9999 -9999 -9999 -9999 -9999 -9999 -9999 -9999 -9999 -9999 -9999 -9999 -9999 -9999 -9999 -9999 -9999 -9999 -9999 -9999 -9999 -9999 -9999 -9999 -9999 -9999 -9999 -9999
-9999 -9999 -9999 -9999 -9999 -9999 -9999 -9999 -9999 -9999 -9999 -9999 -9999 -9999 -9999 -9999 -9999 -9999 -9999 -9999 -9999 -9999 -9999 -9999 -9999 -9999 -9999 -9999 -9999 -9999 -9999 -9999 -9999 -9999 -9999 -9999 -9999 -9999 -9999 -9999 576.519 574.7462 572.7386 570.3165 567.6979 565.0394 562.6774 561.0621 560.6732 561.5872 563.505 565.4161 566.5206 567.4929 568.398 569.1927 569.3381 567.59 565.3796 562.9685 561.1311 559.9143 558.5903 557.188 555.8521 554.8217 554.1617 553.6849 553.6075 553.8054 554.1774 554.2271 554.2245 554.2173 554.1873 554.0996 553.8559 553.0522 552.6179 552.1571 551.8663 551.6226 551.3976 551.2972 551.3732 551.507 551.6731 551.7688 551.7825 551.799 551.9597 552.3905 553.0367 553.6293 553.2729 552.2126 551.0934 550.3514 550.1671 550.3483 550.4694 550.2531 550.0043 549.8566 549.8639 550.068 550.5261 551.2913 552.4324 553.4647 554.4 555.5952 556.7661 557.7128 558.1737 557.8674 556.9036 555.6793 554.3179 553.5616 553.6029 554.4835 556.1942 557.1112 557.5797 558.281 559.8499 559.1145 558.6324 558.0986 557.5073 556.8533 555.5429 553.8737 552.377 551.2385 550.4669 549.9917 549.7404 549.6392 549.6227 549.6433 549.6741 549.7014 549.7181 549.7213 549.711 549.6891 549.66 549.6301 549.5989 549.564 549.5272 549.4958 549.4784 549.4779 549.4907 549.5129 549.5465 549.5952 549.6599 549.7213 549.8049 549.8165 549.6578 549.2196 548.6582 548.1281 547.772 547.513 547.3979 547.5586 548.2344 549.8301 552.0989 554.7492 557.4962 560.356 563.2524 565.4521 566.6133 566.4905 565.9803 565.5891 565.1936 564.4542 563.2248 561.4797 559.7487 559.2651 560.8017 561.4364 562.4538 564.0031 566.1595 569.4128 572.4731 574.6691 575.6433 575.6376 -9999 -9999 -9999 -9999 -9999 -9999 -9999 -9999 -9999 -9999 -9999 -9999 -9999 -9999 -9999 -9999 -9999 -9999 -9999 -9999 -9999 -9999 -9999 -9999 -9999 -9999 -9999 -9999 -9999 -9999 -9999 -9999 -9999 -9999 -9999 -9999 -9999 -9999 -9999 -9999 -9999 -9999 -9999 -9999 -9999 -9999 -9999 -9999 -9999 -9999 -9999 -9999 -9999 -9999 -9999 -9999 -9999 -9999 -9999 -9999 -9999 -9999 -9999 -9999 -9999 -9999 -9999 -9999 -9999 -9999 -9999 -9999 -9999 -9999 -9999 -9999 -9999 -9999 -9999 -9999 -9999 -9999 -9999 -9999 -9999 -9999 -9999 -9999 -9999 -9999 -9999 -9999 -9999 -9999 -9999 -9999 -9999 -9999 -9999 -9999 -9999 -9999 -9999 -9999 -9999 -9999 -9999 -9999 -9999 -9999 -9999 -9999
-9999 -9999 -9999 -9999 -9999 -9999 -9999 -9999 -9999 -9999 -9999 -9999 -9999 -9999 -9999 -9999 -9999 -9999 -9999 -9999 -9999 -9999 -9999 -9999 -9999 -9999 -9999 -9999 -9999 -9999 -9999 -9999 -9999 -9999 -9999 -9999 -9999 -9999 -9999 -9999 575.6394 574.3815 573.255 571.876 570.2573 568.3813 566.5271 564.9767 564.5615 565.2526 566.7235 568.2419 569.0911 569.5079 569.53 569.1962 567.6754 565.2746 562.6996 560.5264 559.3971 558.8142 558.0991 557.2422 556.3947 555.5465 554.8476 554.3204 554.2218 554.2843 554.5597 554.6876 554.7657 554.8708 554.9938 555.1315 554.9609 554.2381 553.4457 552.7181 552.2053 551.7833 551.4655 551.3565 551.4699 551.6461 551.8714 551.9919 552.0103 552.0447 552.3181 553.1301 554.459 555.3904 554.6639 553.2744 551.6824 550.7401 550.4728 550.688 550.7699 550.4385 550.081 549.8849 549.9137 550.2078 550.8362 551.8762 553.2427 554.4473 555.4597 556.4514 557.4746 558.3337 558.7906 558.3253 556.9507 555.6088 554.2872 553.6069 553.6125 554.4492 556.2295 557.5198 558.452 558.4689 559.8619 559.8429 559.3765 558.7341 558.2585 557.7618 556.8636 555.4064 553.7736 552.3654 551.2552 550.5045 550.0461 549.7979 549.6818 549.6396 549.6353 549.6511 549.6741 549.6904 549.6927 549.6809 549.66 549.6367 549.614 549.5908 549.5648 549.5386 549.52 549.5165 549.5284 549.5515 549.5828 549.6208 549.6602 549.7528 549.8292 549.823 549.6579 549.2389 548.6954 548.1542 547.865 547.5468 547.3433 547.4417 548.0751 549.4342 551.5211 553.9408 556.2883 558.5447 560.6807 562.3088 562.8066 562.1669 561.7565 561.9768 561.8455 561.5268 560.7227 559.5531 559.0954 560.8869 562.8669 561.7438 561.8397 562.7585 564.6712 568.6063 572.4005 575.0154 575.8035 576.2954 -9999 -9999 -9999 -9999 -9999 -9999 -9999 -9999 -9999 -9999 -9999 -9999 -9999 -9999 -9999 -9999 -9999 -9999 -9999 -9999 -9999 -9999 -9999 -9999 -9999 -9999 -9999 -9999 -9999 -9999 -9999 -9999 -9999 -9999 -9999 -9999 -9999 -9999 -9999 -9999 -9999 -9999 -9999 -9999 -9999 -9999 -9999 -9999 -9999 -9999 -9999 -9999 -9999 -9999 -9999 -9999 -9999 -9999 -9999 -9999 -9999 -9999 -9999 -9999 -9999 -9999 -9999 -9999 -9999 -9999 -9999 -9999 -9999 -9999 -9999 -9999 -9999 -9999 -9999 -9999 -9999 -9999 -9999 -9999 -9999 -9999 -9999 -9999 -9999 -9999 -9999 -9999 -9999 -9999 -9999 -9999 -9999 -9999 -9999 -9999 -9999 -9999 -9999 -9999 -9999 -9999 -9999 -9999 -9999 -9999 -9999 -9999
-9999 -9999 -9999 -9999 -9999 -9999 -9999 -9999 -9999 -9999 -9999 -9999 -9999 -9999 -9999 -9999 -9999 -9999 -9999 -9999 -9999 -9999 -9999 -9999 -9999 -9999 -9999 -9999 -9999 -9999 -9999 -9999 -9999 -9999 -9999 -9999 -9999 -9999 -9999 -9999 -9999 573.8477 573.0538 572.2418 571.4379 570.0519 568.7965 567.4688 567.3588 567.6621 567.8699 568.3436 569.3645 569.3749 568.4639 566.9777 564.7975 562.4734 560.4522 559.2688 558.9617 559.0117 558.5299 557.8121 557.1234 556.4844 555.8378 555.363 555.215 555.1887 555.2589 555.3672 555.5045 555.7437 555.9967 556.4298 556.4437 555.712 554.5327 553.469 552.632 551.9618 551.5343 551.432 551.6033 551.805 552.0928 552.2594 552.3278 552.4144 552.8018 554.1957 555.8376 556.359 555.9188 554.4598 552.7678 551.4437 550.9595 551.2292 551.1514 550.6075 550.1414 549.924 549.9941 550.3632 551.0806 552.2647 553.9232 555.2981 555.8856 556.8249 557.757 558.4343 558.5252 558.5014 556.7523 555.4703 554.329 553.7435 553.6946 554.4869 556.266 557.6494 558.6905 559.1701 560.5787 561.3372 561.0278 560.1528 559.5768 558.9901 558.1838 556.9228 555.3893 553.7746 552.3728 551.2654 550.5292 550.0758 549.8149 549.6766 549.6169 549.6116 549.6395 549.6702 549.682 549.6749 549.66 549.6392 549.6205 549.6048 549.5895 549.573 549.5579 549.5511 549.5582 549.5793 549.6123 549.6599 549.7111 549.7933 549.8508 549.8252 549.6591 549.295 548.8383 548.4073 548.1078 547.6429 547.3033 547.2509 547.6509 548.6543 550.5802 552.9542 555.2184 557.1155 558.4354 559.613 560.1005 559.0987 558.657 558.7122 559.3344 559.8951 559.7462 558.9521 559.0783 561.1473 561.7357 560.9998 561.1948 562.1449 564.4014 568.3568 572.1755 574.7822 576.0224 576.7924 -9999 578.0842 578.7095 -9999 -9999 -9999 -9999 -9999 -9999 -9999 -9999 -9999 -9999 -9999 -9999 -9999 -9999 -9999 -9999 -9999 -9999 -9999 -9999 -9999 -9999 -9999 -9999 -9999 -9999 -9999 -9999 -9999 -9999 -9999 -9999 -9999 -9999 -9999 -9999 -9999 -9999 -9999 -9999 -9999 -9999 -9999 -9999 -9999 -9999 -9999 -9999 -9999 -9999 -9999 -9999 -9999 -9999 -9999 -9999 -9999 -9999 -9999 -9999 -9999 -9999 -9999 -9999 -9999 -9999 -9999 -9999 -9999 -9999 -9999 -9999 -9999 -9999 -9999 -9999 -9999 -9999 -9999 -9999 -9999 -9999 -9999 -9999 -9999 -9999 -9999 -9999 -9999 -9999 -9999 -9999 -9999 -9999 -9999 -9999 -9999 -9999 -9999 -9999 -9999 -9999 -9999 -9999 -9999 -9999 -9999 -9999 -9999
-9999 -9999 -9999 -9999 -9999 -9999 -9999 -9999 -9999 -9999 -9999 -9999 -9999 -9999 -9999 -9999 -9999 -9999 -9999 -9999 -9999 -9999 -9999 -9999 -9999 -9999 -9999 -9999 -9999 -9999 -9999 -9999 -9999 -9999 -9999 -9999 -9999 -9999 -9999 -9999 -9999 -9999 571.7208 570.8007 569.8302 568.548 567.3679 566.7501 566.9869 567.5584 567.1541 566.8677 567.163 566.9032 565.7877 564.1212 562.059 560.4647 559.6494 559.5969 560.7005 561.1398 560.1121 558.9956 558.1685 557.6313 557.0576 556.5796 556.4914 556.4114 556.3283 556.4474 556.6763 557.1599 557.6337 558.2053 558.384 557.5992 556.0787 554.4639 553.0734 552.1776 551.6274 551.539 551.7849 551.9915 552.284 552.5365 552.7234 552.9254 553.2967 555.0656 556.7932 557.2342 556.7674 555.8033 554.2315 552.6295 551.5717 551.8046 551.2236 550.6163 550.1691 550.0151 550.1934 550.6801 551.4734 552.7444 554.2375 555.5904 556.3448 557.1761 558.0036 558.773 558.005 558.6542 556.579 555.866 554.8661 554.1919 553.9492 554.7541 556.4283 557.6744 558.7228 559.8297 561.7669 563.1469 563.485 562.7424 561.6593 560.6035 559.601 558.2155 556.8719 555.3753 553.7592 552.353 551.2584 550.533 550.0719 549.7914 549.6408 549.5941 549.6224 549.6646 549.6758 549.66 549.6422 549.6288 549.6183 549.6083 549.6004 549.5944 549.588 549.5831 549.586 549.6014 549.6262 549.6601 549.7405 549.823 549.8661 549.825 549.6597 549.3428 548.9429 548.53 548.1304 547.6431 547.2333 547.063 547.2921 548.0892 549.6182 551.7501 553.8904 555.581 556.7031 557.4333 557.6599 557.2948 557.1467 557.439 558.624 560.1156 560.7032 560.2817 558.9437 559.3264 559.629 559.3441 560.0233 561.4021 564.0932 567.9785 571.4906 573.7028 575.6765 576.9602 578.1094 579.2898 580.2545 581.3007 580.3829 -9999 -9999 -9999 -9999 -9999 -9999 -9999 -9999 -9999 -9999 -9999 -9999 -9999 -9999 -9999 -9999 -9999 -9999 -9999 -9999 -9999 -9999 -9999 -9999 -9999 -9999 -9999 -9999 -9999 -9999 -9999 -9999 -9999 -9999 -9999 -9999 -9999 -9999 -9999 -9999 -9999 -9999 -9999 -9999 -9999 -9999 -9999 -9999 -9999 -9999 -9999 -9999 -9999 -9999 -9999 -9999 -9999 -9999 -9999 -9999 -9999 -9999 -9999 -9999 -9999 -9999 -9999 -9999 -9999 -9999 -9999 -9999 -9999 -9999 -9999 -9999 -9999 -9999 -9999 -9999 -9999 -9999 -9999 -9999 -9999 -9999 -9999 -9999 -9999 -9999 -9999 -9999 -9999 -9999 -9999 -9999 -9999 -9999 -9999 -9999 -9999 -9999 -9999 -9999 -9999 -9999 -9999
-9999 -9999 -9999 -9999 -9999 -9999 -9999 -9999 -9999 -9999 -9999 -9999 -9999 -9999 -9999 -9999 -9999 -9999 -9999 -9999 -9999 -9999 -9999 -9999 -9999 -9999 -9999 -9999 -9999 -9999 -9999 -9999 -9999 -9999 -9999 -9999 -9999 -9999 -9999 -9999 -9999 -9999 -9999 -9999 566.8608 565.3749 564.2285 564.0418 564.7275 565.6921 565.6179 565.2794 564.8138 564.3235 563.3784 561.9762 560.4587 559.8709 560.2986 561.5729 563.2462 563.9229 562.6165 560.6655 559.3564 558.7241 557.9611 557.7434 557.9338 557.8483 557.809 558.0327 558.5197 559.295 560.0441 560.5646 560.5278 559.696 558.0471 555.9642 554.0512 552.6186 551.8035 551.6965 552.0308 552.26 552.55 552.8026 553.0825 553.5783 554.1302 555.9733 557.4496 558.1044 557.8936 557.6076 556.0636 554.1637 552.5647 551.5413 551.0026 550.6204 550.281 550.242 550.6107 551.3554 552.4209 553.4955 554.6153 555.7664 556.6084 557.3744 558.1442 558.7849 558.4757 557.292 557.7338 556.6194 555.6518 554.7467 554.2444 555.4528 556.8606 557.7843 558.8552 560.8303 563.3583 565.4006 566.4506 566.0565 564.5673 562.559 560.8645 559.3204 558.1637 556.9753 555.3999 553.7283 552.3202 551.2441 550.517 550.0342 549.7357 549.6075 549.6263 549.6703 549.6599 549.6212 549.6035 549.6052 549.6095 549.6075 549.6037 549.604 549.6073 549.6102 549.6139 549.6307 549.66 549.7025 549.7755 549.8461 549.8749 549.8241 549.6599 549.3686 548.9944 548.5786 548.1292 547.6219 547.1667 546.9066 546.9816 547.5261 548.6488 550.5529 552.5861 554.2249 555.4426 556.1837 556.5948 556.8447 557.3757 558.4405 560.2039 561.9924 562.6502 561.4758 559.5609 559.0462 558.81 558.774 559.3079 560.5866 563.4019 566.8771 570.1009 572.6606 574.7446 576.3443 577.8832 579.3244 580.1746 581.0435 581.8296 581.4663 -9999 -9999 -9999 -9999 -9999 -9999 -9999 -9999 -9999 -9999 -9999 -9999 -9999 -9999 -9999 -9999 -9999 -9999 -9999 -9999 -9999 -9999 -9999 -9999 -9999 -9999 -9999 -9999 -9999 -9999 -9999 -9999 -9999 -9999 -9999 -9999 -9999 -9999 -9999 -9999 -9999 -9999 -9999 -9999 -9999 -9999 -9999 -9999 -9999 -9999 -9999 -9999 -9999 -9999 -9999 -9999 -9999 -9999 -9999 -9999 -9999 -9999 -9999 -9999 -9999 -9999 -9999 -9999 -9999 -9999 -9999 -9999 -9999 -9999 -9999 -9999 -9999 -9999 -9999 -9999 -9999 -9999 -9999 -9999 -9999 -9999 -9999 -9999 -9999 -9999 -9999 -9999 -9999 -9999 -9999 -9999 -9999 -9999 -9999 -9999 -9999 -9999 -9999 -9999 -9999 -9999
-9999 -9999 -9999 -9999 -9999 -9999 -9999 -9999 -9999 -9999 -9999 -9999 -9999 -9999 -9999 -9999 -9999 -9999 -9999 -9999 -9999 -9999 -9999 -9999 -9999 -9999 -9999 -9999 -9999 -9999 -9999 -9999 -9999 -9999 -9999 -9999 -9999 -9999 -9999 -9999 -9999 -9999 -9999 -9999 -9999 -9999 -9999 -9999 -9999 -9999 -9999 -9999 563.3079 562.7626 562.0398 561.0883 560.3136 560.3735 561.6663 563.7473 565.7773 566.6398 565.2971 562.8882 560.5659 559.1663 558.6381 558.8851 559.5294 559.5852 559.7637 560.2767 561.1285 562.337 563.4989 564.0728 563.7883 562.5107 560.2788 557.5814 554.9301 552.8903 551.9521 551.884 552.3585 552.6425 552.9368 552.9685 552.8282 553.3245 554.8865 556.7866 558.1604 559.0652 559.7296 559.9354 558.1548 555.8655 553.9254 552.4888 551.4865 551.1332 550.6858 550.6641 551.21 552.2974 553.415 554.4813 555.5585 556.325 556.921 557.3812 557.9319 558.4036 558.4127 558.6327 558.0724 557.2615 556.4489 555.4967 554.3221 555.559 556.6582 557.7883 559.1836 561.8181 565.05 567.726 569.3422 569.3193 567.8026 565.3159 562.7759 560.8347 559.8031 558.8304 557.1859 555.3774 553.6739 552.285 551.2208 550.4651 549.9374 549.6527 549.6445 549.6594 549.5837 549.5386 549.5427 549.5755 549.6025 549.6098 549.6089 549.6112 549.6206 549.6332 549.6381 549.66 549.6918 549.7372 549.7983 549.8531 549.87 549.8178 549.6606 549.3718 549.0032 548.589 548.1292 547.6147 547.1348 546.8229 546.8173 547.2441 548.2104 549.8292 551.6948 553.2793 554.5748 555.7201 556.5997 557.5522 558.9601 560.7318 562.8214 564.2849 563.6864 562.3734 560.5568 559.6992 559.1886 558.9435 559.134 560.0259 562.2316 564.7578 567.507 570.3483 572.7916 574.6438 576.1422 577.4167 578.3108 579.3173 580.6994 581.6114 580.4797 -9999 -9999 -9999 -9999 -9999 -9999 -9999 -9999 -9999 -9999 -9999 -9999 -9999 -9999 -9999 -9999 -9999 -9999 -9999 -9999 -9999 -9999 -9999 -9999 -9999 -9999 -9999 -9999 -9999 -9999 -9999 -9999 -9999 -9999 -9999 -9999 -9999 -9999 -9999 -9999 -9999 -9999 -9999 -9999 -9999 -9999 -9999 -9999 -9999 -9999 -9999 -9999 -9999 -9999 -9999 -9999 -9999 -9999 -9999 -9999 -9999 -9999 -9999 -9999 -9999 -9999 -9999 -9999 -9999 -9999 -9999 -9999 -9999 -9999 -9999 -9999 -9999 -9999 -9999 -9999 -9999 -9999 -9999 -9999 -9999 -9999 -9999 -9999 -9999 -9999 -9999 -9999 -9999 -9999 -9999 -9999 -9999 -9999 -9999 -9999 -9999 -9999 -9999 -9999 -9999
-9999 -9999 -9999 -9999 -9999 -9999 -9999 -9999 -9999 -9999 -9999 -9999 -9999 -9999 -9999 -9999 -9999 -9999 -9999 -9999 -9999 -9999 -9999 -9999 -9999 -9999 -9999 -9999 -9999 -9999 -9999 -9999 -9999 -9999 -9999 -9999 -9999 -9999 -9999 -9999 -9999 -9999 -9999 -9999 -9999 -9999 -9999 -9999 -9999 -9999 -9999 -9999 562.7833 562.3906 561.9571 561.3248 561.1581 561.9094 563.5613 565.7851 567.8976 568.8281 567.6708 565.3587 562.8165 561.0372 560.4136 560.637 561.2946 561.7951 562.4326 563.4251 564.8545 566.361 567.5963 567.8838 567.1023 565.1996 562.3085 558.8986 555.6028 553.1373 552.1747 552.0941 552.4486 552.9546 553.5193 553.5077 553.0307 554.1439 555.9529 557.6875 559.0453 560.1295 561.6544 562.178 560.3195 557.5357 555.2983 553.7944 552.7648 552.2771 551.4645 551.3036 551.7906 552.8853 554.3143 555.5142 556.3677 556.9401 557.2629 557.2854 557.6587 558.3005 558.7831 558.7961 558.2944 557.6957 557.2369 556.758 555.5932 554.4193 556.0322 557.8151 559.6767 562.7779 566.301 569.3439 571.1825 571.7335 570.7978 568.5414 565.8964 563.6879 562.3358 561.3089 559.1883 557.1244 555.293 553.6266 552.2446 551.1534 550.3033 549.7299 549.6583 549.5207 549.4418 549.4266 549.4794 549.5615 549.6138 549.6243 549.6248 549.6266 549.6364 549.66 549.66 549.6873 549.7203 549.7594 549.8028 549.8348 549.8344 549.7848 549.6557 549.3345 548.9635 548.5676 548.1306 547.6282 547.1403 546.8076 546.7783 547.1822 548.1189 549.5908 551.2974 553.0292 554.731 556.1192 557.4819 559.2023 561.3163 563.4449 564.8872 564.5449 563.1958 561.5961 560.8647 560.3329 559.7204 559.1694 559.2415 559.7719 560.8804 562.0425 564.1263 567.058 569.7267 571.8206 573.1534 574.108 574.9031 576.167 578.1393 579.9766 580.8259 -9999 -9999 -9999 -9999 -9999 -9999 -9999 -9999 -9999 -9999 -9999 -9999 -9999 -9999 -9999 -9999 -9999 -9999 -9999 -9999 -9999 -9999 -9999 -9999 -9999 -9999 -9999 -9999 -9999 -9999 -9999 -9999 -9999 -9999 -9999 -9999 -9999 -9999 -9999 -9999 -9999 -9999 -9999 -9999 -9999 -9999 -9999 -9999 -9999 -9999 -9999 -9999 -9999 -9999 -9999 -9999 -9999 -9999 -9999 -9999 -9999 -9999 -9999 -9999 -9999 -9999 -9999 -9999 -9999 -9999 -9999 -9999 -9999 -9999 -9999 -9999 -9999 -9999 -9999 -9999 -9999 -9999 -9999 -9999 -9999 -9999 -9999 -9999 -9999 -9999 -9999 -9999 -9999 -9999 -9999 -9999 -9999 -9999 -9999 -9999 -9999 -9999 -9999 -9999 -9999
-9999 -9999 -9999 -9999 -9999 -9999 -9999 -9999 -9999 -9999 -9999 -9999 -9999 -9999 -9999 -9999 -9999 -9999 -9999 -9999 -9999 -9999 -9999 -9999 -9999 -9999 -9999 -9999 -9999 -9999 -9999 -9999 -9999 -9999 -9999 -9999 -9999 -9999 -9999 -9999 -9999 -9999 -9999 -9999 -9999 -9999 -9999 -9999 -9999 -9999 -9999 -9999 -9999 563.5426 562.8667 562.3022 562.4194 563.4869 565.0617 567.1755 569.209 569.8257 569.3894 567.699 565.5983 563.9529 563.3726 563.6619 564.5058 565.3544 566.3645 567.608 569.0596 570.3098 571.2497 570.746 569.2936 566.82 563.4238 559.5674 556.0012 553.5325 552.7492 552.709 552.76 552.9053 553.4797 554.3898 554.1923 555.4651 557.1734 558.9277 560.4734 561.843 563.6484 564.1901 562.3924 559.3881 556.7311 555.0785 554.1902 553.7061 552.8429 552.4987 552.4951 553.4943 555.0702 556.0749 556.7933 557.2729 557.3599 557.2533 557.3439 558.1251 558.7975 558.6982 558.1902 557.651 557.2855 557.1965 556.1908 554.4822 555.8486 557.8525 560.4131 563.6392 567.069 570.0834 572.2985 573.5879 573.3976 571.8276 569.6777 567.6334 565.8663 563.8225 561.3063 559.0035 557.0725 555.3009 553.605 552.1553 550.9669 549.9416 549.6837 549.4524 549.3831 549.364 549.4523 549.5903 549.6599 549.66 549.66 549.66 549.66 549.6874 549.7045 549.7292 549.7545 549.7776 549.7943 549.7911 549.7491 549.6601 549.4862 549.1886 548.8488 548.5021 548.132 547.6469 547.1581 546.8203 546.7881 547.1956 548.1348 549.6128 551.4062 553.3798 555.2734 556.9671 558.9078 561.368 564.1922 566.3017 566.5829 564.5639 563.1289 562.0262 561.2747 560.4822 559.801 559.3669 559.4424 559.6449 559.8716 560.082 561.8425 563.9114 566.1327 568.1949 569.3416 570.1001 570.8853 572.4819 574.9581 577.4088 579.0082 580.1132 -9999 -9999 -9999 -9999 -9999 -9999 -9999 -9999 -9999 -9999 -9999 -9999 -9999 -9999 -9999 -9999 -9999 -9999 -9999 -9999 -9999 -9999 -9999 -9999 -9999 -9999 -9999 -9999 -9999 -9999 -9999 -9999 -9999 -9999 -9999 -9999 -9999 -9999 -9999 -9999 -9999 -9999 -9999 -9999 -9999 -9999 -9999 -9999 -9999 -9999 -9999 -9999 -9999 -9999 -9999 -9999 -9999 -9999 -9999 -9999 -9999 -9999 -9999 -9999 -9999 -9999 -9999 -9999 -9999 -9999 -9999 -9999 -9999 -9999 -9999 -9999 -9999 -9999 -9999 -9999 -9999 -9999 -9999 -9999 -9999 -9999 -9999 -9999 -9999 -9999 -9999 -9999 -9999 -9999 -9999 -9999 -9999 -9999 -9999 -9999 -9999 -9999 -9999 -9999
-9999 -9999 -9999 -9999 -9999 -9999 -9999 -9999 -9999 -9999 -9999 -9999 -9999 -9999 -9999 -9999 -9999 -9999 -9999 -9999 -9999 -9999 -9999 -9999 -9999 -9999 -9999 -9999 -9999 -9999 -9999 -9999 -9999 -9999 -9999 -9999 -9999 -9999 -9999 -9999 -9999 -9999 -9999 -9999 -9999 -9999 -9999 -9999 -9999 -9999 -9999 -9999 -9999 564.7297 564.2389 563.9771 564.0979 564.8248 566.0456 567.9446 569.8164 570.7281 570.688 569.804 568.4113 567.2762 566.9236 567.3336 568.2603 569.2485 570.3589 571.461 572.4005 572.7624 573.371 571.8518 569.662 566.8178 563.2316 559.3912 556.2017 554.4081 553.9561 554.1143 553.9344 553.2559 553.2514 554.2358 555.3968 556.7893 558.3998 560.3574 562.2718 564.0168 565.9271 566.4103 564.6463 561.5479 558.6311 556.7026 555.805 555.2702 554.3622 553.7276 553.0641 553.7982 555.1193 556.1585 556.8737 557.278 557.3441 557.2964 557.2664 557.8907 558.6492 558.3866 557.8875 557.4836 557.3326 557.975 557.4922 555.8545 556.551 558.7308 561.5758 564.7364 567.859 570.6725 573.1018 574.8273 575.4763 574.8967 573.6628 572.2042 570.356 567.7183 564.5458 561.5284 559.327 557.3726 555.4329 553.6292 552.1748 551.1039 550.4659 549.8539 549.6414 549.4447 549.4843 549.6592 549.7214 549.7332 549.7336 549.731 549.7301 549.7441 549.7601 549.779 549.7939 549.7985 549.787 549.7481 549.6607 549.5246 549.2972 548.9935 548.6715 548.3716 548.1142 547.6321 547.1509 546.8229 546.7977 547.2094 548.1603 549.7155 551.7085 553.7766 555.6509 557.6905 560.4639 563.9763 567.3314 569.2618 568.3279 565.1055 563.3553 562.1238 561.1536 560.2484 559.5398 559.1583 559.2252 559.6882 561.0717 561.8632 562.1015 562.6704 563.2242 564.9465 565.7736 566.496 567.596 569.5193 572.2822 575.0535 576.9784 577.9787 -9999 -9999 -9999 -9999 -9999 -9999 -9999 -9999 -9999 -9999 -9999 -9999 -9999 -9999 -9999 -9999 -9999 -9999 -9999 -9999 -9999 -9999 -9999 -9999 -9999 -9999 -9999 -9999 -9999 -9999 -9999 -9999 -9999 -9999 -9999 -9999 -9999 -9999 -9999 -9999 -9999 -9999 -9999 -9999 -9999 -9999 -9999 -9999 -9999 -9999 -9999 -9999 -9999 -9999 -9999 -9999 -9999 -9999 -9999 -9999 -9999 -9999 -9999 -9999 -9999 -9999 -9999 -9999 -9999 -9999 -9999 -9999 -9999 -9999 -9999 -9999 -9999 -9999 -9999 -9999 -9999 -9999 -9999 -9999 -9999 -9999 -9999 -9999 -9999 -9999 -9999 -9999 -9999 -9999 -9999 -9999 -9999 -9999 -9999 -9999 -9999 -9999 -9999 -9999
-9999 -9999 -9999 -9999 -9999 -9999 -9999 -9999 -9999 -9999 -9999 -9999 -9999 -9999 -9999 -9999 -9999 -9999 -9999 -9999 -9999 -9999 -9999 -9999 -9999 -9999 -9999 -9999 -9999 -9999 -9999 -9999 -9999 -9999 -9999 -9999 -9999 -9999 -9999 -9999 -9999 -9999 -9999 -9999 -9999 -9999 -9999 -9999 -9999 -9999 -9999 -9999 -9999 -9999 -9999 565.7024 565.7032 565.9676 566.7161 568.4298 570.2028 571.5451 571.8575 571.8104 571.2072 570.5521 570.4026 570.8706 571.6393 572.4456 573.2022 573.6661 573.9489 573.7487 572.6315 570.6717 568.3483 565.5701 562.1957 558.9564 556.6936 555.5684 555.7755 556.0253 555.8532 555.1997 555.0797 555.7067 556.7162 557.7856 559.3558 561.5248 563.873 566.5854 568.6123 568.9963 567.2986 564.3715 561.3501 559.2048 558.0657 557.3008 556.1983 555.2804 554.3672 554.4934 555.5236 556.2858 556.8811 557.2065 557.2826 557.2851 556.6937 557.1479 557.7288 557.7465 557.5477 557.5433 557.8359 558.7372 557.6809 556.5614 557.6928 559.9693 562.9106 565.9799 568.8084 571.4284 -9999 -9999 576.9528 577.5436 577.4907 576.9035 575.2731 572.327 568.6166 564.9777 562.382 560.1605 557.8249 555.7034 553.9901 552.8503 552.0639 551.097 550.3048 549.6977 549.5443 549.6591 549.7345 549.7775 549.7966 549.8015 549.8013 549.8053 549.8136 549.8252 549.8315 549.8213 549.7876 549.7313 549.6579 549.4237 549.1253 548.7936 548.4609 548.1415 547.9027 547.511 547.095 546.8096 546.8063 547.219 548.1618 549.7484 551.8141 553.9113 555.8608 558.3515 562.0304 566.4525 570.3524 572.2402 570.6434 566.9682 564.2776 562.4665 561.1102 559.9922 559.1803 558.8057 558.9891 559.8627 561.8864 563.4002 564.1848 564.0488 563.9337 563.9191 564.3723 565.1411 566.9602 568.6478 571.263 573.8456 575.6241 -9999 -9999 -9999 -9999 -9999 -9999 -9999 -9999 -9999 -9999 -9999 -9999 -9999 -9999 -9999 -9999 -9999 -9999 -9999 -9999 -9999 -9999 -9999 -9999 -9999 -9999 -9999 -9999 -9999 -9999 -9999 -9999 -9999 -9999 -9999 -9999 -9999 -9999 -9999 -9999 -9999 -9999 -9999 -9999 -9999 -9999 -9999 -9999 -9999 -9999 -9999 -9999 -9999 -9999 -9999 -9999 -9999 -9999 -9999 -9999 -9999 -9999 -9999 -9999 -9999 -9999 -9999 -9999 -9999 -9999 -9999 -9999 -9999 -9999 -9999 -9999 -9999 -9999 -9999 -9999 -9999 -9999 -9999 -9999 -9999 -9999 -9999 -9999 -9999 -9999 -9999 -9999 -9999 -9999 -9999 -9999 -9999 -9999 -9999 -9999 -9999 -9999 -9999 -9999 -9999
-9999 -9999 -9999 -9999 -9999 -9999 -9999 -9999 -9999 -9999 -9999 -9999 -9999 -9999 -9999 -9999 -9999 -9999 -9999 -9999 -9999 -9999 -9999 -9999 -9999 -9999 -9999 -9999 -9999 -9999 -9999 -9999 -9999 -9999 -9999 -9999 -9999 -9999 -9999 -9999 -9999 -9999 -9999 -9999 -9999 -9999 -9999 -9999 -9999 -9999 -9999 -9999 -9999 -9999 -9999 -9999 -9999 -9999 -9999 -9999 -9999 -9999 572.8097 573.7472 573.9142 573.6014 573.4678 573.7512 574.0359 574.1826 574.1813 573.9332 573.4182 572.2508 570.5654 568.5826 566.5635 564.2656 561.4882 559.0978 557.509 556.9222 556.8662 557.1877 557.2605 557.0413 556.8972 557.0597 557.5137 558.5698 560.4028 563.209 566.4236 569.3972 571.2686 571.4002 569.8644 567.4303 564.7441 562.6245 561.2506 560.2026 558.713 557.3939 556.175 555.7415 556.0162 556.4846 556.9965 557.2845 557.55 557.5331 555.9397 556.6022 557.1558 557.4254 557.5468 557.868 558.7084 558.5238 557.4194 557.6487 558.9268 561.2361 564.2799 567.3679 570.0486 -9999 -9999 -9999 -9999 579.7327 580.9729 581.3767 580.1844 577.2409 573.2925 569.28 566.1476 563.6503 560.8732 558.4103 556.515 555.0674 553.8693 552.5593 551.299 550.2831 549.6575 549.5404 549.658 549.7596 549.8169 549.8418 549.8492 549.8498 549.8514 549.8573 549.8593 549.8387 549.7764 549.6606 549.5295 549.2721 548.9492 548.6168 548.3246 548.1201 547.7917 547.4178 547.0602 546.8329 546.8676 547.2769 548.1625 549.718 551.7709 553.8732 555.9308 558.7881 563.1155 568.2206 572.5842 574.5871 572.7188 568.7521 565.2211 562.9252 561.2687 559.9139 558.9129 558.4449 558.6521 559.681 561.7207 564.2225 565.84 566.826 567.2042 567.1847 567.1124 567.2594 568.205 569.764 571.7753 573.7513 575.1457 -9999 -9999 -9999 -9999 -9999 -9999 -9999 -9999 -9999 -9999 -9999 -9999 -9999 -9999 -9999 -9999 -9999 -9999 -9999 -9999 -9999 -9999 -9999 -9999 -9999 -9999 -9999 -9999 -9999 -9999 -9999 -9999 -9999 -9999 -9999 -9999 -9999 -9999 -9999 -9999 -9999 -9999 -9999 -9999 -9999 -9999 -9999 -9999 -9999 -9999 -9999 -9999 -9999 -9999 -9999 -9999 -9999 -9999 -9999 -9999 -9999 -9999 -9999 -9999 -9999 -9999 -9999 -9999 -9999 -9999 -9999 -9999 -9999 -9999 -9999 -9999 -9999 -9999 -9999 -9999 -9999 -9999 -9999 -9999 -9999 -9999 -9999 -9999 -9999 -9999 -9999 -9999 -9999 -9999 -9999 -9999 -9999 -9999 -9999 -9999 -9999 -9999 -9999 -9999 -9999
-9999 -9999 -9999 -9999 -9999 -9999 -9999 -9999 -9999 -9999 -9999 -9999 -9999 -9999 -9999 -9999 -9999 -9999 -9999 -9999 -9999 -9999 -9999 -9999 -9999 -9999 -9999 -9999 -9999 -9999 -9999 -9999 -9999 -9999 -9999 -9999 -9999 -9999 -9999 -9999 -9999 -9999 -9999 -9999 -9999 -9999 -9999 -9999 -9999 -9999 -9999 -9999 -9999 -9999 -9999 -9999 -9999 -9999 -9999 -9999 -9999 -9999 -9999 -9999 -9999 -9999 -9999 -9999 -9999 -9999 -9999 -9999 -9999 -9999 568.0742 566.4403 565.1842 563.7347 561.647 559.7552 558.4432 557.5341 557.3442 557.904 558.139 557.9148 557.3565 557.3042 557.9794 559.5727 562.1556 565.603 569.0397 571.7235 573.2365 573.0664 571.8151 569.9675 567.9938 566.2294 564.7097 563.3936 561.9235 560.2645 558.5679 557.3885 556.8183 556.8567 557.2559 557.3397 557.3506 556.3727 556.28 557.1373 557.3657 557.9119 558.7404 557.9365 557.8181 557.5786 556.3047 557.6617 559.6335 562.1356 565.2412 568.432 -9999 -9999 -9999 -9999 -9999 -9999 -9999 585.5301 584.8561 582.1129 578.1423 573.8764 570.0897 567.079 564.2205 561.6611 559.5151 557.6415 555.8585 554.1384 552.514 550.996 549.7516 549.3845 549.4504 549.6563 549.7743 549.8331 549.858 549.8629 549.8622 549.8663 549.8729 549.8583 549.7951 549.6596 549.4326 549.1173 548.7683 548.4366 548.1367 547.9456 547.6865 547.3989 547.1304 546.9861 547.088 547.5073 548.2505 549.6583 551.5877 553.6563 555.8071 558.8412 563.4094 568.8236 573.3608 575.2346 573.8435 570.0212 565.9063 563.4656 561.5782 560.0001 558.806 558.1698 558.2135 559.0601 560.824 563.7484 566.5745 568.979 570.5198 570.9813 570.8118 570.5213 570.7762 571.6751 572.9212 574.2653 -9999 -9999 -9999 -9999 -9999 -9999 -9999 -9999 -9999 -9999 -9999 -9999 -9999 -9999 -9999 -9999 -9999 -9999 -9999 -9999 -9999 -9999 -9999 -9999 -9999 -9999 -9999 -9999 -9999 -9999 -9999 -9999 -9999 -9999 -9999 -9999 -9999 -9999 -9999 -9999 -9999 -9999 -9999 -9999 -9999 -9999 -9999 -9999 -9999 -9999 -9999 -9999 -9999 -9999 -9999 -9999 -9999 -9999 -9999 -9999 -9999 -9999 -9999 -9999 -9999 -9999 -9999 -9999 -9999 -9999 -9999 -9999 -9999 -9999 -9999 -9999 -9999 -9999 -9999 -9999 -9999 -9999 -9999 -9999 -9999 -9999 -9999 -9999 -9999 -9999 -9999 -9999 -9999 -9999 -9999 -9999 -9999 -9999 -9999 -9999 -9999 -9999 -9999 -9999 -9999 -9999
-9999 -9999 -9999 -9999 -9999 -9999 -9999 -9999 -9999 -9999 -9999 -9999 -9999 -9999 -9999 -9999 -9999 -9999 -9999 -9999 -9999 -9999 -9999 -9999 -9999 -9999 -9999 -9999 -9999 -9999 -9999 -9999 -9999 -9999 -9999 -9999 -9999 -9999 -9999 -9999 -9999 -9999 -9999 -9999 -9999 -9999 -9999 -9999 -9999 -9999 -9999 -9999 -9999 -9999 -9999 -9999 -9999 -9999 -9999 -9999 -9999 -9999 -9999 -9999 -9999 -9999 -9999 -9999 -9999 -9999 -9999 -9999 -9999 -9999 565.8257 564.6798 564.3263 563.8541 562.6487 561.1724 559.5148 558.1239 557.6224 558.501 558.7682 558.4965 557.5344 557.6074 558.8682 561.3519 564.6186 568.1833 571.2753 573.4286 574.2145 573.9399 572.9881 571.7577 570.4679 569.386 568.2839 567.0449 565.5811 563.622 561.4509 559.4939 557.9879 557.3924 557.4615 557.5351 557.9272 557.4299 556.7914 558.0579 557.8559 558.7675 557.9811 556.6712 556.2655 556.3146 556.3483 558.0656 560.249 562.7263 565.637 568.7393 -9999 -9999 -9999 -9999 -9999 -9999 -9999 589.5254 589.2712 586.7617 582.9236 578.629 574.5668 571.0924 568.075 565.3569 562.9219 560.6235 558.0931 555.7767 553.7286 551.7675 550.0866 549.3988 549.2866 549.4441 549.6571 549.7673 549.8214 549.8357 549.8358 549.8416 549.8619 549.8643 549.8121 549.6594 549.3503 548.9626 548.5906 548.3148 548.1249 547.9029 547.7296 547.585 547.4434 547.4059 547.6189 548.1274 548.6806 549.6633 551.2491 553.1982 555.4615 558.5448 563.0425 568.481 573.1255 575.2414 574.4454 571.2685 567.3762 564.4799 562.1244 560.2148 558.8055 558.0104 557.8762 558.5267 560.1389 562.8657 566.2986 569.7391 572.3923 573.3785 573.4575 572.9971 572.8529 573.2755 574.1079 575.2048 576.0098 -9999 -9999 -9999 -9999 -9999 -9999 -9999 -9999 570.1771 572.3308 575.385 578.5975 581.6548 584.4479 -9999 -9999 -9999 -9999 -9999 -9999 -9999 -9999 -9999 -9999 -9999 -9999 -9999 -9999 -9999 -9999 -9999 -9999 -9999 -9999 -9999 -9999 -9999 -9999 -9999 -9999 -9999 -9999 -9999 -9999 -9999 -9999 -9999 -9999 -9999 -9999 -9999 -9999 -9999 -9999 -9999 -9999 -9999 -9999 -9999 -9999 -9999 -9999 -9999 -9999 -9999 -9999 -9999 -9999 -9999 -9999 -9999 -9999 -9999 -9999 -9999 -9999 -9999 -9999 -9999 -9999 -9999 -9999 -9999 -9999 -9999 -9999 -9999 -9999 -9999 -9999 -9999 -9999 -9999 -9999 -9999 -9999 -9999 -9999 -9999 -9999 -9999 -9999 -9999 -9999 -9999
-9999 -9999 -9999 -9999 -9999 -9999 -9999 -9999 -9999 -9999 -9999 -9999 -9999 -9999 -9999 -9999 -9999 -9999 -9999 -9999 -9999 -9999 -9999 -9999 -9999 -9999 -9999 -9999 -9999 -9999 -9999 -9999 -9999 -9999 -9999 -9999 -9999 -9999 -9999 -9999 -9999 -9999 -9999 -9999 -9999 -9999 -9999 -9999 -9999 -9999 -9999 -9999 -9999 -9999 -9999 -9999 -9999 -9999 -9999 -9999 -9999 -9999 -9999 -9999 -9999 -9999 -9999 -9999 -9999 -9999 -9999 -9999 -9999 -9999 -9999 563.8471 563.9982 564.0695 563.6905 562.5898 561.1936 559.7233 558.7231 558.7382 559.0541 558.6625 558.4495 559.1169 561.0747 564.0298 567.3427 570.5822 573.2046 574.7407 575.0968 574.4478 573.6611 572.8214 572.1065 571.6606 571.0856 570.1625 568.8563 566.8853 564.5442 562.0933 559.9319 558.6227 558.225 558.3372 558.2612 558.0189 557.9731 558.7557 558.7245 558.236 556.8307 556.0121 555.8752 556.2814 557.4212 559.2285 561.3102 563.5573 566.0845 -9999 -9999 -9999 -9999 -9999 -9999 -9999 -9999 -9999 593.4054 591.08 587.4551 583.3394 579.3275 575.7947 572.6369 569.6008 566.6086 563.8454 560.4656 557.3943 554.879 552.7206 550.9343 549.7532 549.3303 549.3065 549.4789 549.6592 549.7478 549.7675 549.7671 549.7728 549.817 549.8417 549.8104 549.6589 549.2712 548.7926 548.3685 548.128 547.9874 547.9292 547.9917 548.126 548.1848 548.2776 548.611 549.2693 549.4932 549.9662 551.1726 552.8038 555.0341 558.0825 562.3699 567.4297 572.0992 574.722 574.5682 572.3842 569.0813 565.6541 562.7014 560.4355 558.8717 558.0048 557.6976 558.131 559.4973 562.0012 565.5343 569.4594 572.6176 574.1649 574.4099 573.998 573.7247 573.985 574.7207 575.8113 576.4321 576.678 576.6107 -9999 -9999 -9999 -9999 572.2926 569.8536 568.7024 570.0917 572.6901 575.7275 578.812 581.6245 584.2679 586.8398 -9999 -9999 -9999 -9999 -9999 -9999 -9999 -9999 -9999 -9999 -9999 -9999 -9999 -9999 -9999 -9999 -9999 -9999 -9999 -9999 -9999 -9999 -9999 -9999 -9999 -9999 -9999 -9999 -9999 -9999 -9999 -9999 -9999 -9999 -9999 -9999 -9999 -9999 -9999 -9999 -9999 -9999 -9999 -9999 -9999 -9999 -9999 -9999 -9999 -9999 -9999 -9999 -9999 -9999 -9999 -9999 -9999 -9999 -9999 -9999 -9999 -9999 -9999 -9999 -9999 -9999 -9999 -9999 -9999 -9999 -9999 -9999 -9999 -9999 -9999 -9999 -9999 -9999 -9999 -9999 -9999 -9999 -9999 -9999 -9999 -9999 -9999 -9999 -9999
-9999 -9999 -9999 -9999 -9999 -9999 -9999 -9999 -9999 -9999 -9999 -9999 -9999 -9999 -9999 -9999 -9999 -9999 -9999 -9999 -9999 -9999 -9999 -9999 -9999 -9999 -9999 -9999 -9999 -9999 -9999 -9999 -9999 -9999 -9999 -9999 -9999 -9999 -9999 -9999 -9999 -9999 -9999 -9999 -9999 -9999 -9999 -9999 -9999 -9999 -9999 -9999 -9999 -9999 -9999 -9999 -9999 -9999 -9999 -9999 -9999 -9999 -9999 -9999 -9999 -9999 -9999 -9999 -9999 -9999 -9999 -9999 -9999 -9999 -9999 -9999 563.9937 564.327 564.3096 563.7635 562.7508 561.7598 561.028 560.8969 561.0512 560.8033 560.898 561.9027 564.133 567.0162 569.9973 572.7224 574.7858 575.9256 -9999 -9999 574.4568 573.6509 573.2157 572.9974 572.6375 572.0598 571.1924 569.5928 567.413 564.8264 562.1911 560.0118 558.8357 558.2921 558.1801 558.1563 558.4509 558.9177 558.7502 557.7991 556.5604 555.9995 556.3234 557.3619 558.6877 560.4028 562.3634 564.4436 566.722 -9999 -9999 -9999 -9999 -9999 -9999 -9999 -9999 -9999 -9999 594.8672 591.5455 587.7344 583.9233 580.428 577.1454 573.7805 570.206 566.4388 562.5128 558.8827 556.0378 553.7811 551.8507 550.432 549.6617 549.3754 549.4288 549.574 549.6588 549.659 549.6592 549.6602 549.7411 549.7772 549.771 549.6587 549.197 548.6303 548.1417 547.9443 547.9365 548.1339 548.5663 549.181 549.6093 549.9417 550.4137 550.8502 550.8313 551.0969 551.6621 552.759 554.7428 557.48 561.2421 565.7527 570.2886 573.3298 574.0135 572.7996 570.1894 566.651 563.1013 560.5546 558.9567 558.2068 557.7449 557.9651 559.045 561.2236 564.9258 568.9399 572.0982 573.7968 573.895 573.364 573.0097 573.1947 573.9615 575.1149 576.0189 576.5742 576.6854 576.8058 577.012 576.7495 575.398 572.6208 569.5399 567.6469 568.0909 570.0128 572.6899 575.6532 578.5376 581.2505 583.7913 586.3156 589.0848 -9999 -9999 -9999 -9999 -9999 -9999 -9999 -9999 -9999 -9999 -9999 -9999 -9999 -9999 -9999 -9999 -9999 -9999 -9999 -9999 -9999 -9999 -9999 -9999 -9999 -9999 -9999 -9999 -9999 -9999 -9999 -9999 -9999 -9999 -9999 -9999 -9999 -9999 -9999 -9999 -9999 -9999 -9999 -9999 -9999 -9999 -9999 -9999 -9999 -9999 -9999 -9999 -9999 -9999 -9999 -9999 -9999 -9999 -9999 -9999 -9999 -9999 -9999 -9999 -9999 -9999 -9999 -9999 -9999 -9999 -9999 -9999 -9999 -9999 -9999 -9999 -9999 -9999 -9999 -9999 -9999 -9999 -9999 -9999 -9999 -9999 -9999
-9999 -9999 -9999 -9999 -9999 -9999 -9999 -9999 -9999 -9999 -9999 -9999 -9999 -9999 -9999 -9999 -9999 -9999 -9999 -9999 -9999 -9999 -9999 -9999 -9999 -9999 -9999 -9999 -9999 -9999 -9999 -9999 -9999 -9999 -9999 -9999 -9999 -9999 -9999 -9999 -9999 -9999 -9999 -9999 -9999 -9999 -9999 -9999 -9999 -9999 -9999 -9999 -9999 -9999 -9999 -9999 -9999 -9999 -9999 -9999 -9999 -9999 -9999 -9999 -9999 -9999 -9999 -9999 -9999 -9999 -9999 -9999 -9999 -9999 -9999 -9999 -9999 564.8518 565.0022 564.774 564.2687 563.8904 563.5969 563.4935 563.4992 563.4402 563.7681 565.0083 567.2175 569.8409 572.4262 574.619 576.2178 -9999 -9999 -9999 -9999 -9999 574.2689 574.064 573.5905 573.0992 572.5293 571.5367 569.814 567.4277 564.6094 561.8174 559.6271 558.1685 557.9926 558.0378 558.698 558.7625 558.3129 557.3009 556.2983 556.0076 556.8536 558.2949 560.0646 561.9932 563.9759 565.9763 -9999 -9999 -9999 -9999 -9999 -9999 -9999 -9999 -9999 -9999 -9999 -9999 594.9713 591.6057 588.0518 584.5876 581.1909 577.6031 573.6263 569.2314 564.6602 560.5649 557.3452 554.8767 552.8467 551.3055 550.3007 549.7694 549.6591 549.6534 549.5233 549.4841 549.5195 549.5553 549.6582 549.6593 549.6608 549.6396 549.1162 548.5396 548.127 547.9546 548.1123 548.6192 549.4938 550.7137 551.4344 552.0016 552.4494 552.6508 552.6061 552.559 552.4862 552.9427 554.5132 556.7474 559.8161 563.7279 568.0403 571.3734 572.8289 572.4392 570.4563 567.0917 563.3486 560.5634 558.9954 558.6298 558.0888 558.1808 559.0634 561.0217 564.4758 568.2166 570.9118 572.1783 571.7549 571.0707 570.7139 570.9352 571.861 573.3615 574.7496 575.8396 576.4075 576.7426 577.0448 576.8335 575.4796 572.5875 569.1082 566.4788 566.1028 567.2875 569.473 572.2502 575.1381 577.9262 580.5509 583.1114 585.843 588.8957 -9999 -9999 -9999 -9999 -9999 -9999 -9999 -9999 -9999 -9999 -9999 -9999 -9999 -9999 -9999 -9999 -9999 -9999 -9999 -9999 -9999 -9999 -9999 -9999 -9999 -9999 -9999 -9999 -9999 -9999 -9999 -9999 -9999 -9999 -9999 -9999 -9999 -9999 -9999 -9999 -9999 -9999 -9999 -9999 -9999 -9999 -9999 -9999 -9999 -9999 -9999 -9999 -9999 -9999 -9999 -9999 -9999 -9999 -9999 -9999 -9999 -9999 -9999 -9999 -9999 -9999 -9999 -9999 -9999 -9999 -9999 -9999 -9999 -9999 -9999 -9999 -9999 -9999 -9999 -9999 -9999 -9999 -9999 -9999 -9999 -9999
