ncols         377
nrows         31
xllcorner     806100
yllcorner     6048700
cellsize      50
NODATA_value  -9999
-9999 -9999 -9999 -9999 -9999 -9999 -9999 -9999 -9999 -9999 -9999 -9999 -9999 -9999 -9999 -9999 -9999 -9999 -9999 -9999 -9999 -9999 -9999 -9999 -9999 -9999 -9999 -9999 -9999 -9999 -9999 -9999 -9999 -9999 -9999 -9999 -9999 -9999 -9999 -9999 -9999 -9999 -9999 -9999 -9999 -9999 -9999 -9999 -9999 -9999 -9999 -9999 -9999 -9999 -9999 -9999 -9999 -9999 -9999 -9999 -9999 -9999 -9999 -9999 -9999 -9999 -9999 -9999 -9999 -9999 -9999 -9999 -9999 -9999 -9999 -9999 553.8283 552.9934 550.8884 547.5708 543.4185 539.3228 536.3231 534.1308 532.5399 531.3513 530.2666 529.2223 528.2751 527.3747 526.3353 525.0184 523.468 521.7021 519.6824 517.3022 514.4847 511.2026 507.6001 504.5171 502.4554 501.2137 500.4247 499.8022 499.3116 498.9692 498.8116 498.7584 498.7145 498.5897 498.2148 497.3502 495.7367 493.004 490.4371 489.3126 488.473 487.7877 487.2352 486.7704 486.3502 485.9422 485.515 485.0768 484.6653 484.2823 483.9127 483.5868 483.3475 483.1547 482.9541 482.7626 482.6634 482.6948 482.7387 482.541 482.3761 482.3571 482.3964 482.3257 482.2555 482.2747 482.329 482.2138 481.4466 479.3442 476.733 474.3701 472.8551 471.6603 470.5704 469.5928 468.7567 468.0594 467.4713 466.9479 466.4479 466.089 465.504 464.7956 464.0319 463.2456 462.4527 461.6832 460.8969 460.1278 459.4172 458.8016 458.3172 457.9214 457.5706 457.2255 456.8739 456.5325 456.2249 455.9679 455.7344 455.4677 455.1326 454.7434 454.3513 453.9892 453.6344 453.2118 452.6382 451.8184 450.7011 448.8365 446.8246 445.0045 443.5784 442.485 441.505 440.527 439.6243 438.7989 438.1016 437.5958 437.3342 437.351 437.6214 438.0841 438.6962 439.4195 440.1602 440.9647 441.8184 442.6857 443.4883 443.9231 444.4631 445.0728 445.6987 446.3144 446.9147 447.4913 448.0221 448.4941 448.9206 449.3209 449.6867 450.0076 450.2841 450.5173 450.7124 450.9396 451.1945 451.6595 452.3468 453.3085 454.4443 455.5849 456.5559 457.2247 457.5885 457.7885 457.9306 458.0594 458.1967 458.3624 458.5184 458.5745 458.602 458.6292 458.6797 458.7974 458.8008 458.9003 458.8974 458.9156 458.9016 458.8685 458.8303 458.8 458.7695 458.7436 458.7269 458.717 458.721 458.7396 458.7682 458.8001 458.8869 459.0074 459.1598 459.345 459.5652 459.7891 460.0281 460.2841 460.5351 460.7511 460.949 461.1484 461.3737 461.5704 461.7426 461.8713 461.9424 461.973 461.9758 461.9547 461.8787 461.7413 461.5051 461.1819 460.7534 460.2391 459.701 459.1957 458.785 458.3378 457.9117 457.5562 457.1611 456.7365 456.2059 455.527 454.8482 454.2648 453.8745 453.6752 453.5015 453.1074 452.235 450.6615 448.2584 445.7756 443.8837 442.9499 442.7319 443.0086 443.7086 444.5558 445.5695 446.1649 446.5167 446.4608 446.065 445.8838 445.8294 446.596 448.4296 450.936 453.8026 456.5099 458.5574 459.8247 461.1156 462.0964 461.2877 459.8151 458.8031 458.3006 458.0214 457.788 457.6013 457.5313 457.694 458.2936 459.5986 461.914 464.3612 466.2166 467.3467 468.1904 -9999 -9999 -9999 -9999 -9999 -9999 -9999 -9999 -9999 -9999 -9999 -9999 -9999 -9999 -9999 -9999 -9999 -9999 -9999 -9999 -9999 -9999 -9999 -9999 -9999 -9999 -9999 -9999 -9999 -9999 -9999
-9999 -9999 -9999 -9999 -9999 -9999 -9999 -9999 -9999 -9999 -9999 -9999 -9999 -9999 -9999 -9999 -9999 -9999 -9999 -9999 -9999 -9999 -9999 -9999 -9999 -9999 -9999 -9999 -9999 -9999 -9999 -9999 -9999 -9999 -9999 -9999 -9999 -9999 -9999 -9999 -9999 -9999 -9999 -9999 -9999 -9999 -9999 -9999 -9999 -9999 -9999 -9999 -9999 -9999 -9999 -9999 -9999 -9999 -9999 -9999 -9999 -9999 -9999 -9999 -9999 -9999 -9999 -9999 -9999 -9999 -9999 -9999 -9999 -9999 -9999 -9999 554.791 553.9087 552.4308 549.7841 545.7123 541.2098 537.642 534.9823 533.0599 531.6394 530.4611 529.4056 528.4434 527.5064 526.6517 525.3793 523.8885 522.2108 520.2955 518.2227 515.6025 512.3716 508.8385 505.5785 503.556 502.3922 501.5721 500.8394 500.2112 499.7095 499.3505 499.0865 498.8537 498.6241 498.2764 497.588 496.3049 493.8231 491.2232 489.4053 488.3259 487.597 487.0565 486.621 486.2217 485.8258 485.4109 484.9711 484.5435 484.1544 483.7952 483.4768 483.2399 483.0603 482.8929 482.7285 482.6406 482.6338 482.7329 482.6555 482.5447 482.5179 482.5529 482.5089 482.4165 482.4006 482.3931 482.278 481.4626 479.3836 476.7865 474.3881 472.8414 471.5816 470.4528 469.4526 468.6005 467.8965 467.3206 466.8435 466.4194 465.9164 465.2723 464.5423 463.7812 463.0197 462.2753 461.5551 460.8014 460.0715 459.3972 458.8018 458.3153 457.9088 457.5516 457.2106 456.8638 456.5154 456.1985 455.9425 455.7324 455.5067 455.2105 454.8421 454.4516 454.0881 453.7454 453.3583 452.8469 452.1041 450.9808 449.139 447.1196 445.2176 443.6264 442.5049 441.556 440.6332 439.7376 438.8889 438.14 437.5623 437.2102 437.1142 437.3089 437.705 438.2643 438.9516 439.7139 440.5532 441.4423 442.3192 443.0821 443.6151 444.3362 445.0737 445.7908 446.4715 447.1152 447.726 448.2883 448.7863 449.2292 449.634 450.0037 450.3285 450.6055 450.8256 450.9508 451.1764 451.4308 451.8618 452.4933 453.3235 454.2679 455.2022 456.0142 456.6287 457.0436 457.3232 457.5352 457.7209 457.9068 458.0891 458.2413 458.3323 458.391 458.441 458.4982 458.5746 458.6766 458.7989 458.8005 458.8435 458.8699 458.861 458.8324 458.8 458.771 458.7477 458.7312 458.7254 458.7294 458.7532 458.7999 458.8531 458.9633 459.1078 459.2786 459.471 459.6846 459.918 460.1524 460.403 460.663 460.8955 461.1021 461.3053 461.5208 461.721 461.902 462.0498 462.1454 462.1924 462.206 462.194 462.1407 462.0138 461.8138 461.5002 461.1104 460.6466 460.1522 459.6695 459.2254 458.7937 458.4167 458.1953 457.8538 457.4717 456.9993 456.3327 455.5859 454.9051 454.401 454.1273 453.9631 453.6762 453.0176 451.7738 449.8718 447.3922 445.1034 443.4717 442.6032 442.3549 442.5181 442.9099 443.3719 443.6331 443.7425 443.7957 443.9282 444.1742 444.1407 445.0785 447.8785 451.2869 454.7506 457.7423 459.662 460.7672 461.5758 462.6171 461.4083 459.5493 458.6786 458.3147 458.1176 457.892 457.671 457.5232 457.5427 457.9108 458.8752 460.7101 463.0499 465.297 466.7538 467.7664 -9999 -9999 -9999 -9999 -9999 -9999 -9999 -9999 -9999 -9999 -9999 -9999 -9999 -9999 -9999 -9999 -9999 -9999 -9999 -9999 -9999 -9999 -9999 -9999 -9999 -9999 -9999 -9999 -9999 -9999 -9999
-9999 -9999 -9999 -9999 -9999 -9999 -9999 -9999 -9999 -9999 -9999 -9999 -9999 -9999 -9999 -9999 -9999 -9999 -9999 -9999 -9999 -9999 -9999 -9999 -9999 -9999 -9999 -9999 -9999 -9999 -9999 -9999 -9999 -9999 -9999 -9999 -9999 -9999 -9999 -9999 -9999 -9999 -9999 -9999 -9999 -9999 -9999 -9999 -9999 -9999 -9999 -9999 -9999 -9999 -9999 -9999 -9999 -9999 -9999 -9999 -9999 -9999 -9999 -9999 -9999 -9999 -9999 -9999 -9999 -9999 -9999 -9999 -9999 -9999 -9999 -9999 -9999 554.4217 552.814 551.0306 547.3343 542.6924 538.6539 535.6099 533.4255 531.8423 530.6119 529.5864 528.699 527.8997 527.1119 525.718 524.2872 522.778 521.1188 519.2673 516.8262 513.6543 510.1656 506.666 504.4802 503.3106 502.3618 501.6177 500.9627 500.368 499.8747 499.4584 499.0516 498.6669 498.2347 497.5958 496.5861 494.4695 491.9014 489.6674 488.3801 487.566 487.0011 486.5562 486.1515 485.7449 485.3248 484.8833 484.44 484.0331 483.6735 483.3648 483.1324 482.9677 482.826 482.7001 482.6162 482.6311 482.6804 482.798 482.7274 482.7206 482.7072 482.6644 482.5886 482.5677 482.5761 482.3691 481.4724 479.3979 476.824 474.4402 472.9513 471.6123 470.4095 469.3615 468.4747 467.7482 467.1664 466.7148 466.3816 465.7548 465.0282 464.259 463.4881 462.7402 462.0261 461.3391 460.6512 459.9851 459.364 458.8018 458.3265 457.913 457.5458 457.1999 456.8511 456.4955 456.162 455.8951 455.6971 455.5078 455.2552 454.9167 454.5332 454.1642 453.8215 453.4492 452.9519 452.2163 451.0659 449.3101 447.3769 445.4442 443.7124 442.5655 441.6235 440.7136 439.8051 438.924 438.1308 437.5019 437.0947 436.9362 437.0365 437.3471 437.8366 438.4791 439.2428 440.107 441.0318 441.956 442.8067 443.5566 444.3509 445.1532 445.9334 446.6674 447.3491 447.9866 448.5745 449.094 449.5477 449.9525 450.3164 450.6402 450.9265 451.1691 451.1967 451.4344 451.7158 452.1112 452.6606 453.3592 454.1401 454.9124 455.6028 456.1657 456.5993 456.9315 457.1983 457.433 457.6468 457.8374 457.9911 458.1013 458.1825 458.2522 458.3239 458.41 458.5233 458.647 458.7159 458.7999 458.8458 458.8517 458.8323 458.8 458.7786 458.7585 458.7414 458.7332 458.7375 458.7566 458.8 458.8899 459.0355 459.2155 459.4094 459.6162 459.8236 460.0511 460.2865 460.5314 460.7824 461.0203 461.2324 461.4376 461.6484 461.8562 462.0519 462.2217 462.3436 462.4103 462.4399 462.4387 462.4055 462.3136 462.134 461.8725 461.517 461.1091 460.6694 460.2162 459.7502 459.2757 458.8559 458.7621 458.4367 458.1765 457.8426 457.2091 456.4567 455.6794 455.0554 454.6801 454.4628 454.1917 453.6538 452.6508 451.0597 448.8565 446.4296 444.2829 442.9808 442.3017 442.0103 441.9175 441.9213 441.909 441.9724 442.2099 442.6604 443.037 443.582 445.1328 448.5483 452.4506 456.2143 459.1436 461.1765 462.3014 462.934 463.1877 461.7802 459.9325 458.7999 458.4722 458.326 458.0746 457.8142 457.6086 457.4886 457.6238 458.2013 459.4102 461.4227 463.752 465.7976 467.0711 -9999 -9999 -9999 -9999 -9999 -9999 -9999 -9999 -9999 -9999 -9999 -9999 -9999 -9999 -9999 -9999 -9999 -9999 -9999 -9999 -9999 -9999 -9999 -9999 -9999 -9999 -9999 -9999 -9999 -9999 -9999
-9999 -9999 -9999 -9999 -9999 -9999 -9999 -9999 -9999 -9999 -9999 -9999 -9999 -9999 -9999 -9999 -9999 -9999 -9999 -9999 -9999 -9999 -9999 -9999 -9999 -9999 -9999 -9999 -9999 -9999 -9999 -9999 -9999 -9999 -9999 -9999 -9999 -9999 -9999 -9999 -9999 -9999 -9999 -9999 -9999 -9999 -9999 -9999 -9999 -9999 -9999 -9999 -9999 -9999 -9999 -9999 -9999 -9999 -9999 -9999 -9999 -9999 -9999 -9999 -9999 -9999 -9999 -9999 -9999 -9999 -9999 -9999 -9999 -9999 -9999 -9999 -9999 554.701 553.4452 551.568 548.3404 543.8775 539.446 536.1145 533.7518 532.0696 530.8075 529.7964 528.9346 528.1376 527.257 525.91 524.6735 523.3477 521.8505 520.1392 518.0499 514.9147 511.4467 507.9225 505.2109 503.7323 502.7956 502.1422 501.5346 500.9106 500.3323 499.819 499.2975 498.7742 498.2154 497.5485 496.8116 495.1335 492.6299 490.162 488.6721 487.7321 487.1028 486.6082 486.1564 485.7104 485.2625 484.8097 484.3551 483.9282 483.5555 483.2493 483.0214 482.8703 482.7518 482.6611 482.5972 482.6167 482.6996 482.822 482.9437 482.9145 482.8758 482.8021 482.7379 482.7305 482.7222 482.4416 481.4826 479.4285 476.896 474.5054 472.9645 471.6292 470.4037 469.3126 468.3804 467.6133 466.9863 466.4482 466.0532 465.4625 464.7354 463.9556 463.1809 462.4433 461.7537 461.1049 460.4794 459.8797 459.3173 458.8011 458.3466 457.931 457.5523 457.1988 456.8461 456.4825 456.1323 455.8459 455.6458 455.4835 455.2733 454.9696 454.5982 454.2241 453.8762 453.5142 453.0444 452.3401 451.2421 449.6672 447.9271 446.0096 444.1214 442.8679 441.8343 440.8424 439.8535 438.9012 438.0543 437.3869 436.9468 436.7463 436.7767 437.0114 437.4323 438.028 438.78 439.6628 440.6345 441.6382 442.6194 443.55 444.4357 445.2987 446.1282 446.9051 447.6187 448.2773 448.8817 449.4159 449.873 450.2698 450.6157 450.9164 451.1827 451.4398 451.6119 451.7974 452.0526 452.4056 452.8706 453.4455 454.0839 454.7221 455.3149 455.829 456.2645 456.6241 456.9287 457.194 457.422 457.6171 457.7716 457.8902 457.9836 458.0682 458.1531 458.2488 458.3639 458.4879 458.6 458.7094 458.7998 458.8339 458.8361 458.8188 458.8 458.779 458.7577 458.7452 458.7477 458.7659 458.8001 458.9208 459.0978 459.3123 459.5341 459.7509 459.9655 460.1726 460.4009 460.6338 460.8731 461.1082 461.3214 461.5283 461.7401 461.9573 462.1711 462.369 462.5255 462.6229 462.6708 462.6884 462.6753 462.6149 462.4831 462.2638 461.9688 461.6191 461.2398 460.8397 460.4077 459.9503 459.5294 459.2436 458.8772 458.8211 458.7058 458.1136 457.4437 456.6011 455.854 455.3665 455.0812 454.7825 454.2903 453.434 452.1047 450.2614 447.8998 445.6215 443.8587 442.7491 442.0344 441.533 441.1486 440.9116 440.9333 441.283 441.9579 442.8082 444.0884 446.4317 450.238 454.2747 457.7992 460.5156 462.7382 463.9067 464.2399 463.8106 462.2509 460.2834 458.8721 458.7581 458.6495 458.2854 457.9632 457.7232 457.4887 457.4402 457.7134 458.4583 459.838 462.0331 464.487 466.1252 -9999 -9999 -9999 -9999 -9999 -9999 -9999 -9999 -9999 -9999 -9999 -9999 -9999 -9999 -9999 -9999 -9999 -9999 -9999 -9999 -9999 -9999 -9999 -9999 -9999 -9999 -9999 -9999 -9999 -9999 -9999
-9999 -9999 -9999 -9999 -9999 -9999 -9999 -9999 -9999 -9999 -9999 -9999 -9999 -9999 -9999 -9999 -9999 -9999 -9999 -9999 -9999 -9999 -9999 -9999 -9999 -9999 -9999 -9999 -9999 -9999 -9999 -9999 -9999 -9999 -9999 -9999 -9999 -9999 -9999 -9999 -9999 -9999 -9999 -9999 -9999 -9999 -9999 -9999 -9999 -9999 -9999 -9999 -9999 -9999 -9999 -9999 -9999 -9999 -9999 -9999 -9999 -9999 -9999 -9999 -9999 -9999 -9999 -9999 -9999 -9999 -9999 -9999 -9999 -9999 -9999 -9999 -9999 554.1195 553.0446 551.5442 548.9359 545.0439 540.6791 536.8547 534.2753 532.4818 531.1609 530.1142 529.2182 528.3765 527.4692 526.4656 525.2875 524.001 522.5477 520.8469 519.0076 516.1745 512.7952 509.2789 506.1455 504.2451 503.1959 502.59 502.0121 501.3464 500.706 500.1319 499.5689 498.9951 498.4298 497.9428 497.3163 495.9839 493.5159 490.9903 489.1747 488.0734 487.363 486.7815 486.2331 485.7159 485.2218 484.7457 484.2807 483.8392 483.449 483.1346 482.9057 482.7621 482.6642 482.6038 482.5705 482.5869 482.7181 482.8568 483.0406 483.0926 483.0237 482.938 482.8717 482.8527 482.809 482.4782 481.4983 479.5152 477.1046 474.7848 473.2242 471.8029 470.487 469.3142 468.3178 467.5156 466.9001 466.4136 465.8407 465.2023 464.4579 463.6733 462.898 462.1686 461.4998 460.8871 460.315 459.7756 459.27 458.8007 458.3702 457.957 457.5657 457.2011 456.8463 456.4808 456.1202 455.8155 455.602 455.4499 455.2737 455.0049 454.6503 454.2734 453.9235 453.5851 453.1887 452.6462 451.8584 450.7597 449.154 447.1656 445.1505 443.5182 442.2322 441.0448 439.8943 438.8176 437.8971 437.201 436.7523 436.5352 436.5239 436.7001 437.0605 437.6086 438.3408 439.2367 440.2584 441.353 442.4658 443.5483 444.5439 445.4852 446.3709 447.1884 447.9285 448.6057 449.2143 449.7513 450.2041 450.5835 450.9058 451.1795 451.4299 451.673 451.8852 452.1015 452.3672 452.7033 453.1038 453.5757 454.0936 454.6203 455.1345 455.6042 456.0302 456.3988 456.7157 456.993 457.2276 457.4207 457.5743 457.6968 457.795 457.8889 457.9866 458.0899 458.2072 458.3355 458.4638 458.5891 458.7057 458.8 458.8357 458.8346 458.8195 458.8 458.7741 458.7592 458.7648 458.8 458.8501 458.9695 459.1551 459.3877 459.6299 459.8564 460.0649 460.2668 460.4688 460.6844 460.9075 461.1273 461.3422 461.5558 461.7776 462.0093 462.2466 462.4722 462.6691 462.8122 462.8943 462.9365 462.9496 462.923 462.8356 462.6773 462.4456 462.1625 461.8528 461.5207 461.1584 460.7581 460.3587 460.0075 459.7003 459.5721 459.417 458.9404 458.5164 457.6295 456.7639 456.1606 455.7921 455.4229 454.915 454.1204 452.9372 451.3108 449.2617 447.0643 445.1003 443.5118 442.418 441.6021 440.9454 440.5546 440.5613 441.0374 442.021 443.4442 445.512 448.7098 452.5266 456.4398 459.6308 461.9478 464.1556 465.3159 465.4538 464.6931 462.9991 460.796 459.0668 459.2574 458.9259 458.3721 457.8876 457.569 457.422 457.3097 457.4188 457.8323 458.7368 460.3309 462.8133 465.2001 -9999 -9999 -9999 -9999 -9999 -9999 -9999 -9999 -9999 -9999 -9999 -9999 -9999 -9999 -9999 -9999 -9999 -9999 -9999 -9999 -9999 -9999 -9999 -9999 -9999 -9999 -9999 -9999 -9999 -9999 -9999
-9999 -9999 -9999 -9999 -9999 -9999 -9999 -9999 -9999 -9999 -9999 -9999 -9999 -9999 -9999 -9999 -9999 -9999 -9999 -9999 -9999 -9999 -9999 -9999 -9999 -9999 -9999 -9999 -9999 -9999 -9999 -9999 -9999 -9999 -9999 -9999 -9999 -9999 -9999 -9999 -9999 -9999 -9999 -9999 -9999 -9999 -9999 -9999 -9999 -9999 -9999 -9999 -9999 -9999 -9999 -9999 -9999 -9999 -9999 -9999 -9999 -9999 -9999 -9999 -9999 -9999 -9999 -9999 -9999 -9999 -9999 -9999 -9999 -9999 -9999 -9999 -9999 -9999 552.0753 550.9136 549.1071 546.0377 542.0562 538.0883 535.2227 533.2504 531.7967 530.6385 529.6539 528.7727 527.9411 527.1259 525.9535 524.713 523.3794 521.8553 520.0531 517.5874 514.4437 510.9697 507.5703 505.0284 503.7369 503.1078 502.4605 501.6911 500.9846 500.3633 499.7983 499.2567 498.7623 498.3091 497.6871 496.4944 494.1708 491.6262 489.564 488.4921 487.7358 487.037 486.3473 485.7361 485.1899 484.6866 484.2102 483.7596 483.3552 483.0262 482.7882 482.6418 482.5586 482.5206 482.5206 482.5576 482.6773 482.9111 483.0757 483.1933 483.136 483.0651 482.9982 482.9727 482.8827 482.5033 481.5201 479.6474 477.4698 475.3865 473.7284 472.0972 470.6244 469.3361 468.251 467.3897 466.7656 466.3731 465.7161 465.0023 464.2263 463.4424 462.6694 461.9459 461.2923 460.7079 460.1778 459.6874 459.2294 458.8005 458.3955 457.9885 457.5843 457.2034 456.8434 456.4839 456.1263 455.8127 455.5822 455.4221 455.2637 455.026 454.6911 454.3143 453.961 453.6453 453.3271 452.9432 452.4193 451.6434 450.4356 448.4792 446.3149 444.2826 442.7417 441.3135 439.9353 438.6782 437.6593 436.949 436.5245 436.323 436.2957 436.4278 436.7314 437.2281 437.931 438.8315 439.8978 441.0805 442.3186 443.5428 444.6585 445.6994 446.6629 447.5305 448.2941 448.9861 449.5825 450.1 450.5363 450.8903 451.1788 451.4143 451.6421 451.8729 452.0981 452.3409 452.6264 452.9665 453.3229 453.7208 454.1445 454.5798 455.0401 455.4774 455.8834 456.2405 456.5519 456.8246 457.0517 457.239 457.3881 457.5103 457.6134 457.7111 457.8235 457.9409 458.0664 458.2015 458.34 458.4745 458.6189 458.7992 458.8368 458.8418 458.8263 458.8 458.7785 458.763 458.7648 458.8 458.885 459.0159 459.2007 459.4347 459.6796 459.9044 460.1013 460.2865 460.469 460.6617 460.8603 461.0677 461.2772 461.4977 461.7379 461.9939 462.261 462.5219 462.7592 462.9564 463.0959 463.1741 463.2277 463.2377 463.1963 463.095 462.9371 462.7262 462.4878 462.2297 461.9434 461.6208 461.2687 460.9192 460.5975 460.3825 460.1812 459.8438 459.4008 458.6518 457.7433 457.0397 456.5936 456.1693 455.5501 454.7547 453.6834 452.2688 450.5363 448.4249 446.3693 444.3148 442.9849 441.9816 441.183 440.7206 440.8028 441.5342 442.8469 444.8489 447.683 451.157 454.9066 458.5295 461.6201 464.011 465.6516 466.318 466.3665 465.6599 464.0949 461.7365 459.6269 459.7656 459.1055 458.3607 457.7498 457.3469 457.1779 457.196 457.2963 457.5241 458.082 459.2244 461.3414 463.9907 -9999 -9999 -9999 -9999 -9999 -9999 -9999 -9999 -9999 -9999 -9999 -9999 -9999 -9999 -9999 -9999 -9999 -9999 -9999 -9999 -9999 -9999 -9999 -9999 -9999 -9999 -9999 -9999 -9999 -9999 -9999
-9999 -9999 -9999 -9999 -9999 -9999 -9999 -9999 -9999 -9999 -9999 -9999 -9999 -9999 -9999 -9999 -9999 -9999 -9999 -9999 -9999 -9999 -9999 -9999 -9999 -9999 -9999 -9999 -9999 -9999 -9999 -9999 -9999 -9999 -9999 -9999 -9999 -9999 -9999 -9999 -9999 -9999 -9999 -9999 -9999 -9999 -9999 -9999 -9999 -9999 -9999 -9999 -9999 -9999 -9999 -9999 -9999 -9999 -9999 -9999 -9999 -9999 -9999 -9999 -9999 -9999 -9999 -9999 -9999 -9999 -9999 -9999 -9999 -9999 -9999 -9999 -9999 -9999 550.9732 550.1152 549.0369 547.0129 543.7845 540.0292 536.7202 534.4997 532.7996 531.4167 530.2455 529.2209 528.2759 527.3522 526.3656 525.3099 524.1674 522.8566 521.2651 519.1484 516.2159 512.6987 509.1354 506.0828 504.4112 503.6721 502.758 501.9121 501.1762 500.5234 499.9276 499.4017 498.9285 498.4507 497.808 496.6923 494.5899 492.1496 490.0169 489.015 488.1284 487.214 486.4078 485.7283 485.1462 484.6249 484.1391 483.6818 483.268 482.9247 482.6723 482.5127 482.4346 482.4098 482.4418 482.5011 482.6416 482.8713 483.1339 483.2548 483.252 483.1929 483.1326 483.0822 482.9567 482.5289 481.5372 479.742 477.7578 475.7805 473.9885 472.2674 470.699 469.3205 468.1512 467.2041 466.4707 466.0517 465.4799 464.8022 464.0533 463.278 462.5101 461.7909 461.1462 460.5791 460.0775 459.6223 459.1998 458.8 458.4146 458.0172 457.609 457.2073 456.8353 456.4813 456.1396 455.8328 455.5867 455.3997 455.2404 455.0276 454.7169 454.3443 453.9824 453.6719 453.4023 453.1227 452.7675 452.1997 451.221 449.6431 447.5846 445.4379 443.4953 441.7159 440.0163 438.5042 437.3546 436.6517 436.2953 436.1455 436.1236 436.2195 436.4619 436.8958 437.5558 438.4484 439.5484 440.8087 442.1647 443.5295 444.7737 445.9377 447.0094 447.9561 448.7627 449.44 449.9922 450.4631 450.8626 451.1786 451.4212 451.6263 451.834 452.0508 452.2758 452.5248 452.8145 453.1432 453.4907 453.8528 454.2164 454.578 455.0054 455.4102 455.7954 456.1266 456.4198 456.6748 456.888 457.0608 457.2053 457.3249 457.4363 457.5399 457.6665 457.806 457.9518 458.1003 458.2532 458.406 458.5673 458.7293 458.8001 458.8347 458.8279 458.8 458.7841 458.7667 458.7626 458.8 458.912 459.0566 459.2351 459.452 459.6773 459.8824 460.0525 460.2187 460.377 460.5446 460.7271 460.9175 461.1237 461.3531 461.6134 461.8991 462.2024 462.5049 462.7894 463.0447 463.2551 463.3897 463.4983 463.559 463.5643 463.5195 463.4284 463.298 463.1297 462.9394 462.723 462.4691 462.1745 461.8477 461.5068 461.2039 460.951 460.6583 460.2267 459.5474 458.7248 457.9521 457.3846 456.7821 456.1276 455.3474 454.3413 453.0378 451.4059 449.533 447.481 445.461 443.847 442.6754 441.7848 441.3556 441.6329 442.6508 444.4815 447.0696 450.1928 453.662 457.2043 460.4166 463.3398 465.5319 466.4184 466.3855 466.6322 466.3984 465.4115 463.1462 460.5885 459.5872 458.902 458.2146 457.6275 457.2428 457.1026 457.2481 457.3442 457.5239 457.8835 458.6805 460.2089 463.0444 -9999 -9999 -9999 -9999 -9999 -9999 -9999 -9999 -9999 -9999 -9999 -9999 -9999 -9999 -9999 -9999 -9999 -9999 -9999 -9999 -9999 -9999 -9999 -9999 -9999 -9999 -9999 -9999 -9999 -9999 -9999
-9999 -9999 -9999 -9999 -9999 -9999 -9999 -9999 -9999 -9999 -9999 -9999 -9999 -9999 -9999 -9999 -9999 -9999 -9999 -9999 -9999 -9999 -9999 -9999 -9999 -9999 -9999 -9999 -9999 -9999 -9999 -9999 -9999 -9999 -9999 -9999 -9999 -9999 -9999 -9999 -9999 -9999 -9999 -9999 -9999 -9999 -9999 -9999 -9999 -9999 -9999 -9999 -9999 -9999 -9999 -9999 -9999 -9999 -9999 -9999 -9999 -9999 -9999 -9999 -9999 -9999 -9999 -9999 -9999 -9999 -9999 -9999 -9999 -9999 -9999 -9999 -9999 -9999 -9999 549.7715 549.3313 548.1913 545.8716 542.4529 538.9056 536.3275 534.1924 532.4432 530.992 529.7573 528.6282 527.5452 526.6963 525.7808 524.7736 523.6497 522.2751 520.4522 517.9509 514.5223 510.8988 507.4915 505.0346 503.8013 502.878 502.0744 501.3561 500.6823 500.0317 499.4369 498.9164 498.3834 497.7147 496.7453 494.9053 492.6884 490.6392 489.2428 488.1761 487.2251 486.3963 485.6911 485.0899 484.5587 484.0662 483.6019 483.179 482.8237 482.5568 482.3806 482.2956 482.2769 482.3292 482.4213 482.5757 482.8287 483.1051 483.295 483.3328 483.3036 483.255 483.1965 483.0318 482.5691 481.5868 479.9191 477.9855 475.996 474.0899 472.3131 470.6829 469.2438 468.0347 467.0917 466.4209 465.8628 465.2705 464.6177 463.9074 463.1611 462.4117 461.7019 461.0628 460.5039 460.0161 459.5818 459.1813 458.7999 458.4223 458.0338 457.6273 457.2163 456.8237 456.465 456.1375 455.8468 455.5928 455.3635 455.1874 454.9955 454.7168 454.3576 453.9841 453.6574 453.3971 453.1756 452.9226 452.54 451.8457 450.6894 448.8232 446.6403 444.3598 442.2697 440.1809 438.3227 436.9991 436.3438 436.1052 436.035 436.0307 436.0951 436.2679 436.6227 437.2252 438.0974 439.2182 440.5409 442.0001 443.5035 444.8885 446.2029 447.4102 448.4582 449.3064 449.9556 450.4215 450.8302 451.1776 451.439 451.6498 451.8398 452.0313 452.2294 452.4421 452.6809 452.9594 453.2735 453.6141 453.9661 454.3156 454.6628 455.0318 455.3735 455.7211 456.0344 456.3052 456.5338 456.727 456.8841 457.0208 457.1411 457.2574 457.3857 457.5318 457.695 457.8673 458.0353 458.1949 458.352 458.516 458.679 458.7997 458.8376 458.8362 458.8172 458.8 458.7767 458.7659 458.8 458.9264 459.0827 459.2503 459.4393 459.6179 459.7897 459.9229 460.0574 460.1946 460.3417 460.5062 460.6874 460.8916 461.1292 461.409 461.7281 462.0692 462.4167 462.7517 463.066 463.3475 463.5821 463.7543 463.8715 463.9322 463.9437 463.9172 463.8588 463.7657 463.6353 463.4727 463.2726 463.0239 462.724 462.3776 462.0208 461.7069 461.4071 461.0054 460.3887 459.6008 458.7846 458.058 457.3875 456.757 456.002 455.0397 453.8276 452.3445 450.6565 448.7289 446.8587 445.1762 443.7643 442.7647 442.4818 442.9525 444.4045 446.7245 449.5366 452.5609 455.8213 459.0049 461.8431 464.5189 466.346 467.041 467.0272 467.0229 466.9291 466.3209 464.7584 462.1805 459.9021 458.847 458.159 457.6182 457.307 457.1841 457.2788 457.4422 457.6978 458.0699 458.6777 459.7344 462.5114 465.4887 -9999 -9999 -9999 -9999 -9999 -9999 -9999 -9999 -9999 -9999 -9999 -9999 -9999 -9999 -9999 -9999 -9999 -9999 -9999 -9999 -9999 -9999 -9999 -9999 -9999 -9999 -9999 -9999 -9999 -9999
-9999 -9999 -9999 -9999 -9999 -9999 -9999 -9999 -9999 -9999 -9999 -9999 -9999 -9999 -9999 -9999 -9999 -9999 -9999 -9999 -9999 -9999 -9999 -9999 -9999 -9999 -9999 -9999 -9999 -9999 -9999 -9999 -9999 -9999 -9999 -9999 -9999 -9999 -9999 -9999 -9999 -9999 -9999 -9999 -9999 -9999 -9999 -9999 -9999 -9999 -9999 -9999 -9999 -9999 -9999 -9999 -9999 -9999 -9999 -9999 -9999 -9999 -9999 -9999 -9999 -9999 -9999 -9999 -9999 -9999 -9999 -9999 -9999 -9999 -9999 -9999 -9999 -9999 -9999 550.2204 550.2626 549.8373 548.2438 545.3219 541.7725 538.6291 535.8386 533.6224 531.8585 530.4232 529.1724 528.0676 527.1943 526.1326 525.1642 524.1522 522.9432 521.351 519.1402 516.0514 512.5022 508.9413 505.9239 504.2067 503.2108 502.3716 501.61 500.9093 500.1939 499.5074 498.8769 498.2358 497.5315 496.7537 495.1844 493.1847 491.1486 489.4355 488.2512 487.258 486.4017 485.6707 485.0447 484.496 483.9929 483.5186 483.0836 482.715 482.4357 482.2467 482.1496 482.1282 482.1853 482.3157 482.4915 482.7587 483.0596 483.2835 483.3806 483.4011 483.3746 483.3068 483.1103 482.6104 481.619 480.0174 478.1018 476.0881 474.1163 472.285 470.5953 469.0954 467.843 466.9037 466.3534 465.6956 465.0654 464.4335 463.7686 463.0671 462.3525 461.663 461.0319 460.4756 459.9906 459.5629 459.1721 458.8 458.427 458.0397 457.6344 457.2197 456.8116 456.4332 456.0925 455.7847 455.5083 455.274 455.0872 454.9182 454.6816 454.3503 453.9673 453.6078 453.3201 453.111 452.9258 452.6677 452.1925 451.301 449.9106 447.9502 445.6002 443.1242 440.528 438.1953 436.6213 436.0767 435.9917 435.9939 436.0005 436.0463 436.1492 436.4141 436.9542 437.8052 438.9415 440.3093 441.845 443.4695 445.0165 446.5114 447.877 449.0314 449.922 450.5241 450.8399 451.1787 451.4714 451.6922 451.8763 452.0528 452.2356 452.4222 452.6184 452.8362 453.0918 453.3823 453.7041 454.0449 454.3878 454.725 455.0587 455.3716 455.6708 455.9479 456.1934 456.3954 456.5696 456.7141 456.8487 456.9765 457.113 457.265 457.435 457.6208 457.8118 457.9911 458.1489 458.296 458.447 458.5977 458.7237 458.7999 458.8252 458.8208 458.8 458.7851 458.7736 458.8 458.9163 459.0697 459.2186 459.374 459.4803 459.5963 459.7052 459.8206 459.9439 460.0784 460.2288 460.4024 460.6053 460.8509 461.1465 461.4936 461.8722 462.2643 462.6501 463.0228 463.3691 463.6784 463.9424 464.1488 464.2841 464.3579 464.3907 464.3989 464.3759 464.3038 464.1851 464.0209 463.805 463.5247 463.1881 462.8171 462.4644 462.1428 461.7617 461.2104 460.4717 459.6335 458.8158 458.1192 457.5641 456.8168 455.8667 454.72 453.3099 451.6767 450.0738 448.5098 446.9058 445.3641 444.2838 444.0944 444.8638 446.6379 449.1095 451.6436 454.4884 457.5446 460.3842 462.9412 465.4648 466.8962 467.4977 467.5352 467.4269 467.3828 467.005 465.9209 463.9241 461.1229 459.4353 458.4141 457.8137 457.5774 457.5634 457.59 457.6154 457.9145 458.3889 458.993 459.5935 462.1731 465.0271 -9999 -9999 -9999 -9999 -9999 -9999 -9999 -9999 -9999 -9999 -9999 -9999 -9999 -9999 -9999 -9999 -9999 -9999 -9999 -9999 -9999 -9999 -9999 -9999 -9999 -9999 -9999 -9999 -9999 -9999
-9999 -9999 -9999 -9999 -9999 -9999 -9999 -9999 -9999 -9999 -9999 -9999 -9999 -9999 -9999 -9999 -9999 -9999 -9999 -9999 -9999 -9999 -9999 -9999 -9999 -9999 -9999 -9999 -9999 -9999 -9999 -9999 -9999 -9999 -9999 -9999 -9999 -9999 -9999 -9999 -9999 -9999 -9999 -9999 -9999 -9999 -9999 -9999 -9999 -9999 -9999 -9999 -9999 -9999 -9999 -9999 -9999 -9999 -9999 -9999 -9999 -9999 -9999 -9999 -9999 -9999 -9999 -9999 -9999 -9999 -9999 -9999 -9999 -9999 -9999 -9999 -9999 -9999 -9999 -9999 551.9869 551.6841 550.3606 548.0395 544.6802 540.8384 537.4155 534.7778 532.746 531.1249 529.7098 528.4467 527.3474 526.3018 525.345 524.3923 523.3031 521.9057 519.9772 517.3673 514.0841 510.5657 507.2486 504.9525 503.8992 502.8716 501.9567 501.168 500.4229 499.6815 498.9877 498.325 497.6393 496.8394 495.5179 493.7303 491.7451 489.8794 488.5679 487.4467 486.5005 485.7106 485.0408 484.4566 483.9281 483.4355 482.9823 482.5959 482.3034 482.1089 482.0028 481.9705 482.0179 482.178 482.3946 482.6807 482.996 483.2504 483.3983 483.4791 483.4942 483.4287 483.1997 482.6555 481.6294 480.0256 478.0952 476.0674 474.0903 472.2105 470.4633 468.9034 467.5766 466.5276 465.9787 465.4088 464.8243 464.2328 463.6208 462.9744 462.308 461.6507 461.0351 460.4812 459.9933 459.5617 459.1705 458.8 458.4331 458.0451 457.6389 457.2167 456.7953 456.3973 456.0368 455.7078 455.4027 455.1431 454.9501 454.7993 454.61 454.3222 453.9378 453.5358 453.1949 452.9571 452.8082 452.6643 452.4151 451.9005 450.9598 449.284 446.9353 444.1521 441.1608 438.2833 436.3498 435.9338 435.9347 435.9346 435.9389 436.0222 436.0808 436.2631 436.7662 437.6268 438.7955 440.1998 441.7758 443.4774 445.2154 446.9119 448.4341 449.6721 450.5731 451.1242 451.2135 451.5175 451.7825 451.97 452.1195 452.2753 452.4462 452.6254 452.8076 453.0023 453.2375 453.4933 453.7825 454.0968 454.4195 454.742 455.0513 455.3419 455.6094 455.8537 456.077 456.2597 456.4191 456.5606 456.7007 456.843 457.0071 457.1806 457.3721 457.5692 457.7706 457.9531 458.1025 458.2336 458.3661 458.4998 458.6206 458.7202 458.8 458.8246 458.8148 458.8 458.7842 458.8 458.8755 459.0015 459.1021 459.1892 459.2584 459.3479 459.4431 459.5466 459.6607 459.7853 459.9296 460.0969 460.3004 460.5507 460.8582 461.2237 461.6312 462.0619 462.4989 462.9291 463.3424 463.725 464.0778 464.3813 464.6055 464.7545 464.8434 464.9038 464.9435 464.9319 464.8506 464.7169 464.5208 464.2492 463.9242 463.5807 463.2387 462.9057 462.5393 462.0442 461.3734 460.5675 459.7324 458.9888 458.5708 457.7845 456.8479 455.8235 454.5449 453.0847 451.6378 450.3797 448.8578 447.4567 446.5878 446.6082 447.4416 448.9758 450.9859 453.2195 455.7672 458.6006 461.4053 464.0048 466.1189 467.2263 467.758 467.8577 467.7752 467.7989 467.5731 466.8691 465.3922 462.9146 460.6063 459.1685 458.3132 458.0632 458.1696 458.1105 457.7936 457.9306 458.3301 458.5994 459.2757 461.6041 464.2826 -9999 -9999 -9999 -9999 -9999 -9999 -9999 -9999 -9999 -9999 -9999 -9999 -9999 -9999 -9999 -9999 -9999 -9999 -9999 -9999 -9999 -9999 -9999 -9999 -9999 -9999 -9999 -9999 -9999 -9999
-9999 -9999 -9999 -9999 -9999 -9999 -9999 -9999 -9999 -9999 -9999 -9999 -9999 -9999 -9999 -9999 -9999 -9999 -9999 -9999 -9999 -9999 -9999 -9999 -9999 -9999 -9999 -9999 -9999 -9999 -9999 -9999 -9999 -9999 -9999 -9999 -9999 -9999 -9999 -9999 -9999 -9999 -9999 -9999 -9999 -9999 -9999 -9999 -9999 -9999 -9999 -9999 -9999 -9999 -9999 -9999 -9999 -9999 -9999 -9999 -9999 -9999 -9999 -9999 -9999 -9999 -9999 -9999 -9999 -9999 -9999 -9999 -9999 -9999 -9999 -9999 -9999 -9999 -9999 -9999 -9999 553.1702 551.9648 550.0219 547.1378 543.0983 538.8947 535.8571 533.5684 531.7811 530.1678 528.715 527.4114 526.388 525.4461 524.5067 523.4875 522.2728 520.6993 518.5742 515.5084 511.9795 508.5488 505.888 504.835 503.4637 502.2975 501.3901 500.631 499.8962 499.1845 498.5066 497.8162 497.0039 495.9799 494.3636 492.4979 490.7209 489.1139 487.7529 486.68 485.8133 485.0862 484.4517 483.8806 483.3551 482.8757 482.4659 482.1586 481.9668 481.863 481.8105 481.838 482.0041 482.2901 482.6058 482.9444 483.2201 483.404 483.527 483.5904 483.5429 483.2956 482.7067 481.6235 479.9454 477.944 475.8903 473.9669 472.0635 470.2948 468.7321 467.4315 466.4362 465.7798 465.1914 464.6148 464.0435 463.468 462.8688 462.2549 461.6409 461.0499 460.5039 460.0122 459.5723 459.1737 458.8003 458.4347 458.0545 457.6475 457.2202 456.7818 456.3642 455.9855 455.6395 455.3116 455.0194 454.7996 454.6494 454.5031 454.2729 453.8962 453.4531 453.0453 452.7481 452.5916 452.5294 452.4558 452.2402 451.6793 450.507 448.3833 445.6475 442.4326 439.0565 436.8816 435.9564 435.632 435.5386 435.6359 435.9242 436.0184 436.157 436.7077 437.6615 438.9169 440.3765 441.9704 443.6908 445.6295 447.5048 449.1252 450.3606 451.153 451.5244 451.6839 451.9212 452.1371 452.2836 452.3923 452.5141 452.665 452.835 453.0031 453.1745 453.4037 453.6198 453.8701 454.1512 454.436 454.7288 455.0153 455.2827 455.5266 455.7468 455.9537 456.1309 456.2859 456.4337 456.5942 456.7573 456.9373 457.1255 457.3268 457.5251 457.7234 457.9053 458.0477 458.1659 458.2852 458.4091 458.5284 458.6489 458.7998 458.8342 458.8241 458.8 458.7795 458.7736 458.8001 458.8853 458.942 458.9775 459.0122 459.0963 459.1829 459.2813 459.3837 459.4955 459.6298 459.7955 460.0028 460.2586 460.5743 460.9508 461.3731 461.8267 462.31 462.7947 463.2782 463.7407 464.1781 464.5742 464.8912 465.1174 465.2672 465.3698 465.4523 465.5018 465.4621 465.3588 465.1856 464.9019 464.5817 464.2956 464.0218 463.7068 463.3502 462.9021 462.3056 461.5719 460.7902 460.0741 459.4999 458.7766 457.95 457.1201 455.978 454.666 453.363 452.1487 450.8554 449.6201 449.001 449.1116 449.9603 450.9991 452.474 454.2942 456.5302 459.1527 462.0636 464.7177 466.5817 467.4938 467.9133 468.0828 468.078 468.1304 468.0581 467.6177 466.6046 464.8807 462.6372 460.5582 459.2424 458.7101 458.7528 458.2054 457.6264 457.4702 457.7063 458.1364 459.0943 461.3331 463.9067 -9999 -9999 -9999 -9999 -9999 -9999 -9999 -9999 -9999 -9999 -9999 -9999 -9999 -9999 -9999 -9999 -9999 -9999 -9999 -9999 -9999 -9999 -9999 -9999 -9999 -9999 -9999 -9999 -9999 -9999
-9999 -9999 -9999 -9999 -9999 -9999 -9999 -9999 -9999 -9999 -9999 -9999 -9999 -9999 -9999 -9999 -9999 -9999 -9999 -9999 -9999 -9999 -9999 -9999 -9999 -9999 -9999 -9999 -9999 -9999 -9999 -9999 -9999 -9999 -9999 -9999 -9999 -9999 -9999 -9999 -9999 -9999 -9999 -9999 -9999 -9999 -9999 -9999 -9999 -9999 -9999 -9999 -9999 -9999 -9999 -9999 -9999 -9999 -9999 -9999 -9999 -9999 -9999 -9999 -9999 -9999 -9999 -9999 -9999 -9999 -9999 -9999 -9999 -9999 -9999 -9999 -9999 -9999 -9999 -9999 -9999 554.3128 553.0353 551.0178 548.8448 544.9556 540.45 536.9148 534.2504 532.1917 530.4481 528.9138 527.5627 526.6053 525.5842 524.5685 523.5491 522.4396 521.1053 519.3439 516.7875 513.386 509.967 506.9892 505.2274 503.7476 502.5355 501.5603 500.7831 500.0834 499.3936 498.7245 498.0793 497.4093 496.5733 494.9364 493.0112 491.0892 489.3294 487.9451 486.8538 485.9511 485.1731 484.4834 483.8581 483.2854 482.7672 482.3257 481.9999 481.8203 481.747 481.6602 481.6606 481.8152 482.1674 482.5511 482.9145 483.2167 483.432 483.5815 483.6731 483.6375 483.3746 482.749 481.5997 479.7826 477.6259 475.4764 473.6412 471.7706 470.0406 468.5262 467.3016 466.4183 465.6876 465.0461 464.4489 463.8743 463.3104 462.7459 462.1786 461.6116 461.0546 460.5249 460.0346 459.5881 459.1795 458.8004 458.4387 458.0602 457.662 457.2328 456.7808 456.3422 455.9499 455.5916 455.2462 454.92 454.6601 454.4863 454.36 454.1876 453.8239 453.3581 452.8884 452.5182 452.3116 452.2725 452.3151 452.303 452.0417 451.2655 449.78 447.5283 444.4609 441.1183 438.3313 436.7335 435.8466 435.3915 435.3189 435.571 435.9191 436.1124 436.8882 438.0703 439.4969 441.0702 442.7218 444.4589 446.5009 448.4232 450.0045 451.1056 451.6655 451.8876 452.0529 452.2777 452.477 452.6017 452.6791 452.7662 452.8911 453.0502 453.2191 453.3883 453.5761 453.7568 453.9736 454.2151 454.4717 454.722 454.9746 455.2177 455.4439 455.6471 455.8401 456.019 456.187 456.3494 456.5247 456.7026 456.8892 457.0864 457.2856 457.4792 457.6607 457.8358 457.9765 458.0936 458.2126 458.3443 458.4858 458.6404 458.7996 458.8311 458.8275 458.8 458.7791 458.7587 458.7644 458.7999 458.8001 458.8 458.8011 458.8978 458.9629 459.0573 459.1436 459.2309 459.3514 459.5065 459.7177 459.9846 460.3099 460.6933 461.1206 461.5866 462.0915 462.6263 463.1769 463.726 464.2523 464.7361 465.1401 465.4398 465.6448 465.7842 465.8922 465.9985 465.9969 465.9396 465.8113 465.4945 465.1758 465.0034 464.7979 464.517 464.1675 463.7493 463.2193 462.5654 461.8414 461.1334 460.4714 459.7609 459.0199 458.4615 457.4368 456.2279 455.0272 453.8841 452.7189 451.6591 451.1633 451.1934 451.679 452.4376 453.5319 455.0658 457.0167 459.486 462.5432 465.3867 467.0989 467.9982 468.2667 468.3237 468.3519 468.3932 468.3718 468.1695 467.5751 466.4365 464.8581 462.8484 460.9695 459.5343 458.8985 458.2771 457.6172 457.2727 457.4653 458.1241 459.3581 461.5898 464.0346 -9999 -9999 -9999 -9999 -9999 -9999 -9999 -9999 -9999 -9999 -9999 -9999 -9999 -9999 -9999 -9999 -9999 -9999 -9999 -9999 -9999 -9999 -9999 -9999 -9999 -9999 -9999 -9999 -9999 -9999
-9999 -9999 -9999 -9999 -9999 -9999 -9999 -9999 -9999 -9999 -9999 -9999 -9999 -9999 -9999 -9999 -9999 -9999 -9999 -9999 -9999 -9999 -9999 -9999 -9999 -9999 -9999 -9999 -9999 -9999 -9999 -9999 -9999 -9999 -9999 -9999 -9999 -9999 -9999 -9999 -9999 -9999 -9999 -9999 -9999 -9999 -9999 -9999 -9999 -9999 -9999 -9999 -9999 -9999 -9999 -9999 -9999 -9999 -9999 -9999 -9999 -9999 -9999 -9999 -9999 -9999 -9999 -9999 -9999 -9999 -9999 -9999 -9999 -9999 -9999 -9999 -9999 -9999 -9999 -9999 -9999 -9999 554.5166 552.7256 550.4443 546.636 541.9539 537.8706 534.8528 532.583 530.767 529.2582 528.0231 527.069 525.8043 524.6426 523.5546 522.4542 521.2311 519.7673 517.9796 514.9144 511.5937 508.5946 505.8755 504.0848 502.7608 501.7484 500.9399 500.2461 499.5731 498.8969 498.2393 497.5856 496.7784 495.2399 493.3059 491.2682 489.407 488.0897 487.0448 486.1274 485.299 484.5483 483.8639 483.2367 482.6705 482.1852 481.826 481.6609 481.6573 481.5497 481.5352 481.666 482.0521 482.5063 482.8969 483.2289 483.4742 483.6414 483.7341 483.6905 483.4078 482.7516 481.5521 479.5703 477.1985 474.8279 473.0291 471.3149 469.6894 468.2293 467.051 466.3297 465.5692 464.9033 464.2987 463.7234 463.1642 462.6175 462.0825 461.555 461.0353 460.5291 460.0491 459.6003 459.1862 458.8002 458.4377 458.0666 457.6741 457.2507 456.7926 456.3386 455.9323 455.5697 455.2092 454.8497 454.5365 454.3126 454.1597 453.9894 453.6782 453.2325 452.7319 452.2925 452.0171 451.9458 452.0441 452.1887 452.2187 451.933 451.1499 449.6841 447.1517 444.0898 441.1306 438.6989 437.0731 436.0248 435.5558 435.5724 435.8478 436.3446 437.5859 439.0866 440.7289 442.4831 444.3018 446.1925 448.0342 449.727 451.0495 451.8261 452.1734 452.273 452.3404 452.561 452.7639 452.888 452.9517 453.0141 453.1147 453.2577 453.4248 453.5923 453.7608 453.9241 454.1006 454.3002 454.5182 454.7406 454.9615 455.1737 455.3814 455.5745 455.7593 455.9409 456.12 456.296 456.478 456.6633 456.8515 457.0455 457.2393 457.424 457.5876 457.7476 457.8901 458.0167 458.1449 458.2867 458.4406 458.5991 458.7386 458.8 458.8413 458.8462 458.7999 458.7493 458.7319 458.7311 458.7166 458.707 458.7239 458.7993 458.8009 458.8954 458.9505 459.0006 459.1076 459.2415 459.4468 459.7225 460.0609 460.45 460.8785 461.3501 461.8715 462.4362 463.0446 463.6802 464.2972 464.8702 465.3543 465.7185 465.965 466.1322 466.2302 466.4113 466.4253 466.4247 466.3862 466.0214 465.7409 465.6922 465.5143 465.2729 464.9373 464.5403 464.0551 463.4689 462.8084 462.1243 461.4472 460.7726 460.1234 459.5253 458.6871 457.624 456.5592 455.571 454.5762 453.6834 453.148 452.9725 453.1307 453.5751 454.4102 455.6929 457.512 459.8705 462.9718 465.7864 467.4955 468.3886 468.6837 468.6797 468.6309 468.6145 468.5829 468.4807 468.1813 467.5199 466.4464 464.9935 463.0304 461.2383 459.9356 458.9274 458.1557 457.7719 457.9407 458.8459 460.3851 462.5151 464.7343 -9999 -9999 -9999 -9999 -9999 -9999 -9999 -9999 -9999 -9999 -9999 -9999 -9999 -9999 -9999 -9999 -9999 -9999 -9999 -9999 -9999 -9999 -9999 -9999 -9999 -9999 -9999 -9999 -9999 -9999
-9999 -9999 -9999 -9999 -9999 -9999 -9999 -9999 -9999 -9999 -9999 -9999 -9999 -9999 -9999 -9999 -9999 -9999 -9999 -9999 -9999 -9999 -9999 -9999 -9999 -9999 -9999 -9999 -9999 -9999 -9999 -9999 -9999 -9999 -9999 -9999 -9999 -9999 -9999 -9999 -9999 -9999 -9999 -9999 -9999 -9999 -9999 -9999 -9999 -9999 -9999 -9999 -9999 -9999 -9999 -9999 -9999 -9999 -9999 -9999 -9999 -9999 -9999 -9999 -9999 -9999 -9999 -9999 -9999 -9999 -9999 -9999 -9999 -9999 -9999 -9999 -9999 -9999 -9999 -9999 -9999 -9999 556.3209 554.4792 552.0137 548.2489 543.4279 538.6987 535.428 533.0133 531.1171 529.5849 528.3319 527.2438 525.9095 524.7028 523.5935 522.4742 521.2509 519.8698 518.6713 515.9628 512.647 509.534 506.6826 504.5216 503.031 501.9607 501.1329 500.4061 499.7236 499.0392 498.3306 497.6192 496.8331 495.4568 493.5645 491.4595 489.5257 488.3093 487.3072 486.3473 485.4546 484.6394 483.8984 483.2226 482.6113 482.0801 481.6658 481.487 481.4295 481.3865 481.4548 481.6624 482.0273 482.4373 482.8624 483.2107 483.4869 483.6791 483.7509 483.6707 483.3431 482.6543 481.4525 479.3661 476.8931 474.4616 472.5947 470.9254 469.3557 467.8945 466.6086 465.938 465.3139 464.7175 464.1456 463.587 463.037 462.4999 461.9814 461.4803 460.9905 460.5121 460.0474 459.6057 459.1891 458.8004 458.4329 458.0642 457.684 457.2705 456.814 456.3535 455.9385 455.5673 455.1968 454.8044 454.4335 454.1429 453.9364 453.7517 453.4802 453.0741 452.5757 452.0916 451.7432 451.6129 451.7043 451.9472 452.2011 452.307 452.0822 451.3112 449.7689 447.3968 444.7402 442.1167 439.6746 437.9608 437.0358 436.812 437.0743 438.0009 439.3669 440.9626 442.711 444.6467 446.7112 448.5464 450.1592 451.2704 452.0983 452.538 452.6709 452.646 452.6312 452.8057 452.9974 453.1252 453.189 453.2392 453.3222 453.4489 453.6072 453.7726 453.9329 454.0874 454.2415 454.4035 454.5906 454.7825 454.978 455.168 455.3538 455.5388 455.7185 455.8993 456.0793 456.2653 456.4499 456.6308 456.8194 457.0011 457.1881 457.3613 457.5157 457.658 457.8034 457.9413 458.0818 458.2324 458.3915 458.5511 458.6956 458.8 458.8691 458.9121 458.8006 458.7415 458.7141 458.6916 458.6647 458.6443 458.6472 458.6848 458.7173 458.7992 458.7999 458.8016 458.9164 459.0071 459.1983 459.4725 459.8175 460.2099 460.6361 461.1136 461.6505 462.2466 462.9089 463.6175 464.3193 464.9726 465.5383 465.9565 466.2253 466.4149 466.4308 466.6524 466.7718 466.782 466.6966 466.4436 466.4033 466.3803 466.107 465.91 465.602 465.2464 464.7914 464.2462 463.6404 462.9993 462.3452 461.6935 461.0694 460.4388 459.6729 458.7824 457.892 457.1375 456.2827 455.4811 454.8917 454.5354 454.424 454.6218 455.2448 456.4122 458.1996 460.6467 463.7442 466.2737 467.8511 468.7317 469.0558 469.0515 468.9399 468.8518 468.7758 468.6752 468.4981 468.1237 467.4127 466.3342 464.7753 463.0855 461.5385 460.233 459.2693 458.9188 459.1512 460.2142 461.8637 463.9131 465.9227 -9999 -9999 -9999 -9999 -9999 -9999 -9999 -9999 -9999 -9999 -9999 -9999 -9999 -9999 -9999 -9999 -9999 -9999 -9999 -9999 -9999 -9999 -9999 -9999 -9999 -9999 -9999 -9999 -9999 -9999
-9999 -9999 -9999 -9999 -9999 -9999 -9999 -9999 -9999 -9999 -9999 -9999 -9999 -9999 -9999 -9999 -9999 -9999 -9999 -9999 -9999 -9999 -9999 -9999 -9999 -9999 -9999 -9999 -9999 -9999 -9999 -9999 -9999 -9999 -9999 -9999 -9999 -9999 -9999 -9999 -9999 -9999 -9999 -9999 -9999 -9999 -9999 -9999 -9999 -9999 -9999 -9999 -9999 -9999 -9999 -9999 -9999 -9999 -9999 -9999 -9999 -9999 -9999 -9999 -9999 -9999 -9999 -9999 -9999 -9999 -9999 -9999 -9999 -9999 -9999 -9999 -9999 -9999 -9999 -9999 -9999 -9999 558.1428 556.3079 553.7551 549.9491 544.9473 539.7488 536.185 533.5742 531.5284 529.8699 528.5058 527.2961 525.9731 524.7984 523.7491 522.6969 521.5856 520.5076 519.2959 516.8238 513.4632 510.3196 507.3819 504.913 503.3201 502.1954 501.3437 500.5736 499.8764 499.2209 498.5663 497.8729 497.0188 495.8307 493.9716 491.8318 489.854 488.7 487.657 486.5888 485.6143 484.7419 483.9567 483.2484 482.6142 482.0715 481.6571 481.3819 481.2314 481.1966 481.334 481.6482 481.943 482.3246 482.7299 483.1212 483.429 483.6346 483.7067 483.5613 483.1411 482.3647 481.1815 479.0941 476.6625 474.2805 472.3382 470.6468 469.1173 467.7348 466.4857 465.7397 465.1296 464.5594 464.01 463.4706 462.9349 462.4073 461.8969 461.4077 460.9366 460.4783 460.0328 459.6006 459.1891 458.8002 458.4348 458.0663 457.6907 457.2916 456.8462 456.3889 455.9691 455.5857 455.1906 454.7697 454.3541 453.9906 453.713 453.4888 453.2346 452.8746 452.41 451.9193 451.5207 451.3189 451.3629 451.6226 452.0076 452.3724 452.5563 452.3652 451.6275 450.3007 448.4362 446.111 443.755 441.754 440.4655 439.8534 440.1901 441.0271 442.198 443.6503 445.3298 447.3832 449.3595 450.7911 451.8875 452.6221 453.0456 453.1725 453.1134 452.9878 452.9183 453.015 453.1784 453.3099 453.3848 453.4354 453.508 453.6219 453.7705 453.9292 454.088 454.2397 454.3864 454.5329 454.6921 454.8577 455.0298 455.205 455.3724 455.5429 455.7163 455.8988 456.0762 456.2543 456.4424 456.612 456.7855 456.9739 457.1393 457.2989 457.4479 457.5866 457.7278 457.8764 458.0294 458.1849 458.3434 458.5031 458.6587 458.7995 458.8694 459.0015 458.9137 458.8003 458.7401 458.6817 458.6315 458.5915 458.5694 458.5733 458.596 458.642 458.6606 458.6969 458.7978 458.8025 458.9807 459.2433 459.579 459.9634 460.3848 460.8685 461.4273 462.0552 462.777 463.5508 464.3242 465.0494 465.6929 466.1766 466.4253 466.6403 466.7555 466.9338 467.0594 467.0942 467.0417 466.9152 466.8536 466.7354 466.4566 466.3976 466.1077 465.8575 465.4348 464.9106 464.3374 463.7402 463.1202 462.4937 461.8749 461.2414 460.526 459.7431 458.9881 458.5075 457.7296 456.9727 456.3755 455.8923 455.6024 455.6302 456.1451 457.2961 459.1968 461.9556 464.9373 467.02 468.3248 469.0768 469.3878 469.3862 469.2527 469.0939 468.959 468.8165 468.6566 468.4144 467.9809 467.2349 466.1776 464.8116 463.4059 462.1708 461.2376 460.8194 461.0372 462.0138 463.5398 465.4341 467.1159 -9999 -9999 -9999 -9999 -9999 -9999 -9999 -9999 -9999 -9999 -9999 -9999 -9999 -9999 -9999 -9999 -9999 -9999 -9999 -9999 -9999 -9999 -9999 -9999 -9999 -9999 -9999 -9999 -9999 -9999
-9999 -9999 -9999 -9999 -9999 -9999 -9999 -9999 -9999 -9999 -9999 -9999 -9999 -9999 -9999 -9999 -9999 -9999 -9999 -9999 -9999 -9999 -9999 -9999 -9999 -9999 -9999 -9999 -9999 -9999 -9999 -9999 -9999 -9999 -9999 -9999 -9999 -9999 -9999 -9999 -9999 -9999 -9999 -9999 -9999 -9999 -9999 -9999 -9999 -9999 -9999 -9999 -9999 -9999 -9999 -9999 -9999 -9999 -9999 -9999 -9999 -9999 -9999 -9999 -9999 -9999 -9999 -9999 -9999 -9999 -9999 -9999 -9999 -9999 -9999 -9999 -9999 -9999 -9999 -9999 -9999 -9999 559.5942 557.9744 555.4366 551.5244 546.3745 540.9851 537.1752 534.3209 532.0488 530.1833 528.6431 527.3226 526.0593 524.9487 524.0043 523.0623 522.072 521.0448 519.8175 517.7883 514.3819 511.1714 508.1667 505.4531 503.7084 502.4304 501.4591 500.6572 499.9889 499.4044 498.8443 498.252 497.5132 496.4457 494.5225 492.3901 490.4802 489.1237 487.8881 486.7561 485.7435 484.8436 484.0381 483.3124 482.6632 482.1009 481.6553 481.3271 481.0678 480.9517 481.0422 481.3207 481.6597 482.0579 482.4922 482.913 483.2703 483.504 483.5652 483.3816 482.8445 481.8724 480.5927 478.653 476.3898 474.1389 472.1295 470.3445 468.7815 467.4669 466.4316 465.6641 465.0321 464.4556 463.908 463.3784 462.8582 462.3444 461.8424 461.3585 460.8937 460.4459 460.0116 459.591 459.1851 458.8002 458.4369 458.0754 457.703 457.3138 456.8867 456.4405 456.0241 455.627 455.1831 454.7194 454.2859 453.8752 453.5204 453.2298 452.9583 452.6349 452.2251 451.7702 451.3626 451.1066 451.0761 451.2892 451.6943 452.1888 452.6236 452.8397 452.6859 452.085 451.0392 449.6296 447.8996 446.0743 444.919 444.3882 444.4927 444.9714 445.744 446.8993 448.3545 449.9944 451.3035 452.3276 453.1148 453.5964 453.7504 453.6378 453.445 453.2646 453.1425 453.175 453.3115 453.4495 453.5454 453.6087 453.6793 453.7834 453.9231 454.0791 454.2339 454.3877 454.5334 454.6736 454.817 454.9659 455.1193 455.2801 455.4391 455.5989 455.7601 455.9338 456.1153 456.2838 456.4529 456.6272 456.7773 456.9411 457.1095 457.259 457.3956 457.5298 457.6737 457.8287 457.9882 458.145 458.3001 458.4546 458.608 458.738 458.8059 459.0956 459.0482 458.9116 458.7994 458.6901 458.6128 458.5501 458.5008 458.4722 458.4682 458.4858 458.5048 458.5367 458.593 458.6385 458.799 459.0355 459.3474 459.7106 460.1214 460.6182 461.2032 461.8667 462.6357 463.4607 464.2841 465.0742 465.806 466.4019 466.6712 466.8784 467.0363 467.2008 467.3272 467.3887 467.3886 467.3374 467.2756 467.1608 466.9685 466.7606 466.4561 466.3869 465.9847 465.4766 464.9313 464.3682 463.7853 463.1874 462.5887 461.9718 461.3092 460.6195 459.9701 459.4304 458.7714 458.1048 457.6102 457.0579 456.6509 456.6285 457.1196 458.3464 460.3992 463.2973 465.9395 467.73 468.8479 469.4442 469.6942 469.6795 469.5338 469.3224 469.1083 468.9213 468.7445 468.562 468.2958 467.8445 467.142 466.2193 465.1685 464.2612 463.4948 462.9739 463.0686 463.884 465.0925 466.6235 468.2236 -9999 -9999 -9999 -9999 -9999 -9999 -9999 -9999 -9999 -9999 -9999 -9999 -9999 -9999 -9999 -9999 -9999 -9999 -9999 -9999 -9999 -9999 -9999 -9999 -9999 -9999 -9999 -9999 -9999 -9999
-9999 -9999 -9999 -9999 -9999 -9999 -9999 -9999 -9999 -9999 -9999 -9999 -9999 -9999 -9999 -9999 -9999 -9999 -9999 -9999 -9999 -9999 -9999 -9999 -9999 -9999 -9999 -9999 -9999 -9999 -9999 -9999 -9999 -9999 -9999 -9999 -9999 -9999 -9999 -9999 -9999 -9999 -9999 -9999 -9999 -9999 -9999 -9999 -9999 -9999 -9999 -9999 -9999 -9999 -9999 -9999 -9999 -9999 -9999 -9999 -9999 -9999 -9999 -9999 -9999 -9999 -9999 -9999 -9999 -9999 -9999 -9999 -9999 -9999 -9999 -9999 -9999 -9999 -9999 -9999 -9999 -9999 560.4744 559.2844 556.9127 552.9874 547.8262 542.4631 538.401 535.2599 532.7167 530.6003 528.8436 527.4012 526.2354 525.183 524.2595 523.3945 522.4103 521.3287 520.1316 518.4714 515.3656 512.0417 508.9492 506.2416 504.2503 502.7347 501.6133 500.7494 500.0807 499.5467 499.0619 498.5339 497.8269 496.728 494.8583 492.7776 490.8494 489.2873 487.9919 486.8622 485.856 484.9568 484.1499 483.4222 482.7653 482.1784 481.6775 481.3864 481.0208 480.725 480.6838 480.8742 481.2239 481.6574 482.1288 482.594 482.9964 483.2632 483.345 483.1649 482.6245 481.6412 480.1316 478.1741 476.0273 473.9383 471.8853 470.0079 468.3847 467.1164 466.3394 465.5931 464.9547 464.3792 463.8351 463.3123 462.805 462.3071 461.8172 461.3391 460.8758 460.4288 459.9976 459.5811 459.1808 458.7999 458.4423 458.0921 457.7289 457.3474 456.933 456.4991 456.0838 455.682 455.1739 454.6531 454.2244 453.7942 453.3798 453.0137 452.6935 452.3782 452.0261 451.6378 451.2694 450.9982 450.8997 451.0216 451.3615 451.8567 452.3984 452.8462 453.0696 452.981 452.5508 451.8179 450.8545 449.9085 449.2313 448.8954 448.9008 449.1304 449.5467 450.1783 450.9789 451.8738 452.6361 453.2913 453.8515 454.1725 454.1529 453.9006 453.6686 453.5137 453.3757 453.3485 453.4406 453.5726 453.6842 453.7682 453.8457 453.9459 454.075 454.2292 454.3867 454.543 454.693 454.8333 454.9691 455.1083 455.2505 455.3974 455.5448 455.696 455.8569 456.015 456.185 456.3626 456.5154 456.6638 456.8132 456.9561 457.1027 457.2472 457.3774 457.5047 457.6456 457.8035 457.9661 458.1219 458.2723 458.4262 458.5999 458.7986 458.965 459.191 459.1654 459.0038 458.802 458.6954 458.6121 458.5346 458.4612 458.4006 458.3634 458.3497 458.3459 458.3517 458.3715 458.4194 458.561 458.7982 459.101 459.4469 459.8471 460.3698 460.9888 461.6794 462.4723 463.3136 464.1509 464.9845 465.7764 466.4203 466.7884 467.0443 467.2333 467.4168 467.569 467.6548 467.7126 467.7176 467.679 467.5833 467.4232 467.2115 466.9658 466.7862 466.4232 465.9579 465.4465 464.9185 464.3731 463.8141 463.251 462.6603 462.0366 461.39 460.7626 460.1619 459.5186 458.9112 458.631 458.0377 457.5875 457.6206 458.2029 459.6126 461.9766 464.7505 466.8115 468.2829 469.262 469.7943 469.9792 469.9474 469.7892 469.5391 469.2568 469.0024 468.8144 468.6766 468.5358 468.2953 467.8736 467.282 466.5956 466.1485 465.6399 465.0119 465.0008 465.7564 466.6694 467.9885 469.4729 -9999 -9999 -9999 -9999 -9999 -9999 -9999 -9999 -9999 -9999 -9999 -9999 -9999 -9999 -9999 -9999 -9999 -9999 -9999 -9999 -9999 -9999 -9999 -9999 -9999 -9999 -9999 -9999 -9999 -9999
-9999 -9999 -9999 -9999 -9999 -9999 -9999 -9999 -9999 -9999 -9999 -9999 -9999 -9999 -9999 -9999 -9999 -9999 -9999 -9999 -9999 -9999 -9999 -9999 -9999 -9999 -9999 -9999 -9999 -9999 -9999 -9999 -9999 -9999 -9999 -9999 -9999 -9999 -9999 -9999 -9999 -9999 -9999 -9999 -9999 -9999 -9999 -9999 -9999 -9999 -9999 -9999 -9999 -9999 -9999 -9999 -9999 -9999 -9999 -9999 -9999 -9999 -9999 -9999 -9999 -9999 -9999 -9999 -9999 -9999 -9999 -9999 -9999 -9999 -9999 -9999 -9999 -9999 -9999 -9999 -9999 -9999 561.5269 560.3144 558.1712 554.4085 549.3331 543.9627 539.712 536.3092 533.5134 531.1691 529.2119 527.6504 526.6025 525.5468 524.5729 523.6362 522.6372 521.439 520.2164 518.8616 516.0583 512.7637 509.6939 506.9311 504.687 503.064 501.8303 500.8929 500.1851 499.6501 499.1884 498.6737 497.9477 496.8009 494.9796 492.9657 491.0124 489.3367 488.0611 486.9763 485.9958 485.1077 484.306 483.5872 482.9452 482.385 481.9368 481.6317 481.1082 480.6483 480.3555 480.4091 480.7001 481.1511 481.6608 482.1757 482.6183 482.8942 482.9845 482.8315 482.2975 481.3181 479.6106 477.5756 475.4737 473.5659 471.5432 469.6384 467.9567 466.6195 466.0033 465.424 464.8461 464.2966 463.7723 463.267 462.7755 462.2928 461.8157 461.3443 460.8814 460.431 459.996 459.5774 459.1774 458.7999 458.4481 458.1131 457.7655 457.3935 456.9865 456.5489 456.1081 455.6603 455.162 454.6602 454.2018 453.7457 453.2878 452.8545 452.4707 452.1361 451.8258 451.5205 451.2291 450.9912 450.8588 450.8856 451.1062 451.5071 452.023 452.5507 452.9745 453.2019 453.1926 452.9594 452.5577 452.1334 451.8058 451.631 451.6156 451.7076 451.9038 452.2269 452.6573 453.1058 453.4663 453.8091 454.1815 454.4117 454.3215 454.0143 453.9229 453.8271 453.6904 453.6011 453.6203 453.7149 453.8208 453.9185 454.009 454.1092 454.2354 454.3815 454.5441 454.7074 454.8671 455.0154 455.1518 455.2871 455.4211 455.5582 455.6999 455.837 455.9874 456.1549 456.315 456.4719 456.6292 456.7614 456.884 457.0098 457.1403 457.2673 457.3883 457.5116 457.6542 457.8124 457.9729 458.123 458.2661 458.4158 458.5844 458.7996 459.072 459.296 459.3216 459.1821 458.9742 458.8003 458.6715 458.5681 458.4707 458.3785 458.3035 458.2487 458.2042 458.1614 458.1313 458.1415 458.2448 458.4667 458.7928 459.1492 459.5525 460.1265 460.7863 461.491 462.2626 463.0785 463.8966 464.7655 465.6591 466.4206 466.8801 467.1684 467.3654 467.5782 467.7708 467.8748 468.0022 468.0599 468.0558 467.9927 467.8721 467.6876 467.4605 467.2166 466.865 466.4209 465.9329 465.4276 464.9199 464.4135 463.9013 463.3334 462.7227 462.0895 461.4484 460.816 460.1879 459.6255 459.2255 458.7522 458.3788 458.6796 459.4435 461.1573 463.4459 465.7959 467.4406 468.6234 469.4771 470.0027 470.2098 470.1874 470.0407 469.7772 469.4469 469.1457 468.9396 468.8565 468.8367 468.7725 468.5705 468.2378 467.8636 467.5434 467.1451 466.6956 466.755 467.4478 468.373 469.5807 470.9616 -9999 -9999 -9999 -9999 -9999 -9999 -9999 -9999 -9999 -9999 -9999 -9999 -9999 -9999 -9999 -9999 -9999 -9999 -9999 -9999 -9999 -9999 -9999 -9999 -9999 -9999 -9999 -9999 -9999 -9999
-9999 -9999 -9999 -9999 -9999 -9999 -9999 -9999 -9999 -9999 -9999 -9999 -9999 -9999 -9999 -9999 -9999 -9999 -9999 -9999 -9999 -9999 -9999 -9999 -9999 -9999 -9999 -9999 -9999 -9999 -9999 -9999 -9999 -9999 -9999 -9999 -9999 -9999 -9999 -9999 -9999 -9999 -9999 -9999 -9999 -9999 -9999 -9999 -9999 -9999 -9999 -9999 -9999 -9999 -9999 -9999 -9999 -9999 -9999 -9999 -9999 -9999 -9999 -9999 -9999 -9999 -9999 -9999 -9999 -9999 -9999 -9999 -9999 -9999 -9999 -9999 -9999 -9999 -9999 -9999 -9999 -9999 -9999 561.4354 559.4931 555.9751 551.0179 545.5931 541.0643 537.3885 534.3735 531.8652 529.8076 528.2313 527.1451 525.9815 524.9337 523.9507 522.9617 521.8974 520.7588 519.3112 516.7304 513.5295 510.5001 507.6508 505.2223 503.5497 502.1973 501.1379 500.3462 499.7545 499.2587 498.7191 497.9685 496.8185 495.0735 493.0948 491.1293 489.4042 488.2084 487.1754 486.205 485.3135 484.51 483.7937 483.157 482.5897 482.0942 481.6522 481.1136 480.539 480.0713 479.9749 480.1666 480.5792 481.1165 481.6693 482.1514 482.3771 482.4421 482.2798 481.6556 480.5359 478.8475 476.8266 474.7138 472.9489 471.1217 469.3306 467.7225 466.477 465.8619 465.3054 464.7388 464.2036 463.7022 463.2246 462.7597 462.2982 461.8341 461.3681 460.9041 460.4478 460.0051 459.5794 459.1758 458.8001 458.4579 458.1378 457.811 457.4506 457.052 456.6092 456.142 455.6582 455.1534 454.6535 454.1758 453.7013 453.2216 452.7456 452.3047 451.9324 451.6412 451.4125 451.2205 451.0562 450.936 450.8998 450.9961 451.2527 451.651 452.131 452.6058 452.9899 453.2265 453.3082 453.2711 453.1832 453.1017 453.0621 453.0782 453.1216 453.1975 453.347 453.5672 453.7951 453.9199 454.0169 454.2174 454.4159 454.3977 454.2141 454.2147 454.1697 454.0487 453.9188 453.86 453.8904 453.968 454.061 454.1603 454.2672 454.3883 454.5326 454.6948 454.8686 455.0426 455.2034 455.3548 455.4904 455.6281 455.7567 455.891 456.0337 456.1754 456.3286 456.4981 456.6501 456.7788 456.9001 457.0104 457.1147 457.22 457.3315 457.4477 457.5727 457.7176 457.871 458.0222 458.1641 458.302 458.4543 458.6145 458.81 459.1888 459.4788 459.5599 459.4438 459.2269 458.9997 458.8007 458.6572 458.5386 458.4145 458.3002 458.1957 458.0913 457.9811 457.8749 457.8156 457.8548 458.0341 458.3555 458.7788 459.2148 459.8881 460.5997 461.2983 461.996 462.728 463.4965 464.3965 465.4351 466.4009 466.9268 467.2442 467.4862 467.7144 467.9183 468.0675 468.2579 468.3525 468.3902 468.3716 468.3068 468.1614 467.9441 467.672 467.3223 466.8932 466.4175 465.9291 465.4659 465.0579 464.5788 464.0059 463.3829 462.7349 462.077 461.4261 460.8021 460.2419 459.77 459.337 459.1055 459.8337 461.0405 462.7918 464.7687 466.5497 467.8987 468.846 469.5428 470.0533 470.3334 470.3938 470.3139 470.0552 469.7151 469.4062 469.2312 469.2202 469.3318 469.4255 469.3679 469.2148 469.05 468.9065 468.705 468.5563 468.7682 469.4077 470.3298 471.4957 472.7802 -9999 -9999 -9999 -9999 -9999 -9999 -9999 -9999 -9999 -9999 -9999 -9999 -9999 -9999 -9999 -9999 -9999 -9999 -9999 -9999 -9999 -9999 -9999 -9999 -9999 -9999 -9999 -9999 -9999 -9999
-9999 -9999 -9999 -9999 -9999 -9999 -9999 -9999 -9999 -9999 -9999 -9999 -9999 -9999 -9999 -9999 -9999 -9999 -9999 -9999 -9999 -9999 -9999 -9999 -9999 -9999 -9999 -9999 -9999 -9999 -9999 -9999 -9999 -9999 -9999 -9999 -9999 -9999 -9999 -9999 -9999 -9999 -9999 -9999 -9999 -9999 -9999 -9999 -9999 -9999 -9999 -9999 -9999 -9999 -9999 -9999 -9999 -9999 -9999 -9999 -9999 -9999 -9999 -9999 -9999 -9999 -9999 -9999 -9999 -9999 -9999 -9999 -9999 -9999 -9999 -9999 -9999 -9999 -9999 -9999 -9999 -9999 -9999 562.7202 560.967 557.6617 552.8002 547.2466 542.3082 538.3766 535.1945 532.5608 530.4001 528.658 527.3276 526.1743 525.1584 524.2249 523.3104 522.3502 521.278 519.8258 517.5594 514.5328 511.4448 508.4955 506.0259 504.1994 502.6741 501.4779 500.5681 499.8835 499.3169 498.7264 497.9491 496.8173 495.1506 493.2554 491.3456 489.6394 488.5429 487.5045 486.492 485.5729 484.7555 484.0335 483.3921 482.8029 482.2438 481.6919 481.2318 480.5949 479.9915 479.6602 479.6675 479.9887 480.501 481.0789 481.5835 481.6885 481.6947 481.5432 480.8044 479.6288 478.0429 476.1928 474.2715 472.5577 470.8321 469.145 467.6282 466.438 465.7144 465.1404 464.6071 464.1013 463.6209 463.1689 462.7363 462.3049 461.8615 461.4034 460.9374 460.4735 460.0206 459.5857 459.1757 458.8004 458.4716 458.1642 457.8546 457.5085 457.1178 456.6799 456.1975 455.6921 455.1651 454.6433 454.1372 453.6456 453.1569 452.6647 452.1903 451.7826 451.4902 451.3169 451.2175 451.1441 451.0754 451.0253 451.0349 451.1524 451.3978 451.751 452.1633 452.5685 452.9094 453.1587 453.323 453.4353 453.5206 453.5868 453.6553 453.7109 453.7422 453.8017 453.9143 454.0451 454.0966 454.0539 454.0842 454.2362 454.3367 454.3501 454.413 454.4125 454.3289 454.2044 454.108 454.0826 454.1232 454.1991 454.297 454.4052 454.5251 454.6615 454.8239 455.0075 455.1967 455.3825 455.5461 455.7028 455.8456 455.9888 456.1229 456.2608 456.4139 456.571 456.7256 456.8702 456.9887 457.0878 457.1862 457.2836 457.3692 457.4574 457.5707 457.7149 457.8827 458.0214 458.1449 458.2654 458.4015 458.5889 458.7988 459.0579 459.4354 459.7409 459.8564 459.7577 459.5309 459.2587 459.0028 458.8007 458.6577 458.4964 458.3485 458.1943 458.0179 457.8198 457.6209 457.4672 457.4248 457.548 457.8508 458.3038 458.8518 459.6963 460.4741 461.1605 461.715 462.2923 462.9602 463.8385 464.9976 466.21 466.8231 467.1966 467.4873 467.7516 467.9925 468.1981 468.4004 468.5514 468.6587 468.7127 468.7148 468.6151 468.4183 468.1406 467.7894 467.368 466.8947 466.4184 465.9987 465.7199 465.2666 464.6633 464.0054 463.3326 462.6556 462.009 461.4137 460.8996 460.4997 460.2781 460.4325 461.3091 462.6921 464.4016 466.0389 467.3203 468.3441 469.0829 469.6153 470.0546 470.3913 470.5839 470.6195 470.4127 470.1062 469.8383 469.7378 469.8574 470.13 470.3795 470.3686 470.3026 470.3187 470.4063 470.4363 470.5663 470.985 471.6707 472.6338 473.8593 475.0561 -9999 -9999 -9999 -9999 -9999 -9999 -9999 -9999 -9999 -9999 -9999 -9999 -9999 -9999 -9999 -9999 -9999 -9999 -9999 -9999 -9999 -9999 -9999 -9999 -9999 -9999 -9999 -9999 -9999 -9999
-9999 -9999 -9999 -9999 -9999 -9999 -9999 -9999 -9999 -9999 -9999 -9999 -9999 -9999 -9999 -9999 -9999 -9999 -9999 -9999 -9999 -9999 -9999 -9999 -9999 -9999 -9999 -9999 -9999 -9999 -9999 -9999 -9999 -9999 -9999 -9999 -9999 -9999 -9999 -9999 -9999 -9999 -9999 -9999 -9999 -9999 -9999 -9999 -9999 -9999 -9999 -9999 -9999 -9999 -9999 -9999 -9999 -9999 -9999 -9999 -9999 -9999 -9999 -9999 -9999 -9999 -9999 -9999 -9999 -9999 -9999 -9999 -9999 -9999 -9999 -9999 -9999 -9999 -9999 -9999 -9999 -9999 -9999 564.0662 562.347 559.2274 554.4277 548.7227 543.2988 539.2048 535.9183 533.2082 530.9425 529.0453 527.4564 526.3007 525.3123 524.426 523.567 522.6835 521.7086 520.4093 518.4427 515.3901 512.1629 509.183 506.6445 504.6258 503.1028 501.8526 500.8449 500.054 499.3948 498.7374 497.9268 496.815 495.2478 493.5038 491.7442 490.1973 489.0633 487.8739 486.7971 485.8531 485.0283 484.3024 483.6616 483.0746 482.5256 482.0217 481.5804 480.8286 480.0509 479.4728 479.2288 479.3974 479.8086 480.303 480.7122 480.8477 480.7944 480.4981 479.762 478.6482 477.2361 475.6508 474.0271 472.3565 470.6756 469.0548 467.6008 466.4307 465.6306 465.0235 464.4946 464.0075 463.5482 463.1108 462.695 462.2896 461.8725 461.4312 460.9693 460.5003 460.038 459.5936 459.1774 458.8008 458.4859 458.1893 457.8882 457.5559 457.1676 456.7341 456.2593 455.7417 455.2009 454.6472 454.1046 453.5837 453.0836 452.5892 452.1065 451.6819 451.3843 451.2422 451.2056 451.2039 451.1965 451.1779 451.1597 451.1894 451.3041 451.5139 451.8034 452.1368 452.4694 452.7672 453.0184 453.2286 453.4117 453.5549 453.6722 453.7714 453.816 453.8353 453.8941 453.9859 454.0486 454.0006 453.9114 453.9537 454.0777 454.1981 454.341 454.4271 454.4222 454.3573 454.2855 454.252 454.2697 454.3364 454.4242 454.5275 454.6364 454.7637 454.9195 455.1086 455.3166 455.5214 455.7194 455.8931 456.0627 456.2226 456.383 456.5367 456.692 456.8588 457.0217 457.1565 457.2511 457.3372 457.4423 457.5573 457.6299 457.6891 457.7941 457.976 458.2096 458.3162 458.3854 458.4579 458.5651 458.7957 459.0424 459.3491 459.7291 460.0363 460.1664 460.0877 459.8535 459.5429 459.2292 458.9719 458.7968 458.592 458.4332 458.2415 457.9921 457.696 457.3911 457.138 457.0131 457.0904 457.4142 457.9807 458.7652 459.6993 460.5453 461.2595 461.6278 461.9545 462.4447 463.1377 464.2274 465.4933 466.4162 466.9711 467.3508 467.6597 467.9337 468.1845 468.4173 468.6343 468.8388 469.0188 469.0725 469.0236 468.8651 468.6071 468.2637 467.8488 467.375 466.8896 466.4693 466.3658 465.9111 465.2592 464.5662 463.8708 463.1797 462.5636 462.0325 461.6102 461.3514 461.3483 461.7662 462.7482 464.1563 465.7589 466.9679 467.9432 468.7474 469.3688 469.8156 470.1717 470.5058 470.7762 470.9088 470.8318 470.6359 470.4817 470.5143 470.8031 471.2663 471.7002 471.6054 471.5482 471.738 472.1336 472.3889 472.7719 473.4688 474.2721 475.3315 476.7646 477.9807 -9999 -9999 -9999 -9999 -9999 -9999 -9999 -9999 -9999 -9999 -9999 -9999 -9999 -9999 -9999 -9999 -9999 -9999 -9999 -9999 -9999 -9999 -9999 -9999 -9999 -9999 -9999 -9999 -9999 -9999
-9999 -9999 -9999 -9999 -9999 -9999 -9999 -9999 -9999 -9999 -9999 -9999 -9999 -9999 -9999 -9999 -9999 -9999 -9999 -9999 -9999 -9999 -9999 -9999 -9999 -9999 -9999 -9999 -9999 -9999 -9999 -9999 -9999 -9999 -9999 -9999 -9999 -9999 -9999 -9999 -9999 -9999 -9999 -9999 -9999 -9999 -9999 -9999 -9999 -9999 -9999 -9999 -9999 -9999 -9999 -9999 -9999 -9999 -9999 -9999 -9999 -9999 -9999 -9999 -9999 -9999 -9999 -9999 -9999 -9999 -9999 -9999 -9999 -9999 -9999 -9999 -9999 -9999 -9999 -9999 -9999 -9999 -9999 564.9254 563.4299 560.4504 555.7418 549.9757 544.317 539.9915 536.5602 533.7976 531.5092 529.5273 527.7997 526.6133 525.5374 524.5873 523.7089 522.8441 521.9254 520.7415 518.9406 515.9806 512.7174 509.7774 507.2081 505.0761 503.5899 502.2691 501.1539 500.2568 499.5087 498.787 497.9447 496.8467 495.409 493.8196 492.1282 490.5605 489.261 488.0833 487.0394 486.1196 485.3102 484.5911 483.9533 483.3693 482.816 482.2769 481.7103 481.0852 480.1996 479.398 478.9039 478.8702 479.1168 479.4797 479.7894 479.9036 479.7938 479.4091 478.6801 477.6459 476.3961 475.0525 473.7451 472.1606 470.5457 468.9937 467.5923 466.4319 465.595 464.9562 464.4217 463.938 463.4859 463.0583 462.6486 462.2498 461.8482 461.4263 460.9786 460.5146 460.0498 459.5995 459.1781 458.8008 458.4931 458.2038 457.9032 457.5754 457.1981 456.7616 456.2849 455.7785 455.2365 454.6688 454.0919 453.5342 453.0106 452.5112 452.0318 451.6089 451.3153 451.1995 451.1892 451.2111 451.2339 451.2646 451.2694 451.2816 451.3303 451.4344 451.6016 451.8252 452.082 452.345 452.5974 452.8293 453.0469 453.2385 453.3877 453.5273 453.6246 453.6516 453.6757 453.7476 453.8337 453.8533 453.7724 453.7067 453.7599 453.8746 454.0255 454.1812 454.2832 454.3224 454.3309 454.3466 454.3853 454.4561 454.5496 454.644 454.7361 454.8431 454.9885 455.175 455.394 455.624 455.8477 456.0627 456.2633 456.4602 456.6516 456.8386 457.0215 457.2063 457.3819 457.5307 457.606 457.6762 457.821 458.0166 458.0847 458.1042 458.1782 458.3944 458.7785 458.8215 458.8066 458.7976 458.8102 459.0333 459.3283 459.6884 460.0571 460.3623 460.4916 460.4199 460.1758 459.8269 459.4459 459.0932 458.8038 458.6494 458.5601 458.3446 458.0251 457.6328 457.2245 456.8763 456.6836 456.7344 457.094 457.7668 458.7437 459.8693 460.9518 461.8596 462.2244 462.2623 462.3646 462.6294 463.4192 464.5988 465.7846 466.5468 467.0807 467.4478 467.7392 468.0163 468.2883 468.5692 468.8529 469.116 469.2963 469.3476 469.2594 469.0498 468.7376 468.3408 467.8827 467.4158 467.0159 466.7598 466.3633 465.7111 465.0377 464.3528 463.6507 463.0901 462.6444 462.3293 462.2051 462.3757 462.9526 463.9726 465.2652 466.5702 467.6772 468.5363 469.2419 469.8114 470.2524 470.6026 470.9319 471.2456 471.4546 471.4814 471.4038 471.3891 471.5969 472.071 472.6638 473.1961 473.0284 472.9906 473.3527 474.0496 474.6506 475.2536 476.2111 477.2986 478.5307 479.9815 481.1948 482.4874 -9999 -9999 -9999 -9999 -9999 -9999 -9999 -9999 -9999 -9999 -9999 -9999 -9999 -9999 -9999 -9999 -9999 -9999 -9999 -9999 -9999 -9999 -9999 -9999 -9999 -9999 -9999 -9999 -9999
-9999 -9999 -9999 -9999 -9999 -9999 -9999 -9999 -9999 -9999 -9999 -9999 -9999 -9999 -9999 -9999 -9999 -9999 -9999 -9999 -9999 -9999 -9999 -9999 -9999 -9999 -9999 -9999 -9999 -9999 -9999 -9999 -9999 -9999 -9999 -9999 -9999 -9999 -9999 -9999 -9999 -9999 -9999 -9999 -9999 -9999 -9999 -9999 -9999 -9999 -9999 -9999 -9999 -9999 -9999 -9999 -9999 -9999 -9999 -9999 -9999 -9999 -9999 -9999 -9999 -9999 -9999 -9999 -9999 -9999 -9999 -9999 -9999 -9999 -9999 -9999 -9999 -9999 -9999 -9999 -9999 -9999 -9999 -9999 563.7632 561.1824 556.7123 551.0117 545.2248 540.6219 537.0264 534.2544 532.0641 530.1533 528.5016 527.1857 525.8958 524.7872 523.8112 522.886 521.9495 520.8351 519.244 516.687 513.397 510.4766 507.9093 505.7882 504.1907 502.6788 501.4378 500.4575 499.6544 498.9075 498.0798 497.0457 495.8662 494.2777 492.5022 490.7903 489.3241 488.2063 487.2457 486.3798 485.5984 484.8932 484.2592 483.6732 483.1234 482.5979 482.0889 481.5105 480.4327 479.4242 478.7277 478.443 478.4944 478.7016 478.9007 478.9576 478.7952 478.3654 477.649 476.684 475.5448 474.3175 473.1803 471.8113 470.3461 468.905 467.5772 466.4378 465.5887 464.9271 464.3768 463.8896 463.4376 463.0083 462.5961 462.1949 461.7946 461.382 460.9501 460.5012 460.0462 459.5997 459.179 458.8009 458.4899 458.1989 457.8932 457.56 457.1885 456.7634 456.2863 455.7773 455.2444 454.6826 454.0961 453.511 452.957 452.4417 451.9608 451.5418 451.2537 451.18 451.18 451.18 451.1801 451.2463 451.2786 451.3294 451.3838 451.4496 451.5406 451.6685 451.8333 452.0229 452.2245 452.4283 452.6272 452.83 452.9954 453.1443 453.292 453.3698 453.3893 453.4325 453.5228 453.61 453.6098 453.5493 453.5307 453.5835 453.6852 453.8272 453.9874 454.1214 454.2281 454.3256 454.4248 454.5338 454.6467 454.7503 454.8327 454.9222 455.0494 455.2268 455.4473 455.6954 455.951 456.2027 456.4537 456.7017 456.9463 457.1757 457.3915 457.617 457.8303 458.039 458.0992 458.155 458.3813 458.7905 458.8531 458.8311 458.84 459.0219 459.6166 459.6281 459.5001 459.3767 459.3325 459.4686 459.7379 460.0921 460.455 460.7224 460.8317 460.7516 460.4941 460.1164 459.6927 459.2974 458.9876 458.8063 458.7933 458.5337 458.1393 457.6626 457.1742 456.7542 456.5225 456.5816 456.9955 457.7645 458.8771 460.3098 461.7681 462.8898 463.3656 463.3098 463.1499 463.0104 462.9618 463.1974 464.3566 465.72 466.6206 467.1053 467.4135 467.7248 468.0462 468.3979 468.7686 469.1214 469.4339 469.5977 469.5961 469.4511 469.1896 468.8267 468.3848 467.9129 467.4616 467.0188 466.4695 465.9901 465.4347 464.7949 464.1404 463.6158 463.2439 463.0183 462.9898 463.2743 463.9708 465.0638 466.3192 467.5275 468.5701 469.3854 470.0513 470.6288 471.1121 471.5344 471.9453 472.3486 472.6328 472.6866 472.6584 472.7451 473.1147 473.8008 474.4283 474.8795 474.8401 474.9318 475.5182 476.6634 477.7173 478.4731 479.4706 480.7025 481.9402 483.2956 484.5975 486.009 -9999 -9999 -9999 -9999 -9999 -9999 -9999 -9999 -9999 -9999 -9999 -9999 -9999 -9999 -9999 -9999 -9999 -9999 -9999 -9999 -9999 -9999 -9999 -9999 -9999 -9999 -9999 -9999 -9999
-9999 -9999 -9999 -9999 -9999 -9999 -9999 -9999 -9999 -9999 -9999 -9999 -9999 -9999 -9999 -9999 -9999 -9999 -9999 -9999 -9999 -9999 -9999 -9999 -9999 -9999 -9999 -9999 -9999 -9999 -9999 -9999 -9999 -9999 -9999 -9999 -9999 -9999 -9999 -9999 -9999 -9999 -9999 -9999 -9999 -9999 -9999 -9999 -9999 -9999 -9999 -9999 -9999 -9999 -9999 -9999 -9999 -9999 -9999 -9999 -9999 -9999 -9999 -9999 -9999 -9999 -9999 -9999 -9999 -9999 -9999 -9999 -9999 -9999 -9999 -9999 -9999 -9999 -9999 -9999 -9999 -9999 -9999 -9999 563.3092 561.0152 556.9549 551.4915 545.6683 540.8257 537.1083 534.3778 532.3608 530.5433 528.9092 527.4349 526.1389 524.9793 523.9399 522.9316 521.9069 520.7767 519.3906 517.5693 514.3345 511.3243 508.624 506.3291 504.4683 502.8755 501.6008 500.6063 499.8049 499.0915 498.3642 497.5289 496.5068 494.7916 492.8714 491 489.3968 488.3646 487.4855 486.6649 485.9007 485.2024 484.5667 483.9621 483.4007 482.8625 482.3075 481.6197 480.5263 479.4383 478.5975 478.1035 477.9767 478.0255 478.1001 478.078 477.8692 477.4214 476.7316 475.8472 474.8529 473.8756 472.7171 471.4291 470.0812 468.7628 467.5392 466.4478 465.6022 464.9174 464.3466 463.8482 463.3916 462.9584 462.5373 462.1247 461.7176 461.3076 460.8879 460.4575 460.0219 459.5904 459.1782 458.8008 458.4767 458.1705 457.8539 457.5098 457.1363 456.7243 456.2617 455.7567 455.228 454.6769 454.1006 453.5094 452.9368 452.4051 451.9173 451.4917 451.1823 451.1404 451.1421 451.1401 451.1423 451.1798 451.1807 451.28 451.3808 451.4643 451.5384 451.6169 451.7139 451.8327 451.9698 452.1223 452.2789 452.4492 452.6209 452.755 452.9075 453.0441 453.1011 453.1256 453.1917 453.2946 453.3895 453.3989 453.3857 453.3976 453.4459 453.5331 453.6781 453.8586 454.039 454.2096 454.3755 454.5398 454.6926 454.8195 454.9123 455.0032 455.124 455.2909 455.5064 455.7644 456.0498 456.3427 456.6464 456.9637 457.2812 457.5729 457.8253 458.1104 458.3602 458.7288 458.8069 458.8778 459.201 459.9861 460.1005 460.0535 460.0453 460.1991 460.5423 460.5189 460.3332 460.1301 460.0228 460.0812 460.2906 460.5987 460.9155 461.1373 461.199 461.0856 460.8077 460.4117 459.9719 459.5774 459.3022 459.1615 459.0831 458.8022 458.3696 457.8358 457.3148 456.8669 456.6486 456.7844 457.3265 458.2713 459.5764 461.3229 463.0003 464.2452 464.8801 464.9631 464.7972 464.5515 464.0539 463.5161 463.4932 464.5365 465.9955 466.6443 466.9763 467.3659 467.7674 468.2143 468.7055 469.1676 469.564 469.8101 469.8779 469.8036 469.6031 469.2862 468.8697 468.3965 467.9193 467.429 466.9005 466.4158 465.8973 465.2816 464.6461 464.1465 463.8304 463.6716 463.6819 464.0208 464.8156 466.0564 467.3679 468.691 469.8435 470.7241 471.4348 472.0814 472.6621 473.1971 473.779 474.411 474.8586 474.8755 474.8036 474.8929 475.3448 476.2584 477.1875 477.9007 477.9182 478.0921 478.78 479.9985 481.1083 482.0269 483.0881 484.4143 485.7072 487.0167 488.3752 489.9219 -9999 -9999 -9999 -9999 -9999 -9999 -9999 -9999 -9999 -9999 -9999 -9999 -9999 -9999 -9999 -9999 -9999 -9999 -9999 -9999 -9999 -9999 -9999 -9999 -9999 -9999 -9999 -9999 -9999
-9999 -9999 -9999 -9999 -9999 -9999 -9999 -9999 -9999 -9999 -9999 -9999 -9999 -9999 -9999 -9999 -9999 -9999 -9999 -9999 -9999 -9999 -9999 -9999 -9999 -9999 -9999 -9999 -9999 -9999 -9999 -9999 -9999 -9999 -9999 -9999 -9999 -9999 -9999 -9999 -9999 -9999 -9999 -9999 -9999 -9999 -9999 -9999 -9999 -9999 -9999 -9999 -9999 -9999 -9999 -9999 -9999 -9999 -9999 -9999 -9999 -9999 -9999 -9999 -9999 -9999 -9999 -9999 -9999 -9999 -9999 -9999 -9999 -9999 -9999 -9999 -9999 -9999 -9999 -9999 -9999 -9999 -9999 -9999 561.8161 559.8093 556.2394 551.1413 545.39 540.385 536.6381 533.9479 531.9699 530.3042 528.8074 527.4353 526.2415 525.1161 524.0957 523.0675 521.9702 520.7704 519.4778 518.3228 515.4843 512.2859 509.347 506.7619 504.5954 502.9288 501.6626 500.6965 499.9202 499.2405 498.5702 497.8053 496.7793 495.1177 493.2004 491.288 489.6279 488.6814 487.8203 487.0022 486.2272 485.5088 484.8409 484.2128 483.6215 483.0356 482.4053 481.6336 480.5644 479.4688 478.5557 477.9339 477.6162 477.4918 477.4255 477.3074 477.0512 476.6014 475.949 475.1312 474.1965 473.2944 472.2051 470.9874 469.7288 468.5239 467.4331 466.4453 465.6071 464.9002 464.3087 463.7997 463.337 462.8975 462.4682 462.0435 461.6246 461.2115 460.8015 460.3912 459.9802 459.5717 459.175 458.8004 458.4576 458.1242 457.7881 457.4316 457.0504 456.6478 456.2064 455.7179 455.197 454.6579 454.0992 453.5244 452.9529 452.4178 451.9389 451.5367 451.2621 451.1798 451.1379 451.1172 451.1019 451.1022 451.1091 451.1805 451.299 451.4126 451.5071 451.5815 451.65 451.7261 451.8149 451.9173 452.035 452.1539 452.3058 452.4351 452.5496 452.6981 452.8113 452.8587 452.8949 452.9781 453.0923 453.208 453.2534 453.2746 453.2967 453.3488 453.453 453.6263 453.8411 454.0598 454.2704 454.4813 454.6757 454.8369 454.9576 455.0715 455.2078 455.3779 455.595 455.8624 456.1715 456.5074 456.8689 457.2687 457.6907 458.0706 458.3423 458.7341 458.9589 459.4864 459.8222 460.1328 460.6287 461.306 461.5028 461.4901 461.4447 461.474 461.5656 461.4823 461.2594 461.0059 460.8422 460.8361 460.9775 461.2122 461.4536 461.6043 461.5971 461.4249 461.1141 460.7062 460.2686 459.8977 459.6763 459.601 459.5419 459.2509 458.7943 458.2369 457.7624 457.331 457.1956 457.5098 458.3081 459.5815 461.3138 463.1602 464.5816 465.8756 466.548 466.8863 467.1195 467.1157 466.4429 465.1555 464.0178 463.7772 465.1611 466.0801 466.4997 467.0663 467.5993 468.1341 468.6779 469.2036 469.6699 469.9839 470.1048 470.1008 469.97 469.7092 469.3314 468.8749 468.4069 467.9286 467.4254 466.9293 466.4144 465.818 465.1846 464.6946 464.4288 464.3229 464.3232 464.6553 465.5092 466.8635 468.5834 470.2673 471.7043 472.772 473.6395 474.4779 475.2399 475.9125 476.6833 477.701 478.5129 478.4827 478.3573 478.4048 478.8008 479.6046 480.5669 481.25 481.5159 481.8257 482.5174 483.6836 484.9164 486.0706 487.2926 488.6827 489.995 491.2758 492.6445 494.3506 -9999 -9999 -9999 -9999 -9999 -9999 -9999 -9999 -9999 -9999 -9999 -9999 -9999 -9999 -9999 -9999 -9999 -9999 -9999 -9999 -9999 -9999 -9999 -9999 -9999 -9999 -9999 -9999 -9999
-9999 -9999 -9999 -9999 -9999 -9999 -9999 -9999 -9999 -9999 -9999 -9999 -9999 -9999 -9999 -9999 -9999 -9999 -9999 -9999 -9999 -9999 -9999 -9999 -9999 -9999 -9999 -9999 -9999 -9999 -9999 -9999 -9999 -9999 -9999 -9999 -9999 -9999 -9999 -9999 -9999 -9999 -9999 -9999 -9999 -9999 -9999 -9999 -9999 -9999 -9999 -9999 -9999 -9999 -9999 -9999 -9999 -9999 -9999 -9999 -9999 -9999 -9999 -9999 -9999 -9999 -9999 -9999 -9999 -9999 -9999 -9999 -9999 -9999 -9999 -9999 -9999 -9999 -9999 -9999 -9999 -9999 -9999 -9999 560.0556 558.0488 554.8085 550.0843 544.5117 539.3668 535.7579 533.1962 531.3353 529.8488 528.5685 527.3895 526.3007 525.2316 524.2736 523.343 522.3181 521.2062 520.2948 519.1517 516.6012 513.2591 510.1282 507.2393 504.7388 502.9645 501.6977 500.761 499.995 499.3126 498.6408 497.8778 496.8568 495.3192 493.5281 491.7332 490.1926 489.1509 488.2324 487.3881 486.5888 485.838 485.1308 484.4565 483.8122 483.1588 482.4517 481.6344 480.621 479.5573 478.6029 477.8749 477.3976 477.1035 476.8918 476.669 476.3605 475.9156 475.3228 474.6215 473.893 472.8705 471.7334 470.5208 469.2857 468.1078 467.0826 466.3355 465.5317 464.832 464.2393 463.7305 463.2686 462.8242 462.3854 461.9503 461.5225 461.1062 460.7033 460.3118 459.927 459.5456 459.1693 458.7999 458.4368 458.0736 457.7098 457.3379 456.9472 456.551 456.1286 455.6637 455.159 454.6328 454.0944 453.5447 452.9963 452.4742 452.0077 451.6199 451.3376 451.1804 451.135 451.112 451.0875 451.0684 451.0665 451.1071 451.1805 451.2942 451.4079 451.4954 451.562 451.6245 451.6913 451.7654 451.8522 451.9447 452.0438 452.1779 452.2665 452.3705 452.5049 452.6018 452.6503 452.7005 452.8013 452.9372 453.0767 453.1571 453.1978 453.242 453.3348 453.4917 453.7035 453.9403 454.1734 454.406 454.6298 454.8215 454.9774 455.1279 455.294 455.4853 455.7149 456.0008 456.3366 456.7083 457.1284 457.6227 458.1938 458.7337 458.9867 459.5375 460.0421 460.66 461.1369 461.6041 462.1708 462.7652 463.021 463.0344 462.9357 462.8046 462.6971 462.5243 462.2582 461.966 461.7513 461.6853 461.756 461.9083 462.0578 462.1192 462.0254 461.7629 461.4044 460.9895 460.5704 460.2375 460.0814 460.0964 460.131 459.8923 459.4838 458.9746 458.673 458.2864 458.3058 458.9064 460.0763 461.8366 463.6414 465.3715 466.6232 467.5612 468.2601 469.1122 469.7903 470.22 469.5858 467.6273 465.5138 464.0778 464.0547 465.6104 466.4003 466.9868 467.5083 468.0511 468.61 469.1792 469.718 470.1074 470.2895 470.3425 470.2833 470.0905 469.7654 469.3486 468.9117 468.4758 468.0039 467.5032 466.981 466.3983 465.7522 465.2569 465.0572 465.0413 465.0031 465.3688 466.4342 468.2411 470.4081 472.5535 474.4123 475.7406 476.8703 478.1275 479.2798 480.1384 480.9391 481.8242 482.5495 482.7385 482.7246 482.7624 483.0277 483.612 484.4483 485.1392 485.6227 486.0995 486.8262 487.9415 489.293 490.6149 491.929 493.4023 494.8473 496.2232 497.5103 498.987 -9999 -9999 -9999 -9999 -9999 -9999 -9999 -9999 -9999 -9999 -9999 -9999 -9999 -9999 -9999 -9999 -9999 -9999 -9999 -9999 -9999 -9999 -9999 -9999 -9999 -9999 -9999 -9999 -9999
-9999 -9999 -9999 -9999 -9999 -9999 -9999 -9999 -9999 -9999 -9999 -9999 -9999 -9999 -9999 -9999 -9999 -9999 -9999 -9999 -9999 -9999 -9999 -9999 -9999 -9999 -9999 -9999 -9999 -9999 -9999 -9999 -9999 -9999 -9999 -9999 -9999 -9999 -9999 -9999 -9999 -9999 -9999 -9999 -9999 -9999 -9999 -9999 -9999 -9999 -9999 -9999 -9999 -9999 -9999 -9999 -9999 -9999 -9999 -9999 -9999 -9999 -9999 -9999 -9999 -9999 -9999 -9999 -9999 -9999 -9999 -9999 -9999 -9999 -9999 -9999 -9999 -9999 -9999 -9999 -9999 -9999 -9999 -9999 558.2092 556.0817 553.0327 548.6281 543.3178 538.3345 534.8494 532.408 530.6869 529.3953 528.3305 527.3763 526.3875 525.3641 524.4655 523.7029 522.9037 522.0552 521.2183 520.0228 517.8315 514.4285 511.131 507.9368 505.048 503.108 501.7913 500.8527 500.0496 499.3175 498.6084 497.8312 496.8668 495.467 493.828 492.159 490.6537 489.4496 488.6242 487.7962 486.9886 486.2147 485.4613 484.7323 484.0188 483.291 482.5072 481.6518 480.7499 479.7386 478.7463 477.9124 477.2896 476.8405 476.4908 476.1656 475.8025 475.3554 474.7997 474.1238 473.4121 472.4228 471.2871 470.0792 468.8474 467.6484 466.5673 465.9384 465.3032 464.6901 464.1343 463.6406 463.1878 462.7444 462.2971 461.851 461.4155 460.9991 460.605 460.2314 459.8708 459.5156 459.1606 458.7997 458.4202 458.0336 457.6433 457.2523 456.8494 456.4609 456.0484 455.6026 455.1198 454.6107 454.0915 453.5697 453.052 452.5572 452.11 451.7345 451.4495 451.2665 451.18 451.1366 451.1043 451.0824 451.074 451.0922 451.1304 451.1804 451.275 451.3512 451.4136 451.4724 451.5356 451.6042 451.6749 451.7604 451.8322 451.9308 452.0388 452.1017 452.1991 452.3242 452.418 452.4764 452.5513 452.6793 452.8384 452.9864 453.0903 453.1727 453.2834 453.4518 453.663 453.8886 454.1227 454.3596 454.5982 454.8145 455.0073 455.1985 455.3992 455.6179 455.8723 456.1824 456.5475 456.9528 457.4138 457.9876 458.7389 459.5667 460.1174 460.7189 461.3405 462.015 462.6199 463.1838 463.7861 464.3786 464.6695 464.6841 464.5063 464.1888 463.9088 463.6354 463.3079 462.9733 462.7109 462.5805 462.574 462.6354 462.6864 462.6509 462.4635 462.0836 461.6718 461.2619 460.8827 460.6025 460.5159 460.6288 460.7937 460.7432 460.5747 460.3489 460.157 459.902 460.1722 461.1258 462.7247 464.5531 466.0507 467.3669 468.4379 469.3973 470.2236 471.1507 471.953 472.7109 472.4842 470.3028 467.3898 465.1598 464.2508 465.0003 466.123 466.7834 467.3023 467.8381 468.4427 469.0639 469.6806 470.1514 470.4043 470.5015 470.5296 470.42 470.1698 469.8172 469.4337 469.056 468.6341 468.1502 467.6172 467.0225 466.3777 465.8406 465.7141 465.8376 465.7888 466.3041 467.7623 470.218 472.9388 475.6439 478.1198 479.8715 481.2752 482.6535 483.9086 484.8502 485.643 486.4483 487.203 487.5524 487.6628 487.7426 487.9436 488.3556 488.977 489.6546 490.3171 490.926 491.6526 492.7256 494.2219 495.7232 497.0401 498.3614 499.7723 501.1193 502.2143 503.2791 -9999 -9999 -9999 -9999 -9999 -9999 -9999 -9999 -9999 -9999 -9999 -9999 -9999 -9999 -9999 -9999 -9999 -9999 -9999 -9999 -9999 -9999 -9999 -9999 -9999 -9999 -9999 -9999 -9999
-9999 -9999 -9999 -9999 -9999 -9999 -9999 -9999 -9999 -9999 -9999 -9999 -9999 -9999 -9999 -9999 -9999 -9999 -9999 -9999 -9999 -9999 -9999 -9999 -9999 -9999 -9999 -9999 -9999 -9999 -9999 -9999 -9999 -9999 -9999 -9999 -9999 -9999 -9999 -9999 -9999 -9999 -9999 -9999 -9999 -9999 -9999 -9999 -9999 -9999 -9999 -9999 -9999 -9999 -9999 -9999 -9999 -9999 -9999 -9999 -9999 -9999 -9999 -9999 -9999 -9999 -9999 -9999 -9999 -9999 -9999 -9999 -9999 -9999 -9999 -9999 -9999 -9999 -9999 -9999 -9999 -9999 -9999 -9999 556.4739 554.2255 551.3001 547.1678 542.1732 537.4689 534.0861 531.738 530.1403 529.0165 528.1492 527.372 526.5184 525.5628 524.6932 523.9983 523.3948 522.731 521.9722 520.8268 518.8934 515.8179 512.4147 508.9332 505.6399 503.4474 501.9855 500.9866 500.0852 499.2722 498.52 497.7321 496.8614 495.5985 494.1063 492.5726 491.1556 489.9872 489.1354 488.2504 487.4353 486.6576 485.8566 485.0778 484.3005 483.5052 482.6615 481.7687 481.0284 480.0338 478.9778 478.0299 477.2681 476.6776 476.202 475.7838 475.3713 474.9316 474.4541 473.9521 473.1003 472.0665 470.9233 469.7363 468.5474 467.415 466.4288 465.7387 465.1301 464.557 464.0304 463.5522 463.1081 462.6697 462.2186 461.7615 461.3169 460.8994 460.5142 460.1578 459.8191 459.4866 459.1505 458.7997 458.4149 458.0148 457.6091 457.2082 456.8079 456.4072 455.9875 455.5471 455.0833 454.5965 454.0982 453.601 453.1144 452.6503 452.2278 451.8665 451.5807 451.3777 451.2529 451.18 451.1377 451.1257 451.1224 451.1318 451.1555 451.18 451.1798 451.1937 451.225 451.2706 451.3306 451.3999 451.4744 451.5477 451.6359 451.694 451.8004 451.882 451.9395 452.0382 452.1663 452.2704 452.3541 452.4687 452.6219 452.7878 452.9398 453.0844 453.2514 453.4609 453.6863 453.9125 454.1274 454.3604 454.6028 454.8427 455.0776 455.3151 455.549 455.7999 456.0795 456.4186 456.8146 457.2507 457.7415 458.3427 459.1974 460.5347 461.3497 462.0474 462.7531 463.5152 464.2512 464.8583 465.4793 466.1533 466.4569 466.4501 466.1781 465.626 465.2032 464.8459 464.4044 464.0115 463.6895 463.4901 463.3941 463.3536 463.2902 463.1317 462.798 462.3497 461.9147 461.5344 461.2211 461.0132 460.9997 461.2135 461.5473 461.7426 461.9206 462.1193 462.3642 462.6619 463.2192 464.2859 465.5232 466.8103 467.9937 469.0716 470.0236 470.9249 471.948 473.0216 473.613 472.9214 473.2312 472.1778 468.9313 466.352 464.7852 464.5248 465.3985 466.2993 466.9037 467.4681 468.1185 468.8209 469.5193 470.0621 470.382 470.5535 470.6752 470.6815 470.5396 470.2843 469.985 469.6835 469.3336 468.899 468.3876 467.7971 467.1081 466.5096 466.4279 466.7246 466.77 467.7342 470.0012 473.0287 476.1938 479.3755 482.0649 484.1977 485.9615 487.5869 488.9105 489.83 490.5127 491.1463 491.7821 492.1595 492.3637 492.5453 492.8089 493.2098 493.8151 494.6386 495.617 496.41 497.1334 498.0599 499.3785 500.7995 501.9938 503.0832 504.1603 505.1727 505.9916 506.7322 -9999 -9999 -9999 -9999 -9999 -9999 -9999 -9999 -9999 -9999 -9999 -9999 -9999 -9999 -9999 -9999 -9999 -9999 -9999 -9999 -9999 -9999 -9999 -9999 -9999 -9999 -9999 -9999 -9999
-9999 -9999 -9999 -9999 -9999 -9999 -9999 -9999 -9999 -9999 -9999 -9999 -9999 -9999 -9999 -9999 -9999 -9999 -9999 -9999 -9999 -9999 -9999 -9999 -9999 -9999 -9999 -9999 -9999 -9999 -9999 -9999 -9999 -9999 -9999 -9999 -9999 -9999 -9999 -9999 -9999 -9999 -9999 -9999 -9999 -9999 -9999 -9999 -9999 -9999 -9999 -9999 -9999 -9999 -9999 -9999 -9999 -9999 -9999 -9999 -9999 -9999 -9999 -9999 -9999 -9999 -9999 -9999 -9999 -9999 -9999 -9999 -9999 -9999 -9999 -9999 -9999 -9999 -9999 -9999 -9999 -9999 -9999 -9999 555.2885 552.9131 550.0341 546.0518 541.2389 536.7417 533.4878 531.2356 529.7375 528.7444 528.0208 527.37 526.5979 525.7432 524.9277 524.2246 523.6283 523.1017 522.4355 521.4193 519.7568 517.1865 513.8867 510.2771 506.6078 504.0183 502.2432 501.0032 500.0143 499.1795 498.4386 497.704 496.8747 495.7223 494.3644 492.9514 491.6111 490.4249 489.4159 488.6554 487.9106 487.1414 486.3322 485.5131 484.6922 483.8553 483.0167 482.2158 481.5011 480.3889 479.2404 478.1904 477.3058 476.5905 476.0027 475.4983 475.0362 474.5784 474.0817 473.5616 472.7481 471.7419 470.6371 469.4967 468.3739 467.3241 466.4132 465.6761 465.0439 464.4722 463.9536 463.4867 463.048 462.614 462.1642 461.7011 461.247 460.8239 460.442 460.0977 459.7764 459.462 459.141 458.7998 458.419 458.0152 457.6031 457.1944 456.7887 456.3769 455.9479 455.5062 455.0546 454.5908 454.1169 453.644 453.1835 452.7474 452.3492 452.0031 451.7193 451.5018 451.3474 451.2435 451.1801 451.18 451.18 451.18 451.18 451.1481 451.0966 451.059 451.048 451.0683 451.1114 451.1751 451.2486 451.3244 451.4031 451.4884 451.5475 451.6573 451.7308 451.7994 451.9107 452.0534 452.1863 452.3099 452.463 452.6271 452.7911 452.9764 453.1993 453.4666 453.7324 453.963 454.175 454.3987 454.6509 454.9063 455.1811 455.4744 455.7438 456.0414 456.3494 456.718 457.1461 457.6254 458.1894 458.8927 460.0096 461.3959 462.5189 463.3781 464.193 465.1058 466.0444 466.6755 467.2715 468.0089 468.3799 468.3399 467.904 467.1519 466.6589 466.2147 465.5804 465.094 464.6776 464.4026 464.2089 464.0577 463.8638 463.5569 463.1151 462.6124 462.1664 461.8304 461.603 461.4881 461.5461 461.8274 462.2724 462.7493 463.2875 463.9007 464.5836 465.295 465.8489 466.5688 467.4946 468.5144 469.517 470.4581 471.313 472.1223 473.1389 473.978 474.1398 473.4867 472.9228 472.6162 469.8022 467.4691 465.6105 464.7128 464.9667 465.6646 466.3742 466.982 467.6984 468.4693 469.2159 469.7979 470.1542 470.3776 470.5851 470.8388 470.8705 470.7579 470.5762 470.3822 470.129 469.781 469.3546 468.8539 468.2352 467.6422 467.3531 467.3483 468.103 470.0526 472.9983 476.5004 480.091 483.4247 486.2618 488.6353 490.6037 492.363 493.8324 494.7935 495.4294 495.9129 496.3286 496.6305 496.894 497.2214 497.647 498.119 498.7505 499.6888 500.947 501.8869 502.5662 503.2279 504.0721 505.0995 506.0844 507.0433 507.9825 508.7562 509.3253 509.806 -9999 -9999 -9999 -9999 -9999 -9999 -9999 -9999 -9999 -9999 -9999 -9999 -9999 -9999 -9999 -9999 -9999 -9999 -9999 -9999 -9999 -9999 -9999 -9999 -9999 -9999 -9999 -9999 -9999
-9999 -9999 -9999 -9999 -9999 -9999 -9999 -9999 -9999 -9999 -9999 -9999 -9999 -9999 -9999 -9999 -9999 -9999 -9999 -9999 -9999 -9999 -9999 -9999 -9999 -9999 -9999 -9999 -9999 -9999 -9999 -9999 -9999 -9999 -9999 -9999 -9999 -9999 -9999 -9999 -9999 -9999 -9999 -9999 -9999 -9999 -9999 -9999 -9999 -9999 -9999 -9999 -9999 -9999 -9999 -9999 -9999 -9999 -9999 -9999 -9999 -9999 -9999 -9999 -9999 -9999 -9999 -9999 -9999 -9999 -9999 -9999 -9999 -9999 -9999 -9999 -9999 -9999 -9999 -9999 -9999 -9999 -9999 -9999 554.7943 552.5894 549.65 545.562 540.7722 536.3924 533.2166 530.9924 529.5212 528.5844 527.9454 527.3672 526.6149 525.8007 525.0048 524.2938 523.7141 523.1907 522.6169 521.8032 520.4922 518.4361 515.2863 511.6307 507.8848 504.7989 502.6472 501.1296 499.9988 499.1106 498.3664 497.6661 496.8825 495.8268 494.6016 493.3135 492.0826 490.9798 490.032 489.2664 488.527 487.7543 486.9301 486.0653 485.1787 484.2749 483.3706 482.4966 481.6361 480.5593 479.4282 478.3447 477.379 476.5596 475.8743 475.2929 474.7917 474.356 473.9866 473.2973 472.4452 471.4601 470.4051 469.3271 468.2721 467.2878 466.417 465.6693 465.0207 464.4406 463.9205 463.4534 463.0215 462.5896 462.1421 461.6792 461.2201 460.7902 460.4037 460.0614 459.7485 459.445 459.1338 458.7998 458.4259 458.0245 457.6115 457.1974 456.784 456.3617 455.9269 455.4842 455.0403 454.595 454.1462 453.6982 453.2615 452.8482 452.4703 452.1383 451.8591 451.635 451.4638 451.341 451.2637 451.2346 451.2191 451.2042 451.1787 451.1241 451.0506 450.9825 450.9377 450.9233 450.942 450.983 451.043 451.1145 451.1846 451.2715 451.3466 451.4223 451.5337 451.6223 451.711 451.8467 452.0179 452.1921 452.3542 452.5318 452.702 452.8883 453.144 453.4498 453.7505 454.004 454.2197 454.4572 454.7271 455.0023 455.2875 455.5912 455.9265 456.3071 456.6505 457.0636 457.5142 458.0221 458.7003 459.6044 460.9056 462.3723 463.6646 464.7119 465.6339 466.7303 467.9187 468.8328 469.5734 470.1847 470.487 470.4237 469.9767 469.2362 468.528 467.7227 466.8347 466.2824 465.7037 465.3323 465.024 464.7786 464.4615 464.0195 463.474 462.9169 462.4612 462.1708 462.0354 462.0346 462.1802 462.5253 463.0632 463.7285 464.4992 465.3401 466.1776 466.7892 467.3508 468.0078 468.8162 469.7251 470.6735 471.586 472.4354 473.2056 474.0208 474.5852 474.5187 473.9141 473.5372 472.8639 471.7997 469.3629 466.984 465.4779 464.9591 465.2531 465.8601 466.4925 467.2551 468.0623 468.8104 469.3828 469.7484 470.0455 470.3582 470.9443 471.1786 471.2457 471.2238 471.1574 471.0287 470.8026 470.5279 470.2183 469.8116 469.3978 469.2964 469.7178 470.9557 473.2878 476.5912 480.4934 484.3274 487.7743 490.6299 493.0724 495.1491 496.8091 498.152 499.1183 499.7974 500.2433 500.5658 500.8584 501.2414 501.8031 502.5116 503.1217 503.7738 504.665 505.8029 506.7162 507.3232 507.7845 508.3215 508.9674 509.705 510.5676 511.5085 512.1689 512.5809 512.9083 -9999 -9999 -9999 -9999 -9999 -9999 -9999 -9999 -9999 -9999 -9999 -9999 -9999 -9999 -9999 -9999 -9999 -9999 -9999 -9999 -9999 -9999 -9999 -9999 -9999 -9999 -9999 -9999 -9999
-9999 -9999 -9999 -9999 -9999 -9999 -9999 -9999 -9999 -9999 -9999 -9999 -9999 -9999 -9999 -9999 -9999 -9999 -9999 -9999 -9999 -9999 -9999 -9999 -9999 -9999 -9999 -9999 -9999 -9999 -9999 -9999 -9999 -9999 -9999 -9999 -9999 -9999 -9999 -9999 -9999 -9999 -9999 -9999 -9999 -9999 -9999 -9999 -9999 -9999 -9999 -9999 -9999 -9999 -9999 -9999 -9999 -9999 -9999 -9999 -9999 -9999 -9999 -9999 -9999 -9999 -9999 -9999 -9999 -9999 -9999 -9999 -9999 -9999 -9999 -9999 -9999 -9999 -9999 -9999 -9999 -9999 -9999 -9999 555.4268 553.2581 550.0655 545.7116 540.7954 536.4343 533.2638 531.0203 529.5116 528.5538 527.92 527.3685 526.6141 525.7933 525.0079 524.3122 523.7339 523.2043 522.6438 521.9426 520.8933 519.2068 516.4298 512.9065 509.1693 505.6989 503.2185 501.4255 500.1116 499.1204 498.3299 497.6274 496.8836 495.9138 494.8135 493.6655 492.5677 491.5913 490.74 489.9891 489.2611 488.4828 487.6432 486.7314 485.7552 484.7401 483.7018 482.6704 481.6575 480.6322 479.5649 478.4908 477.4774 476.5735 475.7982 475.1428 474.5803 474.0673 473.6534 472.9749 472.1575 471.2084 470.2149 469.2012 468.2042 467.2672 466.4199 465.6824 465.0359 464.4546 463.9308 463.4614 463.0272 462.6017 462.1575 461.6959 461.2358 460.801 460.407 460.0568 459.7409 459.4388 459.1306 458.7998 458.4308 458.0314 457.6194 457.2018 456.7848 456.3573 455.9205 455.4814 455.0453 454.6136 454.1848 453.76 453.3459 452.9527 452.5912 452.2708 451.9969 451.7711 451.5917 451.4564 451.3621 451.3043 451.2653 451.2315 451.1899 451.1275 451.0484 450.9697 450.9063 450.8677 450.8563 450.873 450.9078 450.9575 451.0239 451.0858 451.1833 451.2494 451.3491 451.4712 451.5858 451.7044 451.877 452.0818 452.2896 452.4828 452.6744 452.8703 453.115 453.4329 453.7413 454.0035 454.2335 454.504 454.8245 455.1297 455.4158 455.7215 456.0701 456.472 456.8938 457.3904 457.856 458.2975 458.8828 460.2019 461.8322 463.4902 464.9491 466.1661 467.172 468.5732 469.9584 471.033 471.8403 472.3056 472.5029 472.4418 472.0471 471.2692 470.3701 469.4099 468.433 467.6068 466.8083 466.3309 465.84 465.5375 465.106 464.5347 463.8905 463.2797 462.8153 462.5659 462.5162 462.6309 462.8838 463.3013 463.9039 464.6595 465.5145 466.3791 467.1163 467.6659 468.2544 468.9212 469.7086 470.5888 471.513 472.4398 473.3226 474.0222 474.6468 475.0362 474.8807 474.2589 473.5782 472.9583 473.0349 470.797 468.2454 466.3108 465.3197 465.1844 465.6611 466.3434 466.9082 467.6458 468.3525 468.8951 469.2924 469.7871 470.3695 471.0209 471.4677 471.7519 471.9271 472.0168 472.0022 471.9137 471.8441 471.8363 471.7282 471.6444 471.9218 472.8836 474.5381 477.1936 480.8573 484.9313 488.8814 492.3074 495.1411 497.4306 499.4 500.9492 502.1712 503.1161 503.8669 504.3139 504.6014 504.9116 505.4089 506.1597 507.0182 507.7018 508.3391 509.1514 510.1996 511.0106 511.5435 511.9113 512.2263 512.592 513.1111 513.8906 514.9143 515.6281 516.0858 516.4735 -9999 -9999 -9999 -9999 -9999 -9999 -9999 -9999 -9999 -9999 -9999 -9999 -9999 -9999 -9999 -9999 -9999 -9999 -9999 -9999 -9999 -9999 -9999 -9999 -9999 -9999 -9999 -9999 -9999
