ncols         369
nrows         31
xllcorner     526750
yllcorner     5948100
cellsize      50
NODATA_value  -9999
-9999 -9999 -9999 -9999 -9999 -9999 -9999 -9999 -9999 -9999 -9999 -9999 -9999 -9999 -9999 -9999 -9999 -9999 -9999 -9999 -9999 -9999 -9999 -9999 -9999 -9999 -9999 -9999 -9999 -9999 -9999 -9999 -9999 -9999 -9999 -9999 -9999 -9999 -9999 -9999 -9999 -9999 -9999 -9999 -9999 -9999 -9999 -9999 -9999 722.3385 722.3494 722.4137 722.5461 722.8322 723.2071 723.5119 723.6379 723.5406 723.1672 722.527 722.0522 721.5292 720.9775 720.4337 719.8857 719.0054 719.1187 718.8361 718.4092 717.9313 717.4868 717.1412 716.9281 716.6765 716.4313 716.2177 716.0415 715.9018 715.7949 715.7131 715.6504 715.5999 715.5449 715.5026 715.481 715.4746 715.4691 715.4525 715.4248 715.3975 715.3869 715.4028 715.4296 715.4312 715.3784 715.2743 715.156 715.0693 715.0481 715.1069 715.2421 715.4169 715.5574 715.5894 715.4757 715.2301 714.9167 714.6564 714.5906 714.8426 715.5217 716.7269 718.7415 722.0197 725.993 729.3846 730.04 727.8818 724.1182 720.1942 717.3129 715.9518 715.5977 715.8337 716.4468 717.1099 717.6469 718.1218 718.6046 719.1334 719.7285 720.147 720.1782 720.1786 720.1152 720.0424 719.9681 719.9186 719.8929 719.8656 719.8359 719.8311 719.902 720.1412 720.6339 721.719 723.4855 725.9827 728.5641 730.2374 730.2844 730.084 729.9702 -9999 -9999 -9999 -9999 -9999 -9999 -9999 -9999 -9999 -9999 -9999 -9999 -9999 -9999 -9999 727.5242 728.9588 729.7914 727.9556 724.9437 722.0607 720.0133 718.6174 717.6973 717.114 716.6724 716.341 716.0966 715.9214 715.7952 715.6956 715.5999 715.4863 715.3531 715.2006 715.032 714.8525 714.6699 714.4932 714.3319 714.1937 714.081 714.0071 713.9235 713.8306 713.7288 713.6165 713.4951 713.3676 713.2375 713.1088 712.9839 712.8652 712.7544 712.6526 712.5613 712.4818 712.4151 712.3617 712.3214 712.2933 712.2761 712.2684 712.2691 712.2769 712.2906 712.3093 712.3315 712.3572 712.3849 712.4136 712.4427 712.4709 712.4973 712.5213 712.5419 712.558 712.5703 712.579 712.5841 712.5867 712.5879 712.5887 712.5891 712.5887 712.5874 712.5854 712.5827 712.5764 712.56 712.52 712.4637 712.4001 712.3363 712.2757 712.2205 712.1754 712.1492 712.1561 712.2145 712.3445 712.5606 712.8634 713.1828 713.4528 713.6337 713.7019 713.6644 713.5405 713.3711 713.1962 713.0415 712.917 712.8307 712.7894 712.7706 712.7614 712.7603 712.7767 712.8288 712.9174 713.041 713.1966 713.3777 713.5723 713.7651 713.9399 714.0792 714.1369 714.197 714.2561 714.3098 714.3569 714.4001 714.4421 714.4814 714.5153 714.5436 714.5659 714.5811 714.5899 714.5953 714.5991 714.6031 714.61 714.6277 714.6663 714.7341 714.8362 714.9722 715.135 715.3121 715.482 715.6072 715.8322 716.1187 716.4541 716.8099 717.1106 717.137 716.9877 716.8772 716.8645 716.9613 717.1268 717.2181 717.3837 717.6714 718.0255 718.3725 718.6443 718.7348 718.7883 718.8296 718.8844 718.9401 718.9512 718.908 718.8286 718.7586 718.7455 718.8203 718.9679 719.1829 719.4375 719.7095 719.9619 720.2461 721.0017 721.5565 722.1072 722.7799 722.9653 722.7146 721.8692 721.2795 721.8709 723.0698 724.0009 -9999 -9999 -9999 -9999 -9999 -9999 -9999 -9999 -9999 -9999 -9999 -9999 -9999 -9999 -9999 -9999 -9999
-9999 -9999 -9999 -9999 -9999 -9999 -9999 -9999 -9999 -9999 -9999 -9999 -9999 -9999 -9999 -9999 -9999 -9999 -9999 -9999 -9999 -9999 -9999 -9999 -9999 -9999 -9999 -9999 -9999 -9999 -9999 -9999 -9999 -9999 -9999 -9999 -9999 -9999 -9999 -9999 -9999 -9999 -9999 -9999 -9999 -9999 -9999 -9999 722.1375 721.5026 721.1259 720.9957 721.0552 721.277 721.5234 721.7817 722.0968 722.3047 722.2645 721.9772 721.6636 721.3381 721.027 720.7004 720.2936 719.7019 719.6324 719.2295 718.6873 718.0959 717.5535 717.1237 716.7778 716.4803 716.2303 716.0323 715.8842 715.7786 715.7064 715.6593 715.6276 715.6 715.5553 715.5113 715.483 715.4692 715.4575 715.4347 715.3965 715.3515 715.3183 715.3141 715.3335 715.3432 715.3099 715.2291 715.133 715.0637 715.0507 715.1046 715.2198 715.365 715.4744 715.4773 715.3422 715.0908 714.7932 714.5671 714.5557 714.8844 715.6647 717.0367 718.9988 722.1738 725.9813 728.9716 729.207 726.7815 723.2111 719.7949 717.329 715.9983 715.6 715.9561 716.6266 717.2152 717.8053 718.31 718.7748 719.4474 720.1143 720.5216 720.3381 720.2489 720.1891 720.0541 719.9041 719.8038 719.7754 719.7999 719.8497 719.9141 720.0152 720.2191 720.8578 722.1086 724.1447 726.8889 729.5562 731.1982 731.0743 730.284 -9999 -9999 -9999 -9999 -9999 -9999 -9999 -9999 -9999 -9999 -9999 -9999 -9999 -9999 -9999 -9999 728.0145 729.1118 729.7012 727.8712 724.9132 722.0573 720.078 718.6595 717.7209 717.1111 716.627 716.2697 716.0208 715.8564 715.7495 715.673 715.5999 715.5034 715.3835 715.2423 715.0836 714.9127 714.7377 714.5674 714.4105 714.2738 714.1615 714.0798 713.9941 713.9026 713.8018 713.6856 713.5573 713.4224 713.2854 713.1501 713.0194 712.8951 712.7786 712.6709 712.5734 712.4873 712.414 712.3545 712.3083 712.2748 712.2526 712.2405 712.2373 712.2422 712.2537 712.271 712.293 712.3186 712.3474 712.3779 712.4092 712.4403 712.4697 712.4972 712.522 712.543 712.5596 712.5724 712.5818 712.5879 712.5914 712.5934 712.5944 712.594 712.5917 712.5875 712.582 712.574 712.5599 712.5092 712.443 712.3719 712.3031 712.2395 712.182 712.1339 712.1036 712.1069 712.1664 712.3095 712.562 712.9402 713.3325 713.6449 713.8407 713.8847 713.8003 713.6028 713.3588 713.1303 712.9459 712.8003 712.7024 712.6748 712.6658 712.6604 712.6577 712.6675 712.7259 712.8214 712.952 713.1185 713.3164 713.532 713.745 713.934 714.0801 714.1691 714.2393 714.3005 714.3546 714.4012 714.4421 714.4805 714.5161 714.5463 714.5718 714.5936 714.6089 714.6155 714.6167 714.6176 714.6215 714.6297 714.6461 714.6792 714.7372 714.8259 714.946 715.093 715.2565 715.426 715.5948 715.7258 715.9505 716.2245 716.5034 716.7262 716.8014 716.786 716.7866 716.8494 716.9763 717.1285 717.2028 717.3918 717.676 718.0029 718.3148 718.5502 718.6511 718.7285 718.772 718.8177 718.8728 718.8998 718.8777 718.8179 718.7545 718.7264 718.7798 718.8921 719.0615 719.2589 719.467 719.6957 719.9944 720.4913 721.2144 721.7084 721.9692 722.2352 721.9771 721.2209 720.9058 721.3423 722.5477 723.9378 725.0405 -9999 -9999 -9999 -9999 -9999 -9999 -9999 -9999 -9999 -9999 -9999 -9999 -9999 -9999 -9999 -9999
-9999 -9999 -9999 -9999 -9999 -9999 -9999 -9999 -9999 -9999 -9999 -9999 -9999 -9999 -9999 -9999 -9999 -9999 -9999 -9999 -9999 -9999 -9999 -9999 -9999 -9999 -9999 -9999 -9999 -9999 -9999 -9999 -9999 -9999 -9999 -9999 -9999 -9999 -9999 -9999 -9999 -9999 -9999 -9999 -9999 -9999 -9999 -9999 722.3365 721.1754 720.5354 720.2571 720.3505 720.8478 721.0153 721.1844 721.5507 721.9576 722.1729 722.0979 721.87 721.6729 721.5487 721.4319 721.263 720.774 720.2505 719.7573 719.0643 718.3184 717.644 717.1127 716.6627 716.319 716.0654 715.8843 715.7624 715.6871 715.6451 715.6239 715.6129 715.6 715.5726 715.527 715.4899 715.4657 715.4447 715.4141 715.3671 715.3086 715.2551 715.2291 715.236 715.2498 715.2339 715.1751 715.0975 715.0411 715.0308 715.073 715.1608 715.2676 715.342 715.3284 715.204 715 714.7819 714.6547 714.751 715.1878 716.0787 717.5997 719.3035 722.0972 725.3214 727.4417 726.9264 724.3983 721.5001 718.9398 717.0046 715.8911 715.6 716.1088 716.9277 717.5098 718.0689 718.5902 719.1106 719.7832 720.4688 721.1454 720.9752 720.7218 720.6202 720.2223 719.9105 719.7321 719.687 719.7479 719.8681 720.0065 720.1693 720.3877 721.0404 722.3391 724.5538 727.3624 730.0107 731.6068 731.7528 -9999 -9999 -9999 -9999 -9999 -9999 -9999 -9999 -9999 -9999 -9999 -9999 -9999 -9999 -9999 -9999 -9999 728.336 729.1503 729.6079 727.9356 725.1083 722.2846 720.321 718.7715 717.7616 717.1107 716.5996 716.2271 715.9746 715.8152 715.7191 715.6569 715.5999 715.5176 715.4105 715.2811 715.1334 714.9734 714.8091 714.6493 714.5021 714.3723 714.2621 714.1702 714.08 713.9875 713.8879 713.7638 713.6249 713.4805 713.3358 713.1942 713.0579 712.9285 712.807 712.6941 712.5906 712.4984 712.4189 712.3533 712.3015 712.2626 712.2354 712.2188 712.2118 712.2133 712.2223 712.2379 712.2591 712.2849 712.3141 712.3458 712.379 712.4124 712.4449 712.4755 712.5033 712.528 712.5487 712.5648 712.5773 712.5862 712.5918 712.5947 712.5958 712.5951 712.5919 712.5856 712.5758 712.56 712.5409 712.4912 712.4222 712.347 712.275 712.2097 712.1511 712.101 712.0671 712.0664 712.1249 712.2781 712.5671 713.0411 713.5222 713.8675 714.0771 714.0825 713.941 713.6408 713.3013 713.0204 712.8291 712.673 712.5618 712.5594 712.5598 712.5599 712.5597 712.5606 712.6326 712.7326 712.8647 713.0372 713.2507 713.489 713.7235 713.9259 714.0799 714.189 714.2751 714.3449 714.4019 714.4486 714.4872 714.5215 714.5526 714.5785 714.5999 714.6199 714.6363 714.6431 714.6406 714.6359 714.6361 714.6431 714.6582 714.6868 714.7366 714.8127 714.9174 715.0469 715.1937 715.3444 715.486 715.605 715.8329 716.0836 716.3226 716.5159 716.6322 716.6971 716.7633 716.8568 716.9706 717.0712 717.1351 717.3781 717.678 717.9911 718.2806 718.5089 718.6496 718.7181 718.752 718.7842 718.8312 718.87 718.8712 718.8398 718.7939 718.7703 718.792 718.8893 719.0143 719.1661 719.328 719.5078 719.7664 720.1766 720.754 721.2649 721.0829 721.4164 721.4963 720.9993 720.7914 721.0441 721.9027 723.4323 725.0822 -9999 -9999 -9999 -9999 -9999 -9999 -9999 -9999 -9999 -9999 -9999 -9999 -9999 -9999 -9999 -9999
-9999 -9999 -9999 -9999 -9999 -9999 -9999 -9999 -9999 -9999 -9999 -9999 -9999 -9999 -9999 -9999 -9999 -9999 -9999 -9999 -9999 -9999 -9999 -9999 -9999 -9999 -9999 -9999 -9999 -9999 -9999 -9999 -9999 -9999 -9999 -9999 -9999 -9999 -9999 -9999 -9999 -9999 -9999 -9999 -9999 -9999 -9999 -9999 722.9412 721.4431 720.5513 720.1251 720.2283 721.158 721.3132 721.4058 721.7458 722.2311 722.6473 722.7072 722.5339 722.4894 722.5658 722.6408 722.7716 722.3096 721.7012 720.7941 719.6859 718.656 717.7831 717.1041 716.5807 716.2153 715.9668 715.804 715.7039 715.6496 715.6257 715.6187 715.6176 715.6138 715.5999 715.5482 715.5032 715.4695 715.4384 715.3993 715.3445 715.2764 715.2079 715.162 715.153 715.1641 715.16 715.1187 715.0543 715.0034 714.9923 715.023 715.0878 715.1659 715.2224 715.2247 715.1638 715.0862 715.0347 715.0797 715.3431 715.9071 716.8313 718.0524 719.6548 721.8741 724.1351 725.0444 723.9677 721.8674 719.8395 717.9905 716.5505 715.719 715.6 716.205 717.0471 717.7159 718.2936 718.7457 719.3582 720.0767 720.8346 721.3701 721.3728 721.1525 721.3194 720.4119 719.9166 719.6658 719.6066 719.7007 719.882 720.065 720.188 720.4854 721.1642 722.4572 724.6071 727.3575 729.9038 731.4828 731.5796 -9999 -9999 -9999 -9999 -9999 -9999 -9999 -9999 -9999 -9999 -9999 -9999 -9999 -9999 -9999 -9999 -9999 728.1933 729.02 729.2676 728.0182 725.4525 722.7042 720.7224 718.9295 717.8058 717.1113 716.5861 716.2091 715.9558 715.7976 715.7045 715.6478 715.5999 715.5296 715.4347 715.3167 715.1805 715.0328 714.8817 714.7357 714.6011 714.4805 714.3727 714.2739 714.1771 714.0803 713.984 713.8456 713.6936 713.5397 713.3877 713.2401 713.0986 712.9645 712.8385 712.7211 712.6125 712.5146 712.4293 712.3577 712.3004 712.256 712.2239 712.203 712.192 712.1901 712.1962 712.2101 712.2303 712.2559 712.2855 712.3185 712.3535 712.3888 712.4235 712.4568 712.4874 712.5148 712.5387 712.558 712.5725 712.5831 712.5901 712.5938 712.5947 712.5935 712.5896 712.5829 712.5737 712.56 712.5319 712.4785 712.4065 712.3282 712.2543 712.1888 712.1307 712.0801 712.0441 712.0398 712.0967 712.258 712.5817 713.1649 713.7548 714.1 714.3078 714.2893 714.069 713.621 713.1655 712.844 712.6987 712.5602 712.4633 712.4395 712.4388 712.4459 712.4582 712.4851 712.5596 712.6516 712.7761 712.9485 713.1796 713.4477 713.7117 713.9291 714.0794 714.2056 714.3096 714.3905 714.4515 714.4979 714.5338 714.5638 714.5903 714.6118 714.6283 714.6445 714.661 714.6699 714.6664 714.6561 714.6498 714.653 714.6661 714.6909 714.7338 714.7996 714.8905 715.0054 715.1388 715.2842 715.4355 715.5989 715.8037 716.0292 716.2466 716.4324 716.5757 716.6897 716.7969 716.9095 717.0247 717.1296 717.2362 717.4528 717.7284 718.016 718.2816 718.4993 718.6498 718.7213 718.7539 718.7809 718.8203 718.8682 718.8939 718.8943 718.8778 718.8652 718.8864 718.9446 719.0507 719.1639 719.2805 719.4102 719.598 719.9038 720.3568 721.0881 721.5903 721.6066 721.6209 721.0635 720.9755 721.0591 721.583 723.0433 725.0468 -9999 -9999 -9999 -9999 -9999 -9999 -9999 -9999 -9999 -9999 -9999 -9999 -9999 -9999 -9999 -9999
-9999 -9999 -9999 -9999 -9999 -9999 -9999 -9999 -9999 -9999 -9999 -9999 -9999 -9999 -9999 -9999 -9999 -9999 -9999 -9999 -9999 -9999 -9999 -9999 -9999 -9999 -9999 -9999 -9999 -9999 -9999 -9999 -9999 -9999 -9999 -9999 -9999 -9999 -9999 -9999 -9999 -9999 -9999 -9999 -9999 -9999 -9999 -9999 723.6451 722.1168 721.0634 720.5469 720.7177 721.4128 721.9738 722.2458 722.6161 723.0825 723.6866 723.8392 723.6702 723.8245 724.1274 724.3849 724.4355 724.1526 723.5511 722.2722 720.5928 719.1758 718.0288 717.1458 716.5753 716.2071 715.9683 715.8177 715.7296 715.6837 715.6631 715.654 715.6458 715.6298 715.6 715.5638 715.5233 715.4857 715.4471 715.4006 715.3393 715.2643 715.1864 715.1252 715.0985 715.101 715.1007 715.0697 715.0115 714.9601 714.9462 714.9753 715.0374 715.1169 715.1968 715.2773 715.3582 715.5273 715.7665 716.0679 716.5669 717.3292 718.173 719.1077 720.3297 721.6982 722.6403 722.4556 721.4012 720.0322 718.5544 717.1913 716.1472 715.6 715.7227 716.3447 717.1256 717.8833 718.554 719.0066 719.5422 720.1631 720.8425 721.4445 721.648 721.5377 721.2734 720.3696 719.8346 719.5516 719.4895 719.6252 719.8888 720.1732 720.3029 720.5945 721.2549 722.4519 724.575 727.1678 729.4472 730.8163 731.0301 -9999 -9999 -9999 -9999 -9999 -9999 -9999 -9999 -9999 -9999 -9999 -9999 -9999 -9999 -9999 -9999 -9999 728.0704 728.9522 729.1198 728.1246 725.8713 723.1539 720.8474 718.9595 717.7999 717.1051 716.5869 716.2175 715.9666 715.8057 715.7074 715.6464 715.5999 715.5422 715.4585 715.3507 715.2258 715.0914 714.9554 714.8257 714.7062 714.5964 714.4918 714.3875 714.2808 714.1757 714.0771 713.9184 713.7582 713.5991 713.4418 713.2886 713.1417 713.0026 712.8723 712.751 712.6384 712.5356 712.4448 712.3674 712.3044 712.2548 712.2179 712.1925 712.1779 712.1726 712.176 712.1877 712.2068 712.2319 712.2621 712.2961 712.3328 712.37 712.4066 712.4421 712.4752 712.5051 712.531 712.5524 712.5688 712.5805 712.5877 712.5912 712.5917 712.5898 712.5853 712.5782 712.5697 712.56 712.5278 712.4714 712.397 712.3165 712.2416 712.1772 712.1217 712.0726 712.036 712.029 712.083 712.2484 712.5984 713.2607 713.9977 714.3555 714.5026 714.4108 714.082 713.4836 712.9213 712.5825 712.5481 712.4308 712.3485 712.3195 712.3198 712.3344 712.3582 712.3975 712.4664 712.5594 712.6759 712.8433 713.099 713.4109 713.7215 713.9651 714.0835 714.2344 714.3539 714.4417 714.5046 714.5492 714.5815 714.6067 714.6284 714.6461 714.6584 714.6694 714.683 714.6932 714.6913 714.6781 714.665 714.6626 714.6733 714.6957 714.733 714.7907 714.8707 714.9736 715.0981 715.243 715.4092 715.5995 715.809 716.0314 716.2467 716.4379 716.6001 716.7423 716.8759 717.0052 717.1296 717.2435 717.3752 717.5721 717.8174 718.0753 718.3133 718.5095 718.6499 718.7249 718.7656 718.7994 718.843 718.8992 718.9539 718.9861 719.0032 719.0105 719.0348 719.0847 719.1559 719.2422 719.3234 719.4064 719.5432 719.793 720.2101 720.8503 721.3331 721.4146 721.3555 721.3153 721.4598 721.6068 722.002 723.1097 725.023 -9999 -9999 -9999 -9999 -9999 -9999 -9999 -9999 -9999 -9999 -9999 -9999 -9999 -9999 -9999 -9999
-9999 -9999 -9999 -9999 -9999 -9999 -9999 -9999 -9999 -9999 -9999 -9999 -9999 -9999 -9999 -9999 -9999 -9999 -9999 -9999 -9999 -9999 -9999 -9999 -9999 -9999 -9999 -9999 -9999 -9999 -9999 -9999 -9999 -9999 -9999 -9999 -9999 -9999 -9999 -9999 -9999 -9999 -9999 -9999 -9999 -9999 -9999 725.5576 724.126 722.7886 721.8088 721.3012 721.7047 722.5802 723.3993 723.7828 724.2577 724.907 725.4884 725.7059 725.7299 725.8575 726.1129 726.3191 726.3749 726.1423 725.5079 724.0926 722.0244 720.0002 718.509 717.3832 716.7437 716.3514 716.1019 715.946 715.8539 715.8007 715.7673 715.7405 715.712 715.6777 715.6381 715.5999 715.5587 715.5189 715.4766 715.4258 715.3613 715.2828 715.2 715.1287 715.0859 715.0742 715.0696 715.0409 714.9827 714.9246 714.9083 714.9496 715.0422 715.1722 715.3379 715.6008 715.938 716.5303 717.2684 717.9297 718.6628 719.4193 719.9808 720.3937 720.9183 721.3691 721.0576 720.35 719.973 718.8315 717.6342 716.5945 715.8675 715.6 715.9127 716.5787 717.2613 718.0118 718.6354 719.1362 719.6134 720.079 720.5261 721.307 721.5511 721.4366 720.9384 720.1927 719.6613 719.3585 719.288 719.4556 719.783 720.1533 720.3281 720.6556 721.3686 722.5345 724.6934 727.1939 729.2369 730.3698 730.751 -9999 -9999 -9999 -9999 -9999 -9999 -9999 -9999 -9999 -9999 -9999 -9999 -9999 -9999 -9999 -9999 -9999 727.829 728.8063 729.0587 728.3178 726.3236 723.6038 720.9838 718.9768 717.782 717.0999 716.6116 716.2612 716.0125 715.8429 715.7314 715.6567 715.6001 715.5613 715.4857 715.3856 715.2712 715.1509 715.032 714.9209 714.819 714.7219 714.6217 714.5111 714.3855 714.2426 714.0836 713.9631 713.8217 713.6655 713.5039 713.3437 713.1895 713.0438 712.9083 712.7831 712.667 712.5605 712.465 712.3822 712.3136 712.2588 712.217 712.1875 712.1691 712.1607 712.1614 712.171 712.1887 712.2133 712.2438 712.2791 712.3171 712.3562 712.395 712.4324 712.4674 712.4995 712.5271 712.5496 712.567 712.5791 712.5858 712.5883 712.5875 712.5848 712.5796 712.5714 712.56 712.551 712.522 712.4673 712.3925 712.3112 712.2363 712.174 712.1226 712.0768 712.0403 712.0282 712.0706 712.2193 712.5518 713.1346 713.9127 714.346 714.4994 714.3583 713.9916 713.2225 712.6117 712.3438 712.2901 712.2401 712.2053 712.1978 712.2103 712.2343 712.2656 712.3065 712.3646 712.4448 712.558 712.7131 713.0068 713.3765 713.7538 714.0708 714.1996 714.3181 714.4208 714.5013 714.5602 714.601 714.629 714.6492 714.666 714.6803 714.6899 714.6962 714.7041 714.7125 714.7124 714.6996 714.6826 714.6748 714.683 714.7049 714.7395 714.7908 714.8625 714.9557 715.0724 715.2155 715.3903 715.5996 715.8278 716.0684 716.2986 716.5045 716.683 716.8422 716.9903 717.1298 717.259 717.385 717.5275 717.7098 717.928 718.1575 718.3678 718.5355 718.6498 718.7265 718.7822 718.8347 718.8978 718.9738 719.0586 719.1301 719.1738 719.2021 719.2303 719.2741 719.3312 719.3904 719.4399 719.4855 719.5795 719.7914 720.1735 720.7029 721.1317 721.2903 721.3547 721.7783 722.334 722.6899 722.824 723.5045 -9999 -9999 -9999 -9999 -9999 -9999 -9999 -9999 -9999 -9999 -9999 -9999 -9999 -9999 -9999 -9999 -9999
-9999 -9999 -9999 -9999 -9999 -9999 -9999 -9999 -9999 -9999 -9999 -9999 -9999 -9999 -9999 -9999 -9999 -9999 -9999 -9999 -9999 -9999 -9999 -9999 -9999 -9999 -9999 -9999 -9999 -9999 -9999 -9999 -9999 -9999 -9999 -9999 -9999 -9999 -9999 -9999 -9999 -9999 -9999 -9999 -9999 726.8352 726.0493 725.0177 723.9441 723.0296 722.4324 722.3357 723.0972 724.2111 725.2089 725.8104 726.377 727.0126 727.545 727.7338 727.662 727.5598 727.4901 727.545 727.6383 727.5985 726.973 725.5898 723.3911 721.0367 719.2433 717.9608 717.1558 716.6768 716.3759 716.1886 716.075 716.0007 715.9397 715.8801 715.8177 715.7534 715.6919 715.6405 715.5999 715.5629 715.5233 715.4747 715.4131 715.3373 715.2552 715.1801 715.1252 715.097 715.0813 715.0489 714.9854 714.9146 714.8926 714.9564 715.1101 715.3433 715.6523 716.2498 717.1005 718.2532 719.3692 720.3228 721.1595 721.6682 721.6428 721.2817 720.7894 720.108 719.3723 718.8423 718.4669 717.7231 716.8698 716.1227 715.6545 715.6066 716.1229 716.9326 717.5972 718.2473 718.7316 719.2557 719.7164 720.1385 720.5623 721.0238 720.6612 720.4612 720.2056 719.7666 719.3592 719.0792 718.9884 719.1732 719.5142 719.8921 720.1931 720.5793 721.3135 722.7285 724.9946 727.5581 729.6788 730.8647 731.0537 -9999 -9999 -9999 -9999 -9999 -9999 -9999 -9999 -9999 -9999 -9999 -9999 -9999 -9999 -9999 -9999 -9999 -9999 728.3976 728.9311 728.3936 726.6953 723.9994 721.1877 719.0423 717.7888 717.1078 716.681 716.355 716.1002 715.9125 715.7815 715.6932 715.636 715.5997 715.5172 715.4213 715.3182 715.214 715.1145 715.024 714.9416 714.8596 714.7678 714.6577 714.5264 714.3761 714.218 714.0797 713.9268 713.7595 713.5854 713.4127 713.2469 713.0914 712.9483 712.8177 712.6982 712.5886 712.4893 712.402 712.3281 712.2682 712.2218 712.188 712.1657 712.1541 712.1522 712.1597 712.176 712.2003 712.2312 712.2675 712.3071 712.3479 712.3884 712.4279 712.4647 712.498 712.5271 712.5504 712.5677 712.5794 712.5854 712.5862 712.5835 712.5792 712.5739 712.5676 712.56 712.5453 712.5172 712.4655 712.3923 712.3114 712.2369 712.177 712.1306 712.0898 712.0533 712.0315 712.0447 712.1275 712.3287 712.6964 713.3721 713.979 714.2026 713.9814 713.6037 712.7913 712.3326 712.1285 712.0782 712.0685 712.0746 712.0941 712.1237 712.1581 712.194 712.2322 712.277 712.3358 712.4225 712.5706 712.9197 713.3379 713.7473 714.0789 714.2592 714.3851 714.4835 714.5585 714.6132 714.6504 714.6747 714.6909 714.7029 714.7137 714.7219 714.7253 714.7269 714.7299 714.7291 714.7185 714.7018 714.6912 714.6974 714.7205 714.7563 714.8049 714.8707 714.9563 715.0646 715.2015 715.3762 715.5989 715.8565 716.1309 716.39 716.6152 716.8069 716.9755 717.1299 717.2722 717.4064 717.5397 717.6847 717.8539 718.0477 718.2517 718.4385 718.5795 718.6505 718.7323 718.8065 718.8857 718.984 719.1003 719.2256 719.3444 719.4105 719.4449 719.471 719.4951 719.541 719.5881 719.6128 719.6263 719.6757 719.8405 720.1775 720.6971 721.1668 721.4172 721.5209 722.3768 723.3325 723.9769 723.9604 724.064 -9999 -9999 -9999 -9999 -9999 -9999 -9999 -9999 -9999 -9999 -9999 -9999 -9999 -9999 -9999 -9999 -9999
-9999 -9999 -9999 -9999 -9999 -9999 -9999 -9999 -9999 -9999 -9999 -9999 -9999 -9999 -9999 -9999 -9999 -9999 -9999 -9999 -9999 -9999 -9999 -9999 -9999 -9999 -9999 -9999 -9999 -9999 -9999 -9999 -9999 -9999 -9999 -9999 -9999 -9999 -9999 -9999 -9999 -9999 -9999 -9999 726.5509 725.9101 725.0318 724.0712 723.3003 722.9638 722.9161 723.3798 724.4905 725.748 726.8184 727.5857 728.1631 728.6158 728.9092 728.9681 728.7794 728.418 728.1203 728.0338 728.0997 728.1152 727.6969 726.382 724.2008 721.7606 719.8959 718.5716 717.6853 717.1169 716.7455 716.5132 716.3699 716.2688 716.1704 716.0657 715.9565 715.8492 715.7531 715.6771 715.6271 715.6 715.5729 715.5371 715.4867 715.4232 715.3518 715.2821 715.2238 715.1833 715.1556 715.1179 715.0469 714.951 714.912 714.99 715.2067 715.5684 716.0297 716.8504 718.0693 719.7213 721.2291 722.4904 723.3805 723.3946 722.4733 721.08 719.562 718.4229 717.9757 717.6708 717.3718 716.8796 716.2899 715.7714 715.4972 715.6119 716.2301 717.0821 717.8477 718.5529 719.0085 719.4451 719.8347 720.1617 720.4233 720.5444 720.2435 719.9645 719.6961 719.3702 719.0548 718.8024 718.664 718.8651 719.2065 719.6196 720.0825 720.5269 721.424 722.9772 725.285 727.934 730.226 731.5479 731.6109 731.223 -9999 -9999 -9999 -9999 -9999 -9999 -9999 -9999 -9999 -9999 -9999 -9999 -9999 -9999 -9999 -9999 -9999 728.2044 728.9826 728.5679 727.0322 724.3785 721.4597 719.1755 717.8511 717.161 716.833 716.5103 716.2274 716.008 715.8485 715.736 715.6576 715.5999 715.532 715.4536 715.3682 715.2833 715.2052 715.1369 715.0752 715.0101 714.9299 714.8271 714.7013 714.5564 714.4027 714.2491 714.0801 713.8936 713.6985 713.5051 713.3212 713.1508 712.996 712.8573 712.7329 712.6201 712.5179 712.427 712.3485 712.2834 712.2321 712.1938 712.1676 712.1526 712.1481 712.1538 712.1689 712.1927 712.2241 712.2614 712.3024 712.345 712.3875 712.4283 712.4667 712.5013 712.5309 712.5547 712.5718 712.5822 712.5865 712.5853 712.5801 712.5734 712.5665 712.56 712.551 712.5364 712.5115 712.4652 712.3959 712.3165 712.2426 712.1844 712.1427 712.1085 712.0748 712.0455 712.0319 712.0546 712.1475 712.3561 712.7379 713.3025 713.6309 713.2441 712.7985 712.3758 712.097 711.9657 711.9376 711.954 711.9877 712.0294 712.0746 712.119 712.1594 712.1968 712.2365 712.2891 712.3782 712.5569 712.9094 713.338 713.7492 714.0778 714.2828 714.4247 714.5294 714.6058 714.6591 714.6946 714.717 714.7308 714.7394 714.7464 714.7529 714.7557 714.7534 714.7492 714.7445 714.7354 714.722 714.7129 714.7191 714.7445 714.7848 714.8362 714.9004 714.9819 715.0837 715.2114 715.3755 715.5974 715.8994 716.2235 716.5182 716.7608 716.9595 717.1301 717.2837 717.4261 717.5619 717.6968 717.8386 717.9944 718.1656 718.3452 718.5141 718.649 718.6957 718.7595 718.8441 718.9548 719.1013 719.2836 719.4812 719.6617 719.7454 719.7677 719.7667 719.7365 719.7599 719.8051 719.8205 719.812 719.825 719.9548 720.2599 720.8651 721.4419 721.8908 722.0154 723.1057 724.373 725.2303 725.132 -9999 -9999 -9999 -9999 -9999 -9999 -9999 -9999 -9999 -9999 -9999 -9999 -9999 -9999 -9999 -9999 -9999 -9999
-9999 -9999 -9999 -9999 -9999 -9999 -9999 -9999 -9999 -9999 -9999 -9999 -9999 -9999 -9999 -9999 -9999 -9999 -9999 -9999 -9999 -9999 -9999 -9999 -9999 -9999 -9999 -9999 -9999 -9999 -9999 -9999 -9999 -9999 -9999 -9999 -9999 -9999 -9999 -9999 -9999 -9999 -9999 726.7231 725.8649 724.9832 723.9537 722.9221 722.2408 722.4279 723.076 724.165 725.4891 726.7308 727.7701 728.5895 729.0343 729.3752 729.606 729.5699 729.1509 728.697 728.2142 728.0012 728.0019 728.0061 727.6564 726.5234 724.4504 722.0566 720.3391 719.1006 718.196 717.5481 717.1211 716.8542 716.6924 716.5762 716.4392 716.2852 716.1213 715.9609 715.8182 715.7057 715.6324 715.6018 715.6 715.59 715.5608 715.5217 715.4763 715.4287 715.3838 715.3467 715.3186 715.2866 715.215 715.0719 714.9943 715.0493 715.253 715.6063 716.118 716.9947 718.2786 720.0515 721.8427 723.3682 724.33 723.629 721.8055 719.8001 718.3379 717.5447 717.1895 716.9523 716.7 716.3426 715.9155 715.5464 715.399 715.6109 716.2635 717.1153 717.9282 718.6422 719.1602 719.5769 719.9053 720.1375 720.2548 720.2072 719.9398 719.6389 719.35 719.0687 718.8298 718.6461 718.5338 718.649 718.9064 719.261 719.7202 720.3212 721.4478 723.1673 725.3372 727.9219 730.3672 731.8826 732.3134 732.006 -9999 -9999 -9999 -9999 -9999 -9999 -9999 -9999 -9999 -9999 -9999 -9999 -9999 -9999 -9999 -9999 -9999 728.3726 729.0026 728.7765 727.4067 724.8317 721.8304 719.3866 717.9947 717.3363 717.0814 716.6962 716.3679 716.1147 715.9258 715.7859 715.6807 715.6002 715.5518 715.4926 715.4252 715.3607 715.3047 715.2585 715.217 715.1691 715.1016 715.0104 714.8969 714.7656 714.6224 714.4677 714.2896 714.0815 713.8572 713.6339 713.4235 713.2313 713.0594 712.908 712.7753 712.6578 712.5522 712.4579 712.3751 712.3049 712.2484 712.2053 712.1749 712.1564 712.1492 712.1528 712.1669 712.1904 712.2224 712.2607 712.3032 712.3475 712.3915 712.4338 712.473 712.5083 712.5383 712.5619 712.5782 712.5872 712.5895 712.5858 712.5779 712.5686 712.56 712.5532 712.542 712.5267 712.5052 712.4664 712.4034 712.3268 712.2531 712.1951 712.1564 712.1298 712.1031 712.074 712.0477 712.0355 712.0593 712.1541 712.347 712.5978 712.7149 712.5993 712.3538 712.116 711.9529 711.8785 711.8738 711.9075 711.9584 712.0155 712.0728 712.1256 712.1714 712.2123 712.2567 712.3164 712.4099 712.5768 712.9614 713.3949 713.7858 714.0772 714.2897 714.4469 714.5613 714.6427 714.6976 714.7327 714.7549 714.7687 714.7759 714.7795 714.7832 714.7858 714.7825 714.7734 714.7631 714.7535 714.7448 714.741 714.7509 714.78 714.827 714.886 714.9561 715.0407 715.1445 715.2705 715.4232 715.6204 715.9893 716.3659 716.691 716.9371 717.1304 717.2961 717.4438 717.5819 717.7153 717.8472 717.9821 718.1234 718.2718 718.4216 718.5551 718.65 718.7069 718.7782 718.8843 719.0359 719.2477 719.5242 719.8376 720.1456 720.2347 720.2224 720.153 719.9866 719.9733 720.0135 720.03 720.0192 720.0216 720.1898 720.6021 721.2003 721.768 722.2594 722.6905 723.9413 725.2698 726.1423 726.2349 -9999 -9999 -9999 -9999 -9999 -9999 -9999 -9999 -9999 -9999 -9999 -9999 -9999 -9999 -9999 -9999 -9999 -9999
-9999 -9999 -9999 -9999 -9999 -9999 -9999 -9999 -9999 -9999 -9999 -9999 -9999 -9999 -9999 -9999 -9999 -9999 -9999 -9999 -9999 -9999 -9999 -9999 -9999 -9999 -9999 -9999 -9999 -9999 -9999 -9999 -9999 -9999 -9999 -9999 -9999 -9999 -9999 -9999 -9999 -9999 -9999 726.1044 725.2076 724.2392 723.0265 721.7835 720.8766 721.7383 722.958 724.314 725.6505 726.7787 727.6394 728.3084 728.9822 729.4761 729.9003 729.9734 729.5803 728.9713 728.246 -9999 727.8486 727.7783 727.413 726.3955 724.4415 722.1474 720.6757 719.5706 718.6507 717.901 717.3962 717.1236 716.9747 716.8815 716.7165 716.5258 716.3108 716.094 715.8958 715.7336 715.6211 715.5677 715.5691 715.5999 715.6 715.5999 715.5996 715.599 715.5983 715.5992 715.6044 715.6108 715.5643 715.3481 715.225 715.2268 715.3418 715.5817 715.9037 716.5546 717.572 719.0272 720.5497 721.8213 722.2645 721.5205 719.9252 718.5598 717.7054 717.1677 716.8495 716.6099 716.3601 716.0526 715.7036 715.4138 715.3384 715.6082 716.2766 717.1133 717.9331 718.6527 719.2097 719.6287 719.9176 720.0781 720.1002 719.974 719.7094 719.3994 719.0995 718.8354 718.6474 718.4929 718.4121 718.4721 718.6486 718.9268 719.3833 720.102 721.2985 723.1534 725.2184 727.5137 730.0999 732.0256 732.89 732.6659 -9999 -9999 -9999 -9999 -9999 -9999 -9999 -9999 -9999 -9999 -9999 -9999 -9999 -9999 -9999 -9999 -9999 728.4 728.9811 728.9746 727.8112 725.3063 722.21 719.605 718.1217 717.4224 717.1156 716.7817 716.4773 716.2194 716.0127 715.8521 715.7309 715.647 715.5999 715.5465 715.49 715.4446 715.4098 715.3837 715.3607 715.3288 715.2714 715.1935 715.0983 714.9889 714.8677 714.7306 714.5632 714.3487 714.0854 713.8197 713.5704 713.3466 713.1498 712.9794 712.8329 712.7065 712.5955 712.4966 712.409 712.3335 712.2712 712.2227 712.1875 712.1652 712.155 712.1567 712.1698 712.1934 712.226 712.2654 712.3092 712.355 712.4004 712.4435 712.4831 712.5184 712.5482 712.5712 712.5862 712.5938 712.5939 712.5876 712.5769 712.5659 712.56 712.5503 712.5357 712.5183 712.499 712.4683 712.4145 712.3425 712.2693 712.2097 712.1711 712.1503 712.1341 712.113 712.0885 712.0649 712.0558 712.0817 712.1575 712.2587 712.3021 712.2482 712.1224 711.9919 711.9009 711.8652 711.8784 711.9236 711.9851 712.0524 712.1187 712.1787 712.23 712.2766 712.3357 712.4229 712.5587 712.769 713.1243 713.5304 713.8845 714.0885 714.3046 714.4697 714.5888 714.6729 714.7301 714.7662 714.7888 714.8037 714.812 714.8141 714.8142 714.8152 714.813 714.8033 714.7893 714.7781 714.7733 714.7775 714.7949 714.8308 714.8857 714.9557 715.0386 715.1375 715.2588 715.4098 715.599 715.8439 716.1991 716.5763 716.9063 717.1303 717.3076 717.4612 717.599 717.7291 717.8567 717.9827 718.1083 718.2358 718.365 718.4899 718.5933 718.6503 718.7164 718.796 718.9234 719.1194 719.412 719.8174 720.298 720.8287 721.0358 720.9387 720.6282 720.2482 720.1771 720.1786 720.1797 720.1794 720.1811 720.4166 720.921 721.5236 722.1223 722.7503 723.4434 724.7681 725.9752 726.803 726.9241 -9999 -9999 -9999 -9999 -9999 -9999 -9999 -9999 -9999 -9999 -9999 -9999 -9999 -9999 -9999 -9999 -9999 -9999
-9999 -9999 -9999 -9999 -9999 -9999 -9999 -9999 -9999 -9999 -9999 -9999 -9999 -9999 -9999 -9999 -9999 -9999 -9999 -9999 -9999 -9999 -9999 -9999 -9999 -9999 -9999 -9999 -9999 -9999 -9999 -9999 -9999 -9999 -9999 -9999 -9999 -9999 -9999 -9999 -9999 -9999 726.3271 725.6628 724.9572 724.0189 722.5457 721.0648 720.0596 721.3736 722.8065 724.1029 725.2674 -9999 -9999 -9999 -9999 -9999 -9999 -9999 -9999 -9999 -9999 -9999 727.8706 727.6346 727.2036 726.2397 724.4734 722.3952 721.0916 720.041 719.0256 718.1183 717.5134 717.2129 717.1296 717.1232 716.9612 716.7865 716.5441 716.276 716.0157 715.7894 715.6182 715.5193 715.4937 715.5204 715.5585 715.6094 715.6726 715.7495 715.8422 715.9517 716.0675 716.1738 716.1406 715.9065 715.7872 715.7146 715.6209 715.5391 715.6018 715.943 716.575 717.4482 718.3947 719.3245 719.6082 719.0809 718.3028 717.9517 717.4639 717.0556 716.7388 716.4703 716.2038 715.908 715.59 715.3381 715.302 715.6117 716.3195 717.1284 717.9354 718.6467 719.2064 719.6157 719.8765 719.9903 719.9594 719.793 719.5248 719.2158 718.917 718.6599 718.4954 718.3683 718.3094 718.347 718.4695 718.67 719.0742 719.7244 720.7825 722.5196 724.5601 726.8332 729.6037 731.9062 732.9657 733.0037 -9999 -9999 -9999 -9999 -9999 -9999 -9999 -9999 -9999 -9999 -9999 -9999 -9999 -9999 -9999 -9999 -9999 728.0244 728.6641 728.9752 728.0452 725.6619 722.5118 719.777 718.2363 717.5148 717.1523 716.8859 716.6085 716.3435 716.1172 715.9357 715.7971 715.7009 715.6427 715.5999 715.5514 715.527 715.5122 715.5025 715.4944 715.4778 715.4239 715.3602 715.2896 715.2112 715.125 715.0255 714.8958 714.7043 714.421 714.094 713.7867 713.5149 713.2816 713.0834 712.9161 712.7747 712.6533 712.5468 712.4523 712.37 712.3009 712.246 712.2052 712.1786 712.1654 712.1653 712.1774 712.2012 712.2346 712.2753 712.3204 712.3674 712.4136 712.4569 712.4963 712.5308 712.5594 712.5808 712.5945 712.6002 712.5983 712.5894 712.5754 712.56 712.5538 712.5444 712.5286 712.5092 712.4909 712.4684 712.4269 712.3632 712.2919 712.23 712.1882 712.1688 712.1626 712.1547 712.1406 712.1223 712.1044 712.0992 712.1158 712.1422 712.1483 712.114 712.0443 711.9712 711.9216 711.9092 711.934 711.9863 712.0547 712.1295 712.2032 712.2698 712.3251 712.3722 712.4461 712.5598 712.7271 712.9695 713.3096 713.6993 714.0616 714.2207 714.3743 714.5105 714.6194 714.7001 714.7577 714.7958 714.8198 714.8359 714.8466 714.85 714.848 714.8461 714.8443 714.8375 714.8247 714.8138 714.8129 714.8258 714.8539 714.8994 714.9641 715.0469 715.1467 715.2671 715.4154 715.6005 715.8275 716.1038 716.4421 716.7959 717.1121 717.2955 717.4579 717.6053 717.7366 717.8582 717.9778 718.0959 718.2118 718.3275 718.4431 718.5538 718.6494 718.6967 718.7519 718.827 718.9589 719.188 719.5651 720.1514 720.9445 721.7614 722.0958 721.8766 721.3096 720.7433 720.3989 720.1824 720.1576 720.1456 720.204 720.481 721.0062 721.6983 722.334 723.037 724.251 725.5594 726.5383 727.1927 727.5728 -9999 -9999 -9999 -9999 -9999 -9999 -9999 -9999 -9999 -9999 -9999 -9999 -9999 -9999 -9999 -9999 -9999 -9999
-9999 -9999 -9999 -9999 -9999 -9999 -9999 -9999 -9999 -9999 -9999 -9999 -9999 -9999 -9999 -9999 -9999 -9999 -9999 -9999 -9999 -9999 -9999 -9999 -9999 -9999 -9999 -9999 -9999 -9999 -9999 -9999 -9999 -9999 -9999 -9999 -9999 -9999 -9999 -9999 -9999 -9999 725.8568 725.4269 724.8588 723.9481 722.523 721.3721 720.9505 721.7484 722.8596 723.9901 725.0761 726.0995 -9999 -9999 -9999 -9999 -9999 -9999 -9999 -9999 -9999 -9999 -9999 727.7665 727.236 726.3104 724.6844 722.7446 721.5253 720.4186 719.1685 718.1621 717.5019 717.1744 717.0947 717.1297 717.1312 717.105 716.8855 716.5774 716.243 715.9289 715.6727 715.5074 715.4434 715.4645 715.5376 715.647 715.7875 715.9613 716.1779 716.4341 716.7024 717.0212 717.1776 717.1405 717.0546 716.874 716.4674 715.9547 715.6771 715.6001 715.7959 716.1644 716.5494 717.1517 717.4731 717.3896 717.2649 717.4003 717.194 716.913 716.6261 716.3521 716.0842 715.8035 715.5105 715.2864 715.2839 715.6447 716.4618 717.2202 717.9836 718.6451 719.1719 719.5556 719.79 719.8745 719.8173 719.6375 719.372 719.0748 718.8069 718.6388 718.4247 718.2863 718.2415 718.292 718.4294 718.6447 718.9141 719.4478 720.3713 721.8627 723.7515 726.0467 728.9588 731.5134 732.8379 733.1063 732.9009 -9999 -9999 -9999 -9999 -9999 -9999 -9999 -9999 -9999 -9999 -9999 -9999 -9999 -9999 -9999 -9999 727.2708 727.9974 728.5646 727.7402 725.6161 722.5292 719.8599 718.3967 717.7961 717.506 717.1921 716.8363 716.5126 716.2487 716.0413 715.881 715.7656 715.6899 715.6384 715.6001 715.5999 715.5999 715.5999 715.6 715.5993 715.5394 715.4966 715.458 715.4181 715.3753 715.3273 715.2607 715.1302 714.8484 714.5027 714.1076 713.7617 713.4725 713.2335 713.0359 712.8719 712.7335 712.6136 712.5082 712.4161 712.338 712.2751 712.228 712.1964 712.1799 712.178 712.1896 712.2137 712.2481 712.2902 712.3366 712.3844 712.4308 712.4734 712.5114 712.5437 712.5699 712.5892 712.6006 712.604 712.6004 712.5894 712.5743 712.56 712.5448 712.5322 712.5162 712.4962 712.4785 712.4633 712.4366 712.3865 712.3206 712.2573 712.2103 712.1874 712.1853 712.1908 712.191 712.1848 712.1736 712.1608 712.1528 712.1483 712.1344 712.1042 712.0603 712.016 711.9877 711.9872 712.0179 712.0748 712.1483 712.2292 712.3096 712.3824 712.4413 712.4747 712.5598 712.6918 712.8798 713.1311 713.4442 713.7817 714.0808 714.2693 714.4173 714.542 714.6443 714.7228 714.7803 714.8212 714.8483 714.8663 714.8792 714.8855 714.8844 714.8806 714.8785 714.8759 714.8691 714.8627 714.8674 714.8895 714.9293 714.9869 715.0635 715.1603 715.2786 715.423 715.6011 715.821 716.0728 716.3546 716.6597 716.9459 717.1407 717.3664 717.5579 717.7169 717.8486 717.9635 718.0735 718.1828 718.2896 718.3952 718.4996 718.5918 718.6506 718.7303 718.7975 718.8661 718.9858 719.2129 719.6234 720.3213 721.4586 722.7114 723.3775 722.8828 722.0165 721.2447 720.7042 720.3473 720.187 720.0897 720.1483 720.4395 720.9314 721.5724 722.3284 723.57 725.0424 726.2814 727.184 727.855 728.3386 -9999 -9999 -9999 -9999 -9999 -9999 -9999 -9999 -9999 -9999 -9999 -9999 -9999 -9999 -9999 -9999 -9999 -9999
-9999 -9999 -9999 -9999 -9999 -9999 -9999 -9999 -9999 -9999 -9999 -9999 -9999 -9999 -9999 -9999 -9999 -9999 -9999 -9999 -9999 -9999 -9999 -9999 -9999 -9999 -9999 -9999 -9999 -9999 -9999 -9999 -9999 -9999 -9999 -9999 -9999 -9999 -9999 -9999 -9999 725.946 725.6461 725.2285 724.6439 723.6459 722.4185 721.7119 721.638 721.9157 722.6995 723.7568 724.8979 725.9761 -9999 -9999 -9999 -9999 -9999 -9999 -9999 -9999 -9999 -9999 -9999 728.3024 727.6449 726.7604 725.246 723.3583 721.6889 720.4025 719.1723 718.2123 717.5651 717.2362 717.1683 717.2668 717.4365 717.5892 717.4948 717.1401 716.6922 716.2377 715.85 715.5897 715.4797 715.5028 715.6194 715.7958 716.0234 716.3005 716.658 717.0795 717.473 717.9995 718.4575 718.5994 718.5687 718.3726 717.8928 717.2373 716.6255 715.9087 715.5984 715.5711 715.6023 715.8833 716.1665 716.2641 716.3934 716.6669 716.747 716.6158 716.3898 716.1392 715.8986 715.6582 715.4176 715.2418 715.2887 715.7322 716.7573 717.4637 718.0991 718.6538 719.1185 719.4604 719.6656 719.7311 719.6647 719.4885 719.2356 718.9463 718.6606 718.4949 718.3184 718.204 718.1835 718.2565 718.4135 718.6378 718.8098 719.2952 720.1494 721.3962 723.0994 725.3596 728.3672 731.0936 732.6683 733.0112 732.9763 -9999 -9999 -9999 -9999 -9999 -9999 -9999 -9999 -9999 -9999 -9999 -9999 -9999 -9999 -9999 -9999 726.9021 727.1837 727.4675 726.7166 725.3026 722.5165 720.0303 718.6811 718.3035 718.1143 717.7528 717.1328 716.7068 716.4043 716.1768 715.9955 715.8605 715.7686 715.707 715.6667 715.6558 715.6561 715.6592 715.6573 715.6427 715.6003 715.5998 715.5999 715.5999 715.6 715.601 715.6021 715.5642 715.2955 715.0052 714.5767 714.1164 713.7436 713.4448 713.2041 713.0076 712.8439 712.7032 712.5803 712.4735 712.3832 712.3104 712.2556 712.2186 712.1985 712.1948 712.2059 712.2306 712.2662 712.3097 712.3572 712.4054 712.4513 712.4922 712.527 712.5555 712.5781 712.594 712.6018 712.6017 712.5966 712.5807 712.56 712.5389 712.5198 712.5067 712.4938 712.4764 712.4603 712.4512 712.4397 712.408 712.3533 712.2919 712.2407 712.2104 712.2049 712.2167 712.2312 712.2383 712.2379 712.2313 712.2186 712.2023 712.1808 712.1523 712.1193 712.089 712.0713 712.0763 712.1095 712.1686 712.2456 712.3311 712.4155 712.4916 712.559 712.561 712.6569 712.8055 713.0044 713.2516 713.5348 713.8245 714.0804 714.2767 714.4309 714.5566 714.6589 714.7389 714.7982 714.8423 714.874 714.8954 714.9103 714.9199 714.9225 714.9199 714.9186 714.92 714.9219 714.9252 714.9382 714.9698 715.0216 715.0922 715.182 715.2939 715.4315 715.6008 715.8109 716.0535 716.3147 716.5847 716.8562 717.118 717.2714 717.4611 717.6476 717.8077 717.9365 718.0433 718.1426 718.2419 718.3419 718.4429 718.5468 718.649 718.7192 718.8013 718.8661 718.9202 719.0111 719.205 719.5954 720.3226 721.6113 723.2789 724.5114 723.9083 722.6262 721.67 721.0087 720.5298 720.1904 720.0483 720.1096 720.4728 721.0182 721.7406 722.767 724.3029 725.8419 727.0807 728.0139 728.6578 -9999 -9999 -9999 -9999 -9999 -9999 -9999 -9999 -9999 -9999 -9999 -9999 -9999 -9999 -9999 -9999 -9999 -9999 -9999
-9999 -9999 -9999 -9999 -9999 -9999 -9999 -9999 -9999 -9999 -9999 -9999 -9999 -9999 -9999 -9999 -9999 -9999 -9999 -9999 -9999 -9999 -9999 -9999 -9999 -9999 -9999 -9999 -9999 -9999 -9999 -9999 -9999 -9999 -9999 -9999 -9999 -9999 -9999 -9999 -9999 725.9793 725.5182 724.8148 723.9283 722.9506 722.0507 721.6191 721.4948 721.436 721.9627 723.0861 724.4053 725.6006 726.4188 -9999 -9999 -9999 -9999 -9999 -9999 -9999 -9999 -9999 -9999 729.3066 728.4689 727.6059 726.1889 724.3438 722.4925 720.9594 719.6538 718.7128 718.0531 717.7059 717.6358 717.781 718.1095 718.5524 718.8032 718.2056 717.5427 716.8271 716.2165 715.8143 715.6501 715.6881 715.8688 716.1279 716.4578 716.8351 717.3492 717.9503 718.5534 719.0723 719.6763 719.9213 719.985 719.923 719.6134 718.9734 718.1356 717.0117 716.0247 715.4952 715.2492 715.2531 715.4644 715.6443 715.8528 716.1555 716.3294 716.2405 716.0568 715.8405 715.6401 715.4596 715.2999 715.2029 715.3044 715.7844 716.8758 717.6075 718.1827 718.6558 719.0562 719.3459 719.5132 719.5592 719.4942 719.3384 719.1219 718.8829 718.6497 718.4271 718.2377 718.1329 718.129 718.2106 718.3478 718.5052 718.6714 719.2119 720.0599 721.1335 722.6768 724.8543 727.9077 730.7557 732.5083 733.1034 733.1423 -9999 -9999 -9999 -9999 -9999 -9999 -9999 -9999 -9999 -9999 -9999 -9999 -9999 -9999 -9999 -9999 726.9679 726.93 726.4262 725.8557 725.2161 722.8133 720.5367 719.1384 718.9946 718.7075 718.01 717.255 716.8671 716.5815 716.3616 716.1632 716.0104 715.9063 715.833 715.7756 715.7438 715.7338 715.7338 715.7283 715.7101 715.6876 715.697 715.7233 715.7582 715.7957 715.8306 715.8503 715.8102 715.6343 715.5194 715.1074 714.6 714.1133 713.7324 713.4319 713.1912 712.992 712.8211 712.6724 712.5443 712.4372 712.3518 712.288 712.2448 712.221 712.2156 712.2267 712.2521 712.289 712.3338 712.3823 712.4303 712.4744 712.5118 712.5414 712.564 712.5813 712.5927 712.5956 712.5887 712.5842 712.56 712.5316 712.5029 712.4794 712.4663 712.4586 712.4481 712.4368 712.4329 712.434 712.4231 712.3865 712.3327 712.2808 712.2435 712.2291 712.2372 712.2573 712.2767 712.287 712.2881 712.2808 712.2638 712.2398 712.2122 712.1847 712.1621 712.1508 712.1588 712.1921 712.2512 712.3297 712.4169 712.4995 712.5601 712.616 712.6542 712.751 712.9034 713.1041 713.3422 713.6 713.8535 714.08 714.2704 714.4285 714.5591 714.6652 714.7488 714.8125 714.8602 714.8966 714.9228 714.9407 714.9534 714.9608 714.9631 714.9652 714.9714 714.9825 714.9985 715.024 715.0664 715.1298 715.2125 715.3157 715.443 715.6004 715.7957 716.0262 716.2806 716.5394 716.7794 716.9778 717.1369 717.3376 717.5388 717.7253 717.8818 718.0026 718.098 718.1847 718.2743 718.3704 718.4722 718.5729 718.6526 718.7925 718.9037 718.9675 718.9988 719.0487 719.1858 719.4976 720.1176 721.2128 722.9608 724.2888 724.2404 723.0176 722.0027 721.3293 720.8431 720.5111 720.1944 720.1509 720.6984 721.4087 722.3331 723.65 725.175 726.6085 727.8055 728.7574 729.3483 -9999 -9999 -9999 -9999 -9999 -9999 -9999 -9999 -9999 -9999 -9999 -9999 -9999 -9999 -9999 -9999 -9999 -9999 -9999
-9999 -9999 -9999 -9999 -9999 -9999 -9999 -9999 -9999 -9999 -9999 -9999 -9999 -9999 -9999 -9999 -9999 -9999 -9999 -9999 -9999 -9999 -9999 -9999 -9999 -9999 -9999 -9999 -9999 -9999 -9999 -9999 -9999 -9999 -9999 -9999 -9999 -9999 -9999 -9999 726.2907 726.0538 725.2738 724.1022 722.9739 722.1322 721.6609 721.4664 721.5191 721.6869 721.3624 722.4022 723.6934 724.8454 725.6942 -9999 -9999 -9999 -9999 -9999 -9999 -9999 -9999 -9999 -9999 730.5984 729.6991 728.7659 727.4864 725.8615 724.1243 722.6127 721.3031 720.1472 719.3425 718.9086 718.7847 718.8965 719.2723 719.882 720.2494 719.9235 719.0519 717.8032 716.8127 716.2042 715.981 716.0555 716.3336 716.6983 717.1726 717.6499 718.3939 719.0096 719.696 720.1218 720.4919 720.7633 721.0393 721.3145 721.3843 721.0373 720.1273 718.7154 717.2498 716.1181 715.5191 715.176 715.1869 715.3893 715.6312 715.8871 715.9294 715.8539 715.7185 715.5502 715.3904 715.2699 715.2032 715.2145 715.3892 715.8861 716.9408 717.6748 718.2269 718.6547 718.9932 719.2232 719.3453 719.3655 719.2991 719.1683 718.993 718.8094 718.6395 718.379 718.175 718.0776 718.0922 718.1918 718.3405 718.5032 718.679 719.2296 720.0523 721.0408 722.523 724.7138 727.704 730.6371 732.5108 733.1584 733.2474 -9999 -9999 -9999 -9999 -9999 -9999 -9999 -9999 -9999 -9999 -9999 -9999 -9999 -9999 -9999 -9999 727.5519 727.3566 727.428 727.2236 726.1744 723.8074 721.4663 719.9219 719.7678 718.9415 718.1215 717.463 717.1058 716.828 716.6395 716.4167 716.2489 716.1403 716.0557 715.9646 715.9022 715.877 715.8715 715.8596 715.8311 715.8082 715.8191 715.8606 715.9191 715.9806 716.0341 716.0687 716.0589 715.9797 715.8713 715.5728 715.1062 714.5895 714.1087 713.7305 713.4309 713.1843 712.971 712.7859 712.629 712.5003 712.3995 712.3252 712.2753 712.2479 712.2408 712.2517 712.2777 712.3159 712.362 712.4111 712.4581 712.499 712.5309 712.5528 712.5663 712.5765 712.5829 712.5812 712.5601 712.5599 712.5233 712.485 712.4507 712.4242 712.4111 712.4097 712.41 712.4085 712.4111 712.4214 712.4286 712.4149 712.3769 712.3298 712.2898 712.2654 712.2626 712.2777 712.2994 712.3181 712.3269 712.3249 712.312 712.2894 712.2625 712.2377 712.2195 712.2124 712.222 712.2543 712.3114 712.3883 712.4755 712.5597 712.6074 712.6562 712.7163 712.8218 712.9788 713.1809 713.413 713.6534 713.8796 714.0799 714.2608 714.421 714.5569 714.668 714.756 714.8242 714.8763 714.9167 714.9477 714.9703 714.9868 714.9994 715.0087 715.0173 715.03 715.0502 715.0795 715.1198 715.1755 715.2501 715.3428 715.4578 715.6002 715.7766 715.9886 716.2315 716.4911 716.7463 716.97 717.1293 717.2648 717.4387 717.6251 717.7996 717.9433 718.0496 718.1293 718.2013 718.283 718.3828 718.5042 718.6466 718.7789 718.9462 719.0679 719.1185 719.1169 719.1174 719.1885 719.4009 719.8637 720.7204 722.2316 723.6583 724.0052 723.343 722.2982 721.6597 721.1935 721.0509 720.6015 720.1976 721.0817 722.0939 723.3873 724.7233 725.9439 727.0303 728.0368 728.8939 -9999 -9999 -9999 -9999 -9999 -9999 -9999 -9999 -9999 -9999 -9999 -9999 -9999 -9999 -9999 -9999 -9999 -9999 -9999 -9999
-9999 -9999 -9999 -9999 -9999 -9999 -9999 -9999 -9999 -9999 -9999 -9999 -9999 -9999 -9999 -9999 -9999 -9999 -9999 -9999 -9999 -9999 -9999 -9999 -9999 -9999 -9999 -9999 -9999 -9999 -9999 -9999 -9999 -9999 -9999 -9999 -9999 -9999 -9999 -9999 726.8744 726.1718 724.8911 723.3519 722.0507 721.4172 721.2067 721.1853 721.2676 721.3459 721.2871 721.9767 722.9198 723.928 724.7898 725.3268 -9999 -9999 -9999 -9999 -9999 -9999 -9999 -9999 -9999 -9999 730.9975 730.0262 728.8967 727.6102 726.2808 725.0653 723.9142 722.7083 721.7363 721.1393 720.9096 720.9322 721.2977 722.0153 722.4973 722.2159 720.9551 719.1298 717.6049 716.7413 716.4746 716.6136 717.0336 717.5219 718.2255 718.8211 719.5632 720.1083 720.614 720.9586 721.1556 721.4635 722.0392 722.8005 723.3797 723.4311 722.5964 720.9475 719.0771 717.4502 716.3192 715.5882 715.2729 715.3558 715.5482 715.614 715.6168 715.551 715.4683 715.3683 715.2633 715.1901 715.2018 715.3379 715.6193 716.1932 717.0463 717.7095 718.2416 718.6537 718.9299 719.0981 719.1699 719.1584 719.0837 718.9753 718.8213 718.6514 718.4838 718.2728 718.1041 718.0353 718.0774 718.2073 718.3987 718.6366 718.844 719.3303 720.085 721.0507 722.5118 724.6586 727.7116 730.6525 732.4429 733.0278 733.133 -9999 -9999 -9999 -9999 -9999 -9999 -9999 -9999 -9999 -9999 -9999 -9999 -9999 -9999 -9999 -9999 728.8613 728.7631 729.078 729.0308 727.8633 725.547 723.0139 720.9509 719.7095 718.8477 718.1647 717.649 717.3423 717.1475 717.0541 716.7935 716.6255 716.5251 716.4294 716.2749 716.1693 716.1273 716.1172 716.0939 716.0352 715.9902 715.9924 716.0402 716.1112 716.1821 716.2377 716.2781 716.2905 716.2573 716.1644 715.9398 715.5764 715.0964 714.5856 714.1113 713.7352 713.4258 713.1538 712.9202 712.7266 712.572 712.4537 712.3682 712.3113 712.2799 712.2708 712.2809 712.3073 712.3461 712.3929 712.4421 712.4874 712.5236 712.548 712.5597 712.56 712.56 712.56 712.5599 712.5251 712.4966 712.4543 712.4128 712.3785 712.3531 712.342 712.3471 712.361 712.3749 712.3882 712.4056 712.4253 712.434 712.4192 712.3848 712.3468 712.3168 712.301 712.3038 712.3195 712.3373 712.35 712.3525 712.3429 712.3224 712.2963 712.2722 712.2557 712.2507 712.2606 712.2905 712.343 712.4137 712.4915 712.5601 712.6155 712.6701 712.7448 712.8612 713.0269 713.2358 713.4708 713.7053 713.9114 714.0794 714.2545 714.4183 714.5586 714.6732 714.7644 714.8357 714.8916 714.9359 714.971 714.9983 715.0203 715.0388 715.0557 715.0728 715.0936 715.123 715.1641 715.2192 715.2898 715.3765 715.4756 715.6002 715.7562 715.9451 716.166 716.413 716.6699 716.9141 717.124 717.2489 717.379 717.5388 717.7109 717.8695 717.9951 718.0817 718.1416 718.1968 718.2723 718.3826 718.5243 718.6649 718.9321 719.1574 719.287 719.3169 719.2772 719.2274 719.2379 719.3691 719.7004 720.3464 721.4813 722.674 723.6309 723.815 722.8224 721.9421 721.3743 721.6245 721.0423 720.1992 721.2795 722.8666 724.452 725.7068 726.6054 727.3144 728.0225 -9999 -9999 -9999 -9999 -9999 -9999 -9999 -9999 -9999 -9999 -9999 -9999 -9999 -9999 -9999 -9999 -9999 -9999 -9999 -9999 -9999
-9999 -9999 -9999 -9999 -9999 -9999 -9999 -9999 -9999 -9999 -9999 -9999 -9999 -9999 -9999 -9999 -9999 -9999 -9999 -9999 -9999 -9999 -9999 -9999 -9999 -9999 -9999 -9999 -9999 -9999 -9999 -9999 -9999 -9999 -9999 -9999 -9999 -9999 -9999 726.9713 726.9238 726.0048 724.4323 722.8364 721.6548 721.1199 720.9692 720.9937 721.0815 721.1631 721.3338 721.7311 722.2595 723.1353 724.101 724.8215 725.358 -9999 -9999 -9999 -9999 -9999 -9999 -9999 -9999 -9999 -9999 731.3081 730.3546 729.3743 728.4909 727.7184 726.9012 725.9402 724.9859 724.2822 723.9531 723.7928 723.9911 724.6019 724.9807 724.3794 722.6606 720.3966 718.4985 717.3835 717.1274 717.3497 717.9149 718.5964 719.2633 719.8881 720.4298 720.9939 721.453 721.8079 721.8631 722.3011 723.3691 724.6826 725.7462 726.0938 725.3596 723.561 721.3303 719.2465 717.6069 716.4597 715.7686 715.5625 715.4725 715.4591 715.4502 715.3673 715.3203 715.3168 715.3295 715.2969 715.3468 715.5869 715.9408 716.473 717.1117 717.6891 718.2008 718.627 718.8387 718.9626 718.9934 718.952 718.8616 718.7891 718.6513 718.4963 718.3353 718.1694 718.0471 718.0144 718.0835 718.2313 718.4243 718.6476 718.9456 719.4388 720.1523 721.1852 722.7338 724.9526 727.9437 730.7415 732.4053 732.7732 732.7488 -9999 -9999 -9999 -9999 -9999 -9999 -9999 -9999 -9999 -9999 -9999 -9999 -9999 -9999 -9999 -9999 -9999 730.9645 731.2968 731.2582 730.0898 727.7835 725.0549 722.6042 720.7261 719.4265 718.6852 718.1691 717.8727 717.7167 717.6002 717.3634 717.2391 717.1342 717.0117 716.7454 716.5925 716.5328 716.5179 716.4758 716.3528 716.2636 716.2462 716.2914 716.3636 716.4271 716.4596 716.4879 716.5059 716.4888 716.4156 716.2455 715.9646 715.5783 715.0981 714.5916 714.1109 713.7162 713.3632 713.0691 712.834 712.6516 712.5153 712.4182 712.3542 712.3184 712.3063 712.3145 712.3397 712.3781 712.4249 712.4736 712.5162 712.5454 712.56 712.56 712.5453 712.5288 712.5121 712.4914 712.4521 712.4103 712.3635 712.3206 712.2883 712.2679 712.2618 712.2737 712.3015 712.335 712.3652 712.3916 712.4188 712.4436 712.4531 712.4391 712.4092 712.3781 712.3542 712.3435 712.3477 712.3593 712.3688 712.3706 712.3619 712.3422 712.3158 712.2905 712.273 712.267 712.2748 712.3007 712.3471 712.4117 712.4865 712.5598 712.6052 712.6599 712.7419 712.8673 713.0436 713.2662 713.5169 713.7641 713.9659 714.0841 714.2665 714.4327 714.572 714.6854 714.7764 714.8489 714.9069 714.9541 714.993 715.0251 715.053 715.0789 715.1038 715.1297 715.1597 715.1974 715.2477 715.3137 715.3978 715.4988 715.6003 715.7342 715.8995 716.0955 716.3192 716.5621 716.8047 717.0109 717.1341 717.2966 717.4549 717.6211 717.7872 717.9324 718.0392 718.1046 718.1426 718.1809 718.2545 718.3979 718.6372 718.9099 719.2377 719.4619 719.556 719.5441 719.4635 719.3687 719.3284 719.3988 719.6364 720.1152 720.8519 721.8053 722.6305 723.227 722.5501 721.8602 721.3692 721.5158 720.6523 720.2 721.4666 723.3972 725.224 726.4691 727.2537 727.8436 -9999 -9999 -9999 -9999 -9999 -9999 -9999 -9999 -9999 -9999 -9999 -9999 -9999 -9999 -9999 -9999 -9999 -9999 -9999 -9999 -9999 -9999
-9999 -9999 -9999 -9999 -9999 -9999 -9999 -9999 -9999 -9999 -9999 -9999 -9999 -9999 -9999 -9999 -9999 -9999 -9999 -9999 -9999 -9999 -9999 -9999 -9999 -9999 -9999 -9999 -9999 -9999 -9999 -9999 -9999 -9999 -9999 -9999 -9999 -9999 -9999 726.9895 726.7279 725.4862 723.7961 722.3044 721.4637 721.0593 720.9273 720.9501 721.0316 721.1105 721.3059 721.6511 722.0059 722.7618 723.9097 724.8022 725.2166 725.7676 -9999 -9999 -9999 -9999 -9999 -9999 -9999 -9999 -9999 -9999 731.9764 731.171 730.5216 730.0784 729.6956 729.2075 728.5441 727.8723 727.3179 726.9728 726.9816 727.2521 727.1035 725.826 723.6951 721.2069 719.1882 718.1272 717.9548 718.3597 718.9433 719.6942 720.2274 720.7659 721.3151 721.8846 722.2855 722.7584 722.7807 723.5902 725.0749 726.7857 728.1334 728.6303 728.0126 726.2026 723.7797 721.3694 719.3597 717.8303 716.8116 716.1719 715.7505 715.6101 715.5754 715.3906 715.3342 715.4089 715.5753 715.5997 715.6445 715.918 716.2925 716.7462 717.1564 717.6154 718.0505 718.4202 718.653 718.8025 718.8192 718.7689 718.6555 718.647 718.5267 718.3782 718.2295 718.101 718.0231 718.0273 718.1233 718.2885 718.4826 718.6693 719.0674 719.6299 720.3355 721.4861 723.1669 725.5111 728.3033 730.6502 731.9589 732.1308 731.9963 -9999 -9999 -9999 -9999 -9999 -9999 -9999 -9999 -9999 -9999 -9999 -9999 -9999 -9999 -9999 -9999 -9999 733.6018 733.847 733.733 732.5779 730.3088 727.4943 724.7873 722.5732 721.0059 720.049 719.3318 718.9411 718.7701 718.6701 718.5223 718.3467 718.045 717.7567 717.4278 717.2651 717.1602 717.1146 717.0426 716.8119 716.6688 716.6201 716.6469 716.7012 716.7357 716.7043 716.7015 716.712 716.6931 716.6333 716.5037 716.2888 715.9825 715.584 715.0962 714.5551 714.033 713.5789 713.2227 712.9475 712.7393 712.5861 712.478 712.4065 712.365 712.3481 712.3522 712.374 712.4101 712.4553 712.5026 712.5415 712.56 712.5595 712.5437 712.5154 712.4823 712.447 712.4078 712.3596 712.3097 712.2604 712.2167 712.1862 712.1722 712.1741 712.1937 712.2339 712.2881 712.3406 712.3822 712.417 712.4504 712.4767 712.4836 712.4683 712.4407 712.4147 712.3972 712.3906 712.3932 712.3958 712.3916 712.3783 712.3558 712.3271 712.299 712.2776 712.2669 712.2693 712.2881 712.3258 712.3805 712.4451 712.5087 712.56 712.6214 712.7083 712.8387 713.0239 713.2639 713.5411 713.8248 714.0743 714.1953 714.3361 714.476 714.6003 714.7054 714.7922 714.8635 714.9224 714.9714 715.0137 715.0507 715.0845 715.1181 715.152 715.1863 715.2246 715.2698 715.3251 715.3947 715.4828 715.5981 715.7043 715.8478 716.0222 716.2225 716.4448 716.6808 716.9156 717.1257 717.2303 717.3695 717.528 717.6949 717.8556 717.9892 718.0797 718.1263 718.1451 718.1672 718.2334 718.3864 718.673 719.1934 719.6407 719.8273 719.8409 719.764 719.6425 719.5153 719.4348 719.451 719.5894 719.8745 720.325 721.1145 721.8077 722.1426 722.0818 721.7369 721.3834 721.2098 720.7057 720.6004 721.7633 723.7358 725.6967 727.08 727.8669 -9999 -9999 -9999 -9999 -9999 -9999 -9999 -9999 -9999 -9999 -9999 -9999 -9999 -9999 -9999 -9999 -9999 -9999 -9999 -9999 -9999 -9999 -9999
-9999 -9999 -9999 -9999 -9999 -9999 -9999 -9999 -9999 -9999 -9999 -9999 -9999 -9999 -9999 -9999 -9999 -9999 -9999 -9999 -9999 -9999 -9999 -9999 -9999 -9999 -9999 -9999 -9999 -9999 -9999 -9999 -9999 -9999 -9999 -9999 -9999 -9999 727.0585 726.8429 726.3232 724.8862 723.1999 721.9087 721.551 721.147 720.9937 720.9913 721.021 721.06 721.1912 721.4288 721.7661 722.545 723.7601 724.6526 725.1044 725.5433 726.2139 -9999 -9999 -9999 -9999 -9999 -9999 -9999 -9999 -9999 -9999 732.9472 732.2117 731.8259 731.9273 732.0663 731.855 731.3324 730.6741 730.11 729.7461 729.406 728.3903 726.5144 723.9406 721.4067 719.6101 718.7198 718.7091 719.2527 719.9559 720.6005 721.0815 721.5698 722.18 722.8727 723.161 723.7054 724.2243 725.2935 726.9736 728.7751 730.1169 730.4862 730.0618 728.3978 726.0256 723.5712 721.429 719.674 718.342 717.3528 716.7209 716.261 716.012 715.7681 715.7187 715.8122 716.0569 716.17 716.2472 716.4341 716.7158 717.0804 717.2844 717.556 717.8741 718.1877 718.4465 718.6403 718.6522 718.6475 718.5619 718.5151 718.4208 718.2973 718.1727 718.0782 718.0404 718.0789 718.2005 718.3917 718.6341 718.8472 719.2866 719.9683 720.7458 721.9927 723.7841 726.2819 728.7257 730.264 731.4612 731.4674 -9999 -9999 -9999 -9999 -9999 -9999 -9999 -9999 -9999 -9999 -9999 -9999 -9999 -9999 -9999 -9999 -9999 -9999 -9999 736.3337 736.0257 734.9296 732.8028 730.058 727.2959 724.9448 723.2339 722.1185 721.2912 720.7343 720.4271 720.2236 720.002 719.713 719.2861 718.9434 718.678 718.4429 718.1063 717.9006 717.7365 717.4589 717.2966 717.1841 717.1472 717.1331 717.1036 716.9513 716.9146 716.9165 716.8757 716.8218 716.719 716.5566 716.3166 715.9895 715.5597 714.9678 714.254 713.7689 713.3759 713.069 712.8381 712.6699 712.5513 712.4711 712.4216 712.3971 712.3937 712.4089 712.4397 712.4808 712.5248 712.56 712.565 712.5502 712.5195 712.4771 712.4283 712.3762 712.3213 712.2628 712.2052 712.1527 712.1088 712.0792 712.0706 712.0822 712.1117 712.1627 712.2351 712.3127 712.3771 712.425 712.4644 712.4965 712.5139 712.5127 712.4956 712.4733 712.4562 712.4468 712.4424 712.4356 712.4218 712.3995 712.3698 712.3356 712.3022 712.275 712.2571 712.2509 712.2596 712.286 712.3287 712.382 712.4381 712.4933 712.5599 712.647 712.7751 712.9626 713.2173 713.5179 713.823 714.0809 714.2523 714.3932 714.519 714.6302 714.7263 714.8082 714.8774 714.9366 714.9874 715.0323 715.0742 715.1146 715.1556 715.1982 715.2413 715.2866 715.3376 715.3955 715.4592 715.5248 715.6022 715.7588 715.9333 716.1219 716.3259 716.5429 716.7622 716.9642 717.1298 717.2754 717.4326 717.5987 717.7656 717.9194 718.0424 718.1202 718.1547 718.1641 718.1841 718.2616 718.4544 718.8308 719.5847 720.1071 720.1785 720.0772 719.9301 719.7756 719.6347 719.5355 719.522 719.6111 719.8212 720.1791 720.7474 721.3875 721.8126 721.9231 721.73 721.4334 721.1957 721.0244 721.3199 722.1341 723.9804 726.0079 727.5319 728.2502 -9999 -9999 -9999 -9999 -9999 -9999 -9999 -9999 -9999 -9999 -9999 -9999 -9999 -9999 -9999 -9999 -9999 -9999 -9999 -9999 -9999 -9999 -9999
-9999 -9999 -9999 -9999 -9999 -9999 -9999 -9999 -9999 -9999 -9999 -9999 -9999 -9999 -9999 -9999 -9999 -9999 -9999 -9999 -9999 -9999 -9999 -9999 -9999 -9999 -9999 -9999 -9999 -9999 -9999 -9999 -9999 -9999 -9999 -9999 -9999 727.7529 727.0508 726.6776 725.9686 724.3891 722.6816 721.5272 721.1892 721.0298 721.0239 721.0646 721.0601 721.0283 721.0907 721.274 721.5842 722.1719 723.2088 724.264 724.8175 725.3199 726.0258 727.1387 728.5413 -9999 -9999 -9999 -9999 -9999 -9999 -9999 -9999 -9999 733.5405 733.0606 733.6282 734.3266 734.5503 734.1613 733.4645 732.7149 731.9543 730.8483 729.0146 726.4121 723.5743 721.2112 719.7987 719.2498 719.4615 720.1157 720.8395 721.4817 721.9227 722.3386 723.0358 723.9714 724.8679 725.5356 726.0613 727.1256 728.686 730.2676 731.2512 730.9673 731.1161 729.7659 727.6475 725.4473 723.4655 721.734 720.2166 718.994 718.0784 717.4216 717.0886 716.9286 716.9116 716.9855 717.1055 717.1364 717.103 717.099 717.1417 717.2617 717.3474 717.4918 717.7064 717.9564 718.1928 718.3761 718.4498 718.4756 718.4469 718.4103 718.3451 718.2555 718.1632 718.1018 718.098 718.1656 718.299 718.4724 718.6603 718.9597 719.4346 720.1505 721.1698 722.6893 724.7601 727.3399 729.3518 729.8306 730.7681 730.7476 -9999 -9999 -9999 -9999 -9999 -9999 -9999 -9999 -9999 -9999 -9999 -9999 -9999 -9999 -9999 -9999 -9999 -9999 -9999 -9999 737.792 736.8231 734.9437 732.3744 729.6981 727.3771 725.6349 724.4514 723.6118 722.9476 722.4795 722.1038 721.7635 721.4286 721.005 720.5647 720.235 719.8406 719.2322 718.9215 718.7946 718.6395 718.4001 718.0598 717.8423 717.6353 717.4176 717.1627 717.1294 717.1242 717.0287 716.983 716.8938 716.773 716.5806 716.3043 715.9294 715.4238 714.6777 714.0433 713.5634 713.2117 712.9562 712.7729 712.6426 712.5513 712.49 712.4534 712.4381 712.4427 712.4645 712.4982 712.5345 712.56 712.5598 712.5361 712.4943 712.4393 712.3767 712.31 712.2413 712.1725 712.1067 712.0492 712.0041 711.9747 711.9686 711.9891 712.0305 712.0925 712.1789 712.2798 712.3719 712.442 712.4916 712.5228 712.5356 712.5394 712.5336 712.5224 712.5125 712.5063 712.5021 712.4856 712.4594 712.4249 712.3842 712.3413 712.301 712.267 712.241 712.225 712.2222 712.236 712.2661 712.3082 712.3564 712.4092 712.4738 712.5598 712.6792 712.8594 713.1281 713.4574 713.795 714.0806 714.2776 714.4237 714.5447 714.6492 714.7401 714.8191 714.8877 714.9475 715.0005 715.0486 715.095 715.1425 715.1907 715.2409 715.2922 715.3444 715.4007 715.4641 715.5332 715.6 715.6913 715.8408 716.0176 716.2089 716.4131 716.6267 716.8364 717.0154 717.1345 717.3221 717.5044 717.677 717.8394 717.9832 718.0948 718.1638 718.194 718.2073 718.2429 718.3589 718.6427 719.2303 720.0194 720.3558 720.3477 720.181 720.0066 719.8377 719.7018 719.6041 719.583 719.6536 719.8331 720.1451 720.4999 721.1111 721.6584 721.9009 721.7952 721.5094 721.2498 721.1608 721.475 722.3104 724.0854 726.0721 727.663 728.5697 728.9421 -9999 -9999 -9999 -9999 -9999 -9999 -9999 -9999 -9999 -9999 -9999 -9999 -9999 -9999 -9999 -9999 -9999 -9999 -9999 -9999 -9999 -9999
-9999 -9999 -9999 -9999 -9999 -9999 -9999 -9999 -9999 -9999 -9999 -9999 -9999 -9999 -9999 -9999 -9999 -9999 -9999 -9999 -9999 -9999 -9999 -9999 -9999 -9999 -9999 -9999 -9999 -9999 -9999 -9999 -9999 -9999 732.661 730.5225 728.5051 727.4039 726.8449 726.2992 725.3776 723.7372 722.1331 721.1924 720.8783 720.8912 721.074 721.1907 721.1175 721.0242 721.0381 721.187 721.4614 721.8898 722.3458 723.2634 724.0912 724.8193 725.6558 726.8249 728.2889 729.6667 731.0351 -9999 -9999 -9999 -9999 -9999 -9999 -9999 -9999 734.2313 735.0452 736.0027 736.4805 736.1096 735.3875 734.5589 733.4916 731.739 729.1541 726.0578 723.1505 721.04 719.9489 719.7247 720.1901 720.9768 721.7345 722.3737 722.8381 723.1635 724.1238 725.6653 727.0121 727.6292 727.8827 728.6754 729.887 731.0362 731.2272 731.4074 731.4045 730.4439 728.7034 726.9521 725.4047 724.0035 722.5726 721.2094 720.0742 719.2402 718.7554 718.5384 718.5086 718.5665 718.6049 718.4988 718.24 717.9718 717.7475 717.5924 717.5039 717.5114 717.6216 717.799 717.9902 718.1583 718.2696 718.3325 718.3502 718.342 718.3073 718.252 718.1951 718.1661 718.192 718.2928 718.4532 718.6436 718.8428 719.1643 719.6528 720.3892 721.6512 723.4835 725.8874 728.6372 730.5495 730.7806 730.8349 -9999 -9999 -9999 -9999 -9999 -9999 -9999 -9999 -9999 -9999 -9999 -9999 -9999 -9999 -9999 -9999 -9999 -9999 -9999 -9999 -9999 739.3782 738.2715 736.5714 734.2222 731.6747 729.4028 727.6536 726.4607 725.655 725.0002 724.4691 723.9746 723.5612 723.1543 722.7241 722.2001 721.7742 721.2289 720.536 720.145 719.9927 719.8235 719.4099 718.9012 718.572 718.1893 717.8505 717.564 717.4083 717.2859 717.1374 717.1268 717.0297 716.9524 716.7862 716.5308 716.1667 715.652 714.9982 714.2477 713.7538 713.3749 713.0991 712.9012 712.7568 712.6495 712.5708 712.5162 712.4841 712.474 712.4841 712.5092 712.5392 712.56 712.5547 712.5249 712.4748 712.41 712.3361 712.2572 712.1765 712.097 712.0226 711.9579 711.9094 711.8795 711.8734 711.8986 711.9517 712.0259 712.1234 712.2418 712.3608 712.4596 712.5285 712.56 712.56 712.56 712.56 712.56 712.56 712.56 712.5599 712.5332 712.4943 712.447 712.3943 712.3407 712.2919 712.2509 712.218 712.1937 712.1805 712.1824 712.2006 712.2317 712.2712 712.3174 712.3745 712.4508 712.5593 712.7197 713.0038 713.368 713.752 714.0805 714.2761 714.4216 714.5439 714.6495 714.7408 714.8207 714.8912 714.9535 715.0093 715.0613 715.1127 715.1664 715.2226 715.2794 715.3369 715.3945 715.4543 715.5211 715.5994 715.6735 715.7791 715.9235 716.0939 716.2818 716.4856 716.7031 716.9224 717.1235 717.2631 717.443 717.6174 717.7762 717.9213 718.0487 718.1478 718.211 718.2432 718.2689 718.3269 718.4682 718.7487 719.4374 720.1487 720.4175 720.3723 720.184 720.0084 719.8374 719.7091 719.6269 719.6068 719.6581 719.7773 719.9725 720.223 720.8547 721.487 721.845 721.8254 721.5598 721.283 721.2168 721.5638 722.4882 724.1774 726.0281 727.6542 728.8809 729.623 -9999 -9999 -9999 -9999 -9999 -9999 -9999 -9999 -9999 -9999 -9999 -9999 -9999 -9999 -9999 -9999 -9999 -9999 -9999 -9999 -9999 -9999
-9999 -9999 -9999 -9999 -9999 -9999 -9999 -9999 -9999 -9999 -9999 -9999 -9999 -9999 -9999 -9999 -9999 -9999 -9999 -9999 -9999 -9999 -9999 -9999 -9999 -9999 -9999 -9999 -9999 -9999 -9999 -9999 -9999 732.9725 731.356 729.3555 727.6176 726.6299 726.0347 725.4208 724.2879 722.8168 721.6024 720.8528 720.6066 720.7654 721.1863 721.4095 721.1849 721.0654 721.048 721.1486 721.3422 721.5707 721.8027 722.2481 722.9999 723.8947 724.9388 726.2692 727.756 729.0052 730.4631 731.9048 733.2698 734.4294 735.0447 735.3215 735.4072 735.1075 734.9075 735.1361 736.1174 737.171 737.7231 737.2897 736.4702 735.5699 734.2302 732.0056 728.9377 725.636 722.9295 720.9037 720.1517 720.2688 721.0374 721.9891 722.7645 723.4049 723.9167 724.0789 725.5686 727.5932 729.1033 729.4745 729.3098 729.7037 730.6495 731.6589 -9999 -9999 731.6603 730.8 729.4269 728.2035 727.2751 726.5018 725.4995 724.2329 722.9218 721.8127 721.0322 720.6075 720.4803 720.5228 720.528 720.2818 719.7841 719.2261 718.6851 718.2121 717.8955 717.7251 717.7094 717.7975 717.9176 718.0551 718.1788 718.2681 718.3163 718.3323 718.3197 718.2894 718.2631 718.2673 718.3142 718.451 718.6425 718.8428 719.118 719.5217 720.0752 720.8776 722.2582 724.3108 727.012 729.9152 731.7664 731.5966 730.7048 -9999 -9999 -9999 -9999 -9999 -9999 -9999 -9999 -9999 -9999 -9999 -9999 -9999 -9999 -9999 -9999 -9999 -9999 -9999 -9999 -9999 -9999 -9999 737.5222 735.3911 732.9429 730.6317 728.8055 727.5767 726.7551 726.1144 725.712 725.1807 724.7413 724.1512 723.7722 723.2307 722.761 722.0302 721.452 720.9067 720.6062 720.389 720.1156 719.6791 719.1913 718.6859 718.2885 717.9777 717.7397 717.5405 717.3651 717.2604 717.1372 717.1249 716.9658 716.7276 716.4014 715.9644 715.4203 714.662 714.0367 713.5818 713.2771 713.062 712.8985 712.7681 712.6639 712.5845 712.5297 712.5007 712.4968 712.5132 712.5398 712.56 712.5538 712.5215 712.4669 712.3955 712.3132 712.2249 712.1339 712.0441 711.9604 711.8871 711.8317 711.7994 711.7919 711.817 711.8771 711.9628 712.0703 712.1996 712.3385 712.4651 712.5599 712.5955 712.6013 712.5994 712.5977 712.5985 712.6007 712.6 712.5898 712.56 712.5117 712.4537 712.3909 712.3278 712.2706 712.2233 712.1855 712.1561 712.1362 712.1294 712.1378 712.1595 712.1907 712.2295 712.2787 712.3448 712.4365 712.5708 712.863 713.251 713.6772 714.0603 714.2251 714.3773 714.5127 714.6281 714.726 714.8108 714.8859 714.9526 715.0128 715.0696 715.1265 715.1865 715.2496 715.3134 715.3751 715.4354 715.4942 715.5504 715.6009 715.7157 715.8459 715.9916 716.1541 716.3345 716.5377 716.7623 716.9839 717.1436 717.3889 717.6066 717.7694 717.8974 718.0111 718.1146 718.1995 718.259 718.2974 718.3397 718.4313 718.6375 718.9822 719.5891 720.1751 720.3876 720.3228 720.1765 719.9756 719.7952 719.6713 719.6118 719.6042 719.6584 719.7589 719.9169 720.1897 720.7486 721.3542 721.7262 721.7585 721.5273 721.26 721.215 721.6139 722.6067 724.2991 726.149 727.8677 729.3359 730.5126 -9999 -9999 -9999 -9999 -9999 -9999 -9999 -9999 -9999 -9999 -9999 -9999 -9999 -9999 -9999 -9999 -9999 -9999 -9999 -9999 -9999 -9999
-9999 -9999 -9999 -9999 -9999 -9999 -9999 -9999 -9999 -9999 -9999 -9999 -9999 -9999 -9999 -9999 -9999 -9999 -9999 -9999 -9999 -9999 -9999 -9999 -9999 -9999 -9999 -9999 -9999 -9999 -9999 733.175 732.8535 731.6418 729.8795 727.9966 726.4473 725.446 724.7192 723.9124 722.9657 721.9203 721.0967 720.5444 720.3547 720.5985 721.3324 721.6972 721.2486 721.2086 721.158 721.2076 721.3459 721.4968 721.6024 721.7686 722.1153 722.8671 723.8864 725.2431 726.7697 728.136 729.3719 730.5311 731.56 732.3207 732.7455 733.1326 733.5837 733.9717 734.4282 735.2808 736.5315 -9999 -9999 737.8427 736.9266 735.7776 734.0972 731.5412 728.2366 724.8927 722.3881 720.8295 720.4711 721.1149 722.1783 723.2031 723.9802 724.5756 725.1794 725.5748 727.2729 729.3618 730.7383 730.8607 730.354 730.4071 731.225 -9999 -9999 -9999 -9999 731.2326 730.2251 729.4633 729.1183 728.9771 728.4639 727.5035 726.257 724.9731 723.868 723.1479 722.8475 722.86 722.8928 722.6381 721.9813 721.1027 720.1279 719.2594 718.662 718.2429 718.058 718.0236 718.0215 718.1006 718.2146 718.3108 718.3698 718.3946 718.3914 718.3728 718.369 718.4136 718.465 718.6413 718.8512 719.1282 719.523 720.0476 720.6423 721.5355 723.0147 725.1801 728.0687 731.0001 732.8621 732.6313 731.5076 -9999 -9999 -9999 -9999 -9999 -9999 -9999 -9999 -9999 -9999 -9999 -9999 -9999 -9999 -9999 -9999 -9999 -9999 -9999 -9999 -9999 -9999 -9999 -9999 -9999 732.9681 730.598 728.5908 727.1973 726.4333 725.9666 725.6582 725.2888 724.814 724.1299 723.7543 723.3334 722.834 722.0179 721.4515 720.9766 720.6741 720.4597 720.3319 720.1165 719.6082 719.0876 718.6614 718.3506 718.0697 717.8306 717.6342 717.4893 717.3679 717.2908 717.1324 716.9149 716.6176 716.2096 715.6579 714.9844 714.2382 713.7896 713.4884 713.2607 713.0714 712.9076 712.7682 712.6554 712.5723 712.5208 712.5011 712.5093 712.535 712.56 712.5585 712.5286 712.4742 712.4003 712.313 712.2183 712.1196 712.0205 711.9265 711.8438 711.7783 711.7397 711.7301 711.7521 711.8119 711.9039 712.0187 712.1532 712.3004 712.4434 712.5596 712.6025 712.6224 712.6249 712.6229 712.6225 712.6228 712.6169 712.5938 712.5599 712.5013 712.4343 712.3646 712.2956 712.233 712.1815 712.1418 712.1117 712.0901 712.0795 712.0822 712.0972 712.1218 712.155 712.2007 712.269 712.3779 712.5515 712.7466 713.1074 713.5262 713.8879 714.0889 714.2972 714.46 714.5899 714.6973 714.7896 714.8713 714.9441 715.0102 715.0726 715.1358 715.2023 715.272 715.3417 715.4081 715.4711 715.5334 715.5996 715.6628 715.7767 715.9091 716.0482 716.1973 716.3654 716.5671 716.8183 717.1157 717.345 717.6227 717.849 717.9687 718.0392 718.1055 718.178 718.2479 718.3047 718.349 718.3962 718.48 718.657 719.0652 719.6315 720.1541 720.3031 720.1851 720.0574 719.8827 719.7196 719.6086 719.5793 719.5995 719.6804 719.8066 719.9827 720.235 720.814 721.3465 721.6449 721.6348 721.4056 721.1671 721.1779 721.6726 722.7992 724.6065 726.6122 728.5061 730.1688 731.6625 -9999 -9999 -9999 -9999 -9999 -9999 -9999 -9999 -9999 -9999 -9999 -9999 -9999 -9999 -9999 -9999 -9999 -9999 -9999 -9999 -9999 -9999
-9999 -9999 -9999 -9999 -9999 -9999 -9999 -9999 -9999 -9999 -9999 -9999 -9999 -9999 -9999 -9999 -9999 -9999 -9999 -9999 -9999 -9999 -9999 -9999 -9999 -9999 -9999 -9999 -9999 -9999 732.3977 732.569 731.7181 730.174 728.316 726.5056 724.9919 723.8801 723.1123 722.4106 721.8472 721.2924 720.7926 720.392 720.2013 720.3649 721.3463 721.4607 721.3079 721.5569 721.4171 721.3903 721.5251 721.7037 721.7686 721.7408 721.764 722.0245 722.7125 723.8458 725.2433 726.5719 727.6464 728.4625 729.0367 729.353 729.569 730.0204 730.787 731.7495 732.8747 734.2245 735.7256 737.0729 737.8027 737.3724 736.4184 735.0697 733.1143 730.3718 727.0786 723.9331 721.8189 720.8715 721.2568 722.4515 723.8424 724.9212 725.5707 725.9284 726.313 727.1225 728.7266 730.5164 731.6119 731.8009 731.2906 -9999 -9999 -9999 -9999 -9999 -9999 -9999 731.3285 730.9193 730.908 731.0973 730.9118 730.3351 729.3704 728.1396 726.8661 725.8686 725.2926 725.1146 725.0367 724.7728 724.1047 723.1266 722.0397 720.9186 719.9656 719.1848 718.752 718.5153 718.3037 718.2976 718.379 718.4545 718.5002 718.5179 718.5138 718.4979 718.5098 718.6344 718.6801 718.9083 719.2178 719.6182 720.1615 720.8051 721.5682 722.5861 724.1956 726.497 729.2574 731.8772 733.5204 733.4252 732.6184 -9999 -9999 -9999 -9999 -9999 -9999 -9999 -9999 -9999 -9999 -9999 -9999 -9999 -9999 -9999 -9999 -9999 -9999 -9999 -9999 -9999 -9999 -9999 -9999 -9999 -9999 -9999 -9999 725.9164 725.3326 725.0385 724.915 724.7292 724.213 723.8091 723.3954 722.9819 722.3701 721.6605 721.077 720.6564 720.4208 720.2007 720.1798 720.0503 719.6986 719.2793 718.9064 718.627 718.3369 718.0975 717.9035 717.7517 717.6254 717.5116 717.3514 717.1343 716.8615 716.4934 715.9973 715.4056 714.6416 714.0989 713.7657 713.5074 713.2777 713.0676 712.882 712.7278 712.6108 712.5336 712.4961 712.4949 712.5219 712.56 712.5663 712.5442 712.4966 712.425 712.337 712.2402 712.1377 712.0314 711.9274 711.8339 711.7571 711.7076 711.6931 711.7114 711.7651 711.8541 711.9692 712.1022 712.2451 712.3835 712.4962 712.5602 712.6067 712.6155 712.6156 712.6154 712.6147 712.6052 712.5601 712.5135 712.4517 712.3817 712.3096 712.2399 712.1769 712.1255 712.088 712.0618 712.0446 712.036 712.0377 712.0497 712.07 712.0985 712.1388 712.1989 712.2888 712.4152 712.5781 712.9624 713.3975 713.791 714.0786 714.2617 714.4124 714.5441 714.6583 714.7582 714.8473 714.9274 715.0006 715.07 715.14 715.2137 715.2898 715.3647 715.4349 715.4991 715.5558 715.6006 715.7047 715.8337 715.9667 716.0968 716.2288 716.3765 716.5605 716.8058 717.1302 717.5248 717.9147 718.1736 718.2101 718.1925 718.1976 718.2352 718.291 718.3486 718.4028 718.4609 718.5392 718.6645 719.0554 719.543 719.9755 720.1736 720.0898 719.9514 719.7888 719.6452 719.5565 719.5505 719.6177 719.7297 719.9081 720.1602 720.4565 720.9377 721.3798 721.5895 721.5182 721.2639 721.046 721.1331 721.767 723.1064 725.1537 727.3604 729.3603 731.0433 732.5822 -9999 -9999 -9999 -9999 -9999 -9999 -9999 -9999 -9999 -9999 -9999 -9999 -9999 -9999 -9999 -9999 -9999 -9999 -9999 -9999 -9999 -9999
-9999 -9999 -9999 -9999 -9999 -9999 -9999 -9999 -9999 -9999 -9999 -9999 -9999 -9999 -9999 -9999 -9999 -9999 -9999 -9999 -9999 -9999 -9999 -9999 -9999 -9999 -9999 -9999 -9999 731.7592 731.8671 731.481 730.2149 728.4819 726.6539 724.9828 723.6331 722.6247 722.0147 721.7501 721.4231 721.0906 720.7941 720.5295 720.4385 720.7214 721.2943 721.519 721.9146 722.0314 721.8777 721.7479 721.8759 722.1793 722.2404 722.0441 721.8004 721.7242 721.9556 722.5096 723.5433 724.5856 725.4202 725.9564 726.1641 726.1879 726.2314 726.6554 727.5905 728.9307 730.6152 732.5273 734.3948 735.9719 736.9057 736.6644 735.5504 733.829 731.5244 728.66 725.625 722.9934 721.4124 721.1341 722.399 724.2227 726.0715 727.3743 728.0064 728.1755 728.2512 728.697 729.751 731.0076 731.9167 732.1339 -9999 -9999 -9999 -9999 -9999 -9999 -9999 -9999 -9999 732.4958 732.5386 732.6661 732.5146 732.3719 731.8839 730.8887 729.5955 728.3596 727.4178 726.8199 726.4011 726.0742 725.535 724.7335 723.9347 722.9372 721.8529 720.7434 719.9024 719.1491 718.7336 718.6341 718.6403 718.6474 718.6491 718.6494 718.6491 718.6473 718.666 718.9058 719.1592 719.4646 719.9267 720.5089 721.2728 722.1269 723.1565 724.3872 726.1177 728.2291 730.4891 732.5273 733.8233 734.0142 -9999 -9999 -9999 -9999 -9999 -9999 -9999 -9999 -9999 -9999 -9999 -9999 -9999 -9999 -9999 -9999 -9999 -9999 -9999 -9999 -9999 -9999 -9999 -9999 -9999 -9999 -9999 -9999 -9999 -9999 -9999 -9999 -9999 724.0233 724.0013 723.7893 723.2491 722.7626 721.941 721.1757 720.5791 720.2213 720.1617 720.0325 719.9851 719.877 719.6308 719.3043 718.9686 718.6651 718.4849 718.3088 718.147 718.0116 717.8893 717.7651 717.6115 717.4083 717.1396 716.7842 716.2577 715.5862 714.9117 714.4051 714.0704 713.7866 713.5118 713.2469 713.0068 712.8048 712.6496 712.5436 712.485 712.4694 712.4886 712.5277 712.56 712.5586 712.5286 712.4663 712.3823 712.2903 712.1908 712.0806 711.9684 711.8638 711.7746 711.7117 711.6877 711.7018 711.7476 711.825 711.9301 712.0535 712.1851 712.312 712.4198 712.4995 712.5595 712.5601 712.5599 712.5599 712.56 712.5593 712.4991 712.4365 712.3699 712.2992 712.2283 712.1619 712.1036 712.0582 712.028 712.0114 712.0042 712.0035 712.0095 712.022 712.0409 712.0668 712.1034 712.1575 712.239 712.362 712.5588 712.9032 713.3202 713.7295 714.0665 714.2068 714.3497 714.4874 714.6104 714.7183 714.8149 714.9026 714.9836 715.0612 715.1392 715.2205 715.3033 715.3835 715.4578 715.5278 715.5997 715.6567 715.7628 715.8942 716.0246 716.1456 716.2626 716.3926 716.5598 716.7983 717.153 717.7453 718.2945 718.612 718.4836 718.3452 718.2814 718.2847 718.3282 718.3892 718.4569 718.5377 718.6478 718.7594 719.0404 719.406 719.7377 719.9214 719.9191 719.8312 719.7076 719.5957 719.5393 719.5566 719.6668 719.8083 719.9906 720.2037 720.5869 721.0075 721.3419 721.4623 721.3399 721.0903 720.9317 721.1302 721.9319 723.513 725.835 728.2375 730.226 731.6978 -9999 -9999 -9999 -9999 -9999 -9999 -9999 -9999 -9999 -9999 -9999 -9999 -9999 -9999 -9999 -9999 -9999 -9999 -9999 -9999 -9999 -9999 -9999
-9999 -9999 -9999 -9999 -9999 -9999 -9999 -9999 -9999 -9999 -9999 -9999 -9999 -9999 -9999 -9999 -9999 -9999 -9999 -9999 -9999 -9999 -9999 -9999 -9999 -9999 -9999 732.0006 731.9235 731.6034 731.2081 730.1109 728.5263 726.8497 725.2878 724.0076 723.3937 722.848 722.3669 721.9448 721.5149 721.2087 720.9399 720.7928 720.8799 721.3104 722.0862 722.8596 723.5428 723.659 723.1887 722.5355 722.424 722.8542 722.8068 722.4053 721.9568 721.6747 721.6137 721.7709 722.1705 722.7844 723.2998 723.5688 723.5967 723.5251 723.4619 723.7855 724.7031 726.2076 728.3682 730.879 733.2369 735.0729 736.0664 735.8038 734.3474 732.1561 729.4882 726.6262 724.0681 722.177 721.4653 722.2446 724.0301 726.2419 728.3017 729.705 730.306 730.2875 729.9532 729.8831 730.2383 731.0399 731.6683 731.9064 -9999 -9999 -9999 -9999 -9999 -9999 -9999 -9999 -9999 -9999 733.931 733.9498 733.9601 734.0468 733.9333 733.1513 731.843 730.4063 729.1211 728.1129 727.3727 726.932 726.307 725.6036 725.4346 724.85 723.8499 722.6183 721.4758 720.4065 719.5993 719.1374 718.9005 718.7705 718.702 718.6805 718.7064 718.7968 719.0007 719.4028 719.8965 720.3538 721.1205 722.057 723.0782 724.2125 725.5165 726.9751 728.5792 730.1996 731.7545 733.0925 734.0392 -9999 -9999 -9999 -9999 -9999 -9999 -9999 -9999 -9999 -9999 -9999 -9999 -9999 -9999 -9999 -9999 -9999 -9999 -9999 -9999 -9999 -9999 -9999 -9999 -9999 -9999 -9999 -9999 -9999 -9999 -9999 -9999 -9999 -9999 724.1666 724.5337 724.5795 724.0732 723.2599 722.0859 720.9227 720.2194 719.9324 719.8773 719.8277 719.7858 719.6956 719.5191 719.278 719.0203 718.7938 718.6481 718.4996 718.3623 718.2533 718.1427 718.0218 717.8806 717.7021 717.4606 717.108 716.5215 715.6983 715.0912 714.6412 714.3277 714.069 713.7695 713.4535 713.1561 712.9015 712.7035 712.5651 712.4821 712.4471 712.4519 712.4847 712.5278 712.56 712.56 712.5157 712.4409 712.3645 712.2797 712.1686 712.0529 711.9404 711.8358 711.7589 711.7234 711.7312 711.7693 711.83 711.915 712.02 712.1336 712.2428 712.3353 712.4039 712.4467 712.4508 712.4456 712.4394 712.4336 712.4222 712.3794 712.3251 712.2639 712.1975 712.1307 712.0702 712.0208 711.9861 711.9686 711.9667 711.975 711.9882 712.0032 712.0203 712.0405 712.0666 712.1033 712.1578 712.2387 712.3608 712.5576 712.8769 713.2628 713.6379 713.9318 714.0853 714.2686 714.4257 714.5583 714.6731 714.7758 714.8704 714.9594 715.0459 715.1332 715.2233 715.3138 715.3989 715.4733 715.5372 715.6 715.6899 715.8144 715.954 716.0862 716.2035 716.3143 716.441 716.6165 716.8861 717.3013 718.1012 718.8082 719.1612 718.7789 718.4976 718.361 718.329 718.3598 718.4211 718.4932 718.5681 718.6502 718.7751 718.9896 719.2576 719.51 719.6774 719.7324 719.7096 719.6463 719.583 719.5664 719.6296 719.7626 719.9695 720.1787 720.4163 720.7036 721.0186 721.2292 721.2571 721.1093 720.9063 720.8661 721.2455 722.2784 724.194 726.7204 729.1658 730.9772 732.1559 -9999 -9999 -9999 -9999 -9999 -9999 -9999 -9999 -9999 -9999 -9999 -9999 -9999 -9999 -9999 -9999 -9999 -9999 -9999 -9999 -9999 -9999 -9999
-9999 -9999 -9999 -9999 -9999 -9999 -9999 -9999 -9999 -9999 -9999 -9999 -9999 -9999 -9999 -9999 -9999 -9999 -9999 -9999 -9999 -9999 -9999 -9999 -9999 -9999 -9999 731.0627 731.0927 730.8113 729.9002 728.4446 726.9114 725.7761 725.0047 724.2808 723.6411 722.9897 722.4461 722.0073 721.698 721.5742 721.5375 721.3871 721.6993 722.6027 723.8228 724.9576 725.7668 725.8958 725.1982 724.0047 723.1362 723.4954 722.8376 722.2501 721.9016 721.6639 721.558 721.5732 721.6992 721.9418 722.1199 722.0551 722.0338 721.968 721.8664 722.0886 722.8714 724.3746 726.9928 730.079 732.8811 734.7969 735.591 734.8701 732.8458 730.1514 727.2584 724.6818 722.774 721.7664 722.1664 723.5793 725.5996 727.8561 729.8712 731.1138 731.6698 731.6089 731.033 730.5227 730.3329 730.9305 731.2107 -9999 -9999 -9999 -9999 -9999 -9999 -9999 -9999 -9999 -9999 -9999 -9999 -9999 735.0887 735.4074 735.6272 735.0198 733.671 732.0908 730.6041 729.3438 728.4096 727.8129 727.1124 726.6121 726.6374 726.3608 725.6058 724.5404 723.3265 722.0432 720.7829 719.9153 719.3893 719.0698 718.8953 718.8331 718.881 719.0726 719.4612 720.058 720.7512 721.5916 722.819 724.2157 725.5719 726.9688 728.4741 729.9665 731.2328 732.2606 733.1417 733.954 -9999 -9999 -9999 -9999 -9999 -9999 -9999 -9999 -9999 -9999 -9999 -9999 -9999 -9999 -9999 -9999 -9999 -9999 -9999 -9999 -9999 -9999 -9999 -9999 -9999 -9999 -9999 -9999 -9999 -9999 -9999 -9999 -9999 -9999 -9999 725.1805 725.7733 726.0019 725.3461 724.0527 722.3762 720.7933 720.0737 719.7916 719.7094 719.6685 719.6238 719.5446 719.4148 719.2433 719.0576 718.8916 718.7659 718.649 718.5335 718.4669 718.367 718.2511 718.1212 717.9627 717.7427 717.4048 716.8581 715.8998 715.2958 714.8614 714.5738 714.3484 714.0774 713.7262 713.3708 713.0558 712.8057 712.6273 712.5142 712.4547 712.4395 712.4592 712.4996 712.5417 712.5657 712.5598 712.5009 712.4559 712.4037 712.2905 712.1804 712.0713 711.9466 711.8539 711.8113 711.8132 711.8419 711.8811 711.9388 712.0177 712.1075 712.1935 712.2635 712.3104 712.3319 712.3275 712.3126 712.2971 712.2841 712.27 712.2437 712.2064 712.1566 712.0962 712.0343 711.9808 711.942 711.921 711.9197 711.9362 711.9642 711.9957 712.0241 712.049 712.0732 712.1023 712.1429 712.205 712.2928 712.4099 712.5701 712.8893 713.2511 713.5961 713.8783 714.0787 714.2399 714.3834 714.5115 714.6263 714.732 714.832 714.9287 715.0245 715.1224 715.223 715.323 715.4156 715.4934 715.5533 715.6006 715.7202 715.8667 716.0179 716.1566 716.2766 716.3901 716.5258 716.7341 717.0991 717.6969 718.627 719.5669 719.9733 719.3097 718.7002 718.4512 718.373 718.3877 718.4484 718.5253 718.598 718.6505 718.7665 718.9347 719.1356 719.332 719.4861 719.5758 719.6096 719.6089 719.6071 719.6443 719.7551 719.9464 720.1834 720.4409 720.6305 720.8367 720.9856 721.0588 721.0131 720.8778 720.7889 720.953 721.6293 723.0564 725.3279 727.9493 730.2722 731.8342 732.6046 -9999 -9999 -9999 -9999 -9999 -9999 -9999 -9999 -9999 -9999 -9999 -9999 -9999 -9999 -9999 -9999 -9999 -9999 -9999 -9999 -9999 -9999 -9999
-9999 -9999 -9999 -9999 -9999 -9999 -9999 -9999 -9999 -9999 -9999 -9999 -9999 -9999 -9999 -9999 -9999 -9999 -9999 -9999 -9999 -9999 -9999 -9999 -9999 -9999 729.9664 730.0482 729.9368 729.3772 728.1815 726.7193 725.645 725.9325 725.2954 724.5786 723.8221 723.0535 722.4656 722.0636 721.8771 721.9555 722.2072 722.1936 723.0178 724.4757 726.0189 727.1972 727.9022 728.0187 727.324 725.8746 724.3025 723.1884 722.4039 721.8253 721.6041 721.593 721.6417 721.7068 721.7896 721.9311 722.0753 722.1342 722.1467 721.8144 721.4922 721.5099 722.2083 723.9547 727.1119 730.6108 733.5076 734.7704 735.1378 733.6599 731.0209 727.977 725.1892 723.0815 722.0257 722.038 722.9962 724.4993 726.4006 728.5142 730.4547 731.713 732.3228 732.2224 731.6839 731.0318 730.6249 -9999 -9999 -9999 -9999 -9999 -9999 -9999 -9999 -9999 -9999 -9999 -9999 -9999 -9999 -9999 -9999 -9999 737.1359 736.5853 735.1992 733.5455 732.0089 -9999 -9999 -9999 727.957 727.3179 727.3146 727.2776 726.9785 726.3596 725.336 723.9301 722.3527 721.073 720.269 719.731 719.4169 719.2817 719.319 719.5844 720.1466 720.9574 721.9946 723.3247 725.0132 726.7355 728.2861 729.8088 731.3618 732.743 733.6694 734.2467 734.7303 -9999 -9999 -9999 -9999 -9999 -9999 -9999 -9999 -9999 -9999 -9999 -9999 -9999 -9999 -9999 -9999 -9999 -9999 -9999 -9999 -9999 -9999 -9999 -9999 -9999 -9999 -9999 -9999 -9999 -9999 -9999 -9999 -9999 -9999 -9999 -9999 726.307 727.0032 727.3405 726.5852 724.9493 722.8 720.9775 720.1631 719.8092 719.6584 719.5792 719.5144 719.4366 719.3358 719.2156 719.0871 718.9653 718.8573 718.7517 718.6526 718.6467 718.5435 718.4298 718.3091 718.1646 717.95 717.6039 717.0583 716.2332 715.551 715.0836 714.8493 714.7231 714.536 714.1657 713.739 713.3391 713.0128 712.7766 712.623 712.5304 712.4891 712.4907 712.5208 712.5602 712.5884 712.5901 712.5605 712.5601 712.5561 712.4303 712.3484 712.2667 712.1121 712.0029 711.9624 711.9658 711.9825 711.9873 712.011 712.0609 712.1243 712.1848 712.2297 712.2526 712.2526 712.2336 712.2067 712.1814 712.1627 712.1509 712.1389 712.1195 712.082 712.0231 711.9617 711.9142 711.8865 711.8799 711.8951 711.9302 711.9797 712.0322 712.0758 712.1099 712.1399 712.1739 712.2206 712.2984 712.4114 712.5577 712.7297 712.9996 713.3121 713.6166 713.8773 714.0792 714.2206 714.3476 714.4674 714.5792 714.6852 714.7887 714.8925 714.9982 715.1076 715.2204 715.3323 715.4363 715.525 715.5995 715.6595 715.7798 715.9342 716.0942 716.2408 716.3676 716.4863 716.6224 716.8202 717.163 717.8772 718.8501 719.9036 720.0788 719.3875 718.7969 718.503 718.4002 718.4058 718.4684 718.5571 718.6496 718.6936 718.7814 718.9118 719.0682 719.2305 719.3744 719.4843 719.5571 719.6078 719.6669 719.769 719.9418 720.1903 720.4855 720.7203 720.8924 720.9557 720.9641 720.9064 720.8085 720.7356 720.8204 721.2655 722.307 724.2177 726.8036 729.4617 731.5798 732.7736 732.9754 -9999 -9999 -9999 -9999 -9999 -9999 -9999 -9999 -9999 -9999 -9999 -9999 -9999 -9999 -9999 -9999 -9999 -9999 -9999 -9999 -9999 -9999 -9999
-9999 -9999 -9999 -9999 -9999 -9999 -9999 -9999 -9999 -9999 -9999 -9999 -9999 -9999 -9999 -9999 -9999 -9999 -9999 -9999 -9999 -9999 -9999 -9999 -9999 729.4805 729.1658 729.0163 728.614 727.6922 726.3688 725.1396 724.774 725.1053 725.0421 724.5787 723.8632 723.0515 722.4589 722.1555 722.0411 722.1873 722.5947 723.2505 724.7646 726.6204 728.1418 728.9285 729.3223 729.402 728.984 727.7405 726.0139 724.2703 722.8066 721.8644 721.5305 721.6144 721.8173 722.0038 722.1979 722.4058 722.6024 722.6649 722.4589 722.1337 721.7908 721.6824 722.373 724.4922 728.1498 731.8891 734.5677 734.2401 733.9308 731.9551 728.9493 725.9001 723.5143 722.191 721.9902 722.5673 723.6 724.9291 726.593 728.4888 730.3375 731.814 732.7114 -9999 -9999 -9999 -9999 -9999 -9999 -9999 -9999 -9999 -9999 -9999 -9999 -9999 -9999 -9999 -9999 -9999 -9999 -9999 -9999 -9999 -9999 -9999 -9999 -9999 -9999 -9999 -9999 -9999 -9999 728.1977 728.0627 728.1433 728.2191 728.0372 727.225 725.8597 724.2272 722.769 721.7095 720.915 720.4231 720.1597 720.1392 720.4577 721.2167 722.3167 723.773 725.5579 727.4712 729.2211 730.7234 732.1987 733.6537 734.8422 735.5525 735.9625 -9999 -9999 -9999 -9999 -9999 -9999 -9999 -9999 -9999 -9999 -9999 -9999 -9999 -9999 -9999 -9999 -9999 -9999 -9999 -9999 -9999 -9999 -9999 -9999 -9999 -9999 -9999 -9999 -9999 -9999 -9999 -9999 -9999 -9999 -9999 -9999 -9999 727.2585 727.8506 727.9873 727.3504 725.699 723.4045 721.4001 720.4149 719.9259 719.6758 719.537 719.4452 719.3664 719.2856 719.2024 719.1185 719.0352 718.9521 718.8682 718.7914 718.7452 718.6505 718.5513 718.4449 718.3225 718.1104 717.7513 717.1879 716.464 715.6516 715.236 715.1466 715.2379 715.2692 714.9839 714.4109 713.8596 713.4052 713.0785 712.866 712.7236 712.6465 712.626 712.6427 712.6751 712.7026 712.7117 712.7029 712.6951 712.663 712.5677 712.5598 712.5368 712.3329 712.2241 712.1982 712.2089 712.2113 712.1532 712.1355 712.1592 712.199 712.2355 712.2574 712.2598 712.243 712.2122 712.1765 712.1457 712.1251 712.1172 712.1178 712.1137 712.0836 712.0117 711.9413 711.8964 711.8793 711.8857 711.9135 711.9607 712.0291 712.1031 712.1601 712.2013 712.2372 712.2772 712.3248 712.4203 712.5597 712.7266 712.9181 713.1587 713.4262 713.6856 713.9077 714.0791 714.1974 714.3126 714.4258 714.5338 714.6382 714.7434 714.8529 714.9681 715.0895 715.2152 715.3403 715.4557 715.5474 715.6006 715.7039 715.846 716.0136 716.1841 716.3411 716.4785 716.6075 716.7501 716.9336 717.1957 717.8585 718.6801 719.4636 719.7186 718.9803 718.6266 718.4463 718.3857 718.4049 718.4716 718.5602 718.65 718.7195 718.8126 718.9325 719.0712 719.2178 719.3599 719.4817 719.5778 719.6611 719.7739 719.9451 720.1929 720.5209 720.8284 721.0358 721.1036 721.0774 720.9753 720.8473 720.7556 720.8013 721.1243 721.9027 723.3739 725.6618 728.4336 731.0499 732.923 733.7496 -9999 -9999 -9999 -9999 -9999 -9999 -9999 -9999 -9999 -9999 -9999 -9999 -9999 -9999 -9999 -9999 -9999 -9999 -9999 -9999 -9999 -9999 -9999 -9999
-9999 -9999 -9999 -9999 -9999 -9999 -9999 -9999 -9999 -9999 -9999 -9999 -9999 -9999 -9999 -9999 -9999 -9999 -9999 -9999 -9999 -9999 -9999 -9999 729.5649 728.9355 728.5054 728.027 727.1938 725.9056 724.6077 723.9164 723.9172 724.2073 724.3998 724.249 723.6737 722.9576 722.4386 722.3285 722.3197 722.5116 723.1327 724.5314 726.672 728.684 729.821 729.7635 729.9425 729.9911 729.7996 729.1226 727.7701 726.0309 724.2737 722.8331 721.9892 721.8805 722.1204 722.422 722.7376 723.0527 723.265 723.0521 722.8634 722.7341 722.5414 722.3461 722.9828 725.4498 729.3585 733.1683 735.5247 733.006 732.4267 730.1143 726.9846 724.1544 722.4975 721.8735 722.0945 722.8536 723.978 725.2081 726.6736 728.4127 730.2039 -9999 -9999 -9999 -9999 -9999 -9999 -9999 -9999 -9999 -9999 -9999 -9999 -9999 -9999 -9999 -9999 -9999 -9999 -9999 -9999 -9999 -9999 -9999 -9999 -9999 -9999 -9999 -9999 -9999 -9999 -9999 -9999 -9999 -9999 729.2429 729.5248 729.5291 728.8232 727.6039 726.1368 724.7414 723.6347 722.7848 722.063 721.518 721.3842 721.8497 722.8037 724.2546 726.0673 728.0641 729.9116 731.3966 732.6479 733.9128 735.1428 736.1161 736.8113 -9999 -9999 -9999 -9999 -9999 -9999 -9999 -9999 -9999 -9999 -9999 -9999 -9999 -9999 -9999 -9999 -9999 -9999 -9999 -9999 -9999 -9999 -9999 -9999 -9999 -9999 -9999 -9999 -9999 -9999 -9999 -9999 -9999 -9999 -9999 -9999 -9999 -9999 727.9611 728.167 728.1238 727.5071 726.0641 723.8074 721.819 720.6516 720.0255 719.6891 719.5031 719.3947 719.3217 719.2621 719.2076 719.1584 719.1091 719.0528 718.9875 718.9183 718.8484 718.7532 718.6501 718.5518 718.4738 718.281 717.9446 717.436 716.7615 715.7522 715.3654 715.4501 715.861 716.2134 716.1276 715.5725 714.7455 714.0751 713.6107 713.3179 713.0929 712.9639 712.9171 712.9177 712.9406 712.9645 712.9781 712.9811 712.9717 712.9413 712.8899 712.8666 712.8027 712.6238 712.5799 712.5729 712.564 712.5351 712.3671 712.3135 712.321 712.3425 712.3594 712.365 712.3572 712.3365 712.3077 712.2777 712.2545 712.2394 712.236 712.2434 712.2484 712.2158 712.0988 712.0069 711.9627 711.9551 711.9705 711.9999 712.0402 712.1182 712.2137 712.2756 712.316 712.3553 712.4069 712.442 712.5599 712.7283 712.9193 713.1226 713.3435 713.5749 713.7925 713.9672 714.0807 714.1804 714.2892 714.3952 714.4966 714.5963 714.7003 714.8135 714.9371 715.0697 715.2079 715.3468 715.4799 715.5992 715.6653 715.7745 715.928 716.1072 716.2886 716.4554 716.6038 716.7445 716.9043 717.1158 717.3361 717.7874 718.3204 718.7242 718.8273 718.6127 718.4556 718.3738 718.3594 718.3981 718.4714 718.5598 718.6497 718.7526 718.8737 719.006 719.1472 719.2955 719.4431 719.5779 719.6877 719.7839 719.9433 720.1897 720.53 720.8882 721.1733 721.3209 721.3192 721.2019 721.0399 720.9095 720.9047 721.1516 721.7903 722.9531 724.7621 727.1887 729.9509 732.4553 734.1329 734.7437 -9999 -9999 -9999 -9999 -9999 -9999 -9999 -9999 -9999 -9999 -9999 -9999 -9999 -9999 -9999 -9999 -9999 -9999 -9999 -9999 -9999 -9999 -9999 -9999
-9999 -9999 -9999 -9999 -9999 -9999 -9999 -9999 -9999 -9999 -9999 -9999 -9999 -9999 -9999 -9999 -9999 -9999 -9999 -9999 -9999 -9999 -9999 -9999 728.8653 728.217 727.7374 726.9763 725.7039 724.1901 723.0425 722.8499 723.0842 723.3924 723.6969 723.7505 723.353 722.7887 722.4695 722.5875 722.7327 722.9731 723.7247 725.8651 728.4611 730.5248 731.3276 730.815 -9999 730.0007 730.0046 729.7509 729.0885 727.8058 726.1747 724.5175 723.2164 722.5964 722.6841 723.011 723.3884 723.7484 723.775 723.4973 723.4309 723.5903 723.7051 723.4651 724.079 726.619 730.2968 733.3234 733.3648 733.7321 731.6707 728.5831 725.4922 723.0634 722.1665 722.2122 722.8173 723.7772 724.8553 725.9865 727.3307 -9999 -9999 -9999 -9999 -9999 -9999 -9999 -9999 -9999 -9999 -9999 -9999 -9999 -9999 -9999 -9999 -9999 -9999 -9999 -9999 -9999 -9999 -9999 -9999 -9999 -9999 -9999 -9999 -9999 -9999 -9999 -9999 -9999 -9999 -9999 -9999 -9999 730.7919 730.7901 730.1519 729.069 727.8445 726.7201 725.822 724.9678 724.043 723.1971 722.9528 723.5069 724.7875 726.512 728.5094 730.4777 732.0436 733.1371 734.0917 -9999 -9999 -9999 -9999 -9999 -9999 -9999 -9999 -9999 -9999 -9999 -9999 -9999 -9999 -9999 -9999 -9999 -9999 -9999 -9999 -9999 -9999 -9999 -9999 -9999 -9999 -9999 -9999 -9999 -9999 -9999 -9999 -9999 -9999 -9999 -9999 -9999 -9999 -9999 -9999 -9999 -9999 -9999 728.191 728.0314 727.4696 726.2043 724.0294 721.9471 720.7043 720.0274 719.661 719.4603 719.3533 719.2954 719.2598 719.2327 719.2099 719.188 719.1561 719.1075 719.0438 718.9663 718.8692 718.7603 718.6552 718.645 718.464 718.1425 717.6384 716.9157 715.8835 715.4869 715.6908 716.5748 716.9813 717.1761 716.9706 716.1085 715.0997 714.4572 714.0651 713.6991 713.5002 713.4211 713.3945 713.3995 713.4156 713.4363 713.4625 713.4681 713.4532 713.4309 713.4175 713.3859 713.3146 713.2762 713.2002 713.0472 712.862 712.6043 712.5585 712.558 712.5594 712.5599 712.5602 712.5607 712.5618 712.5655 712.5757 712.5924 712.5967 712.5974 712.5997 712.5915 712.5317 712.3135 712.1995 712.1639 712.1649 712.1806 712.1907 712.1796 712.2469 712.3673 712.4153 712.4404 712.4746 712.5568 712.565 712.7212 712.9236 713.1356 713.3418 713.5422 713.7453 713.9333 714.0789 714.1583 714.228 714.3055 714.3909 714.4774 714.5665 714.665 714.7787 714.9087 715.051 715.1993 715.3453 715.4802 715.6 715.7081 715.8456 716.0192 716.2139 716.4073 716.5817 716.7331 716.868 716.9982 717.137 717.3792 717.7128 718.0626 718.3231 718.4213 718.3851 718.3397 718.3217 718.3406 718.3967 718.4821 718.5769 718.6524 718.812 718.9784 719.1377 719.2922 719.449 719.6085 719.7607 719.889 719.9745 720.1865 720.5182 720.9044 721.2546 721.4907 721.5731 721.5179 721.3824 721.2437 721.1926 721.3439 721.8541 722.8627 724.3691 726.3052 728.6387 731.1924 733.4432 734.7792 -9999 -9999 -9999 -9999 -9999 -9999 -9999 -9999 -9999 -9999 -9999 -9999 -9999 -9999 -9999 -9999 -9999 -9999 -9999 -9999 -9999 -9999 -9999 -9999 -9999
