ncols         190
nrows         66
xllcorner     732200
yllcorner     6069450
cellsize      50
NODATA_value  -9999
-9999 -9999 -9999 -9999 -9999 -9999 -9999 -9999 -9999 -9999 -9999 -9999 -9999 -9999 -9999 -9999 -9999 -9999 -9999 -9999 -9999 -9999 -9999 -9999 -9999 -9999 -9999 -9999 -9999 -9999 -9999 -9999 -9999 -9999 -9999 -9999 -9999 -9999 -9999 -9999 -9999 -9999 -9999 -9999 -9999 -9999 -9999 -9999 -9999 -9999 -9999 -9999 -9999 -9999 631.071 631.5663 631.6149 631.5911 632.0343 633.1101 634.3843 635.4582 636.1408 636.4877 636.5615 636.2952 635.5078 634.2149 632.7196 631.3585 630.3326 629.8079 629.7463 630.1481 631.1036 632.5657 634.2013 635.7647 637.2891 638.8812 640.7551 642.8328 644.8588 646.4032 647.2785 647.6655 647.7623 647.759 647.8556 648.1337 648.2701 647.7636 646.2617 644.0753 641.9387 640.5526 640.0134 640.0926 640.6351 641.4452 642.2308 642.699 642.5601 641.5463 639.9567 638.3353 637.1463 636.2632 635.6152 -9999 -9999 -9999 -9999 -9999 -9999 -9999 -9999 -9999 -9999 -9999 -9999 -9999 -9999 -9999 -9999 -9999 -9999 -9999 -9999 -9999 -9999 -9999 -9999 -9999 -9999 -9999 -9999 -9999 -9999 -9999 -9999 -9999 -9999 -9999 -9999 -9999 -9999 -9999 -9999 -9999 -9999 -9999 -9999 -9999 -9999 -9999 -9999 -9999 -9999 -9999 -9999 -9999 -9999 -9999 -9999 -9999 -9999 -9999 -9999 -9999 -9999 -9999 -9999 -9999 -9999 -9999 -9999 -9999 -9999 -9999 -9999 -9999 -9999 -9999 -9999 -9999 -9999 -9999 -9999 -9999
-9999 -9999 -9999 -9999 -9999 -9999 -9999 -9999 -9999 -9999 -9999 -9999 -9999 -9999 -9999 -9999 -9999 -9999 -9999 -9999 -9999 -9999 -9999 -9999 -9999 -9999 -9999 -9999 -9999 -9999 -9999 -9999 -9999 -9999 -9999 -9999 -9999 -9999 -9999 -9999 -9999 -9999 -9999 -9999 -9999 -9999 -9999 -9999 -9999 -9999 -9999 -9999 -9999 627.6008 628.2422 628.2104 627.7608 627.3532 627.4194 628.0229 628.8583 629.6077 630.1821 630.585 630.7288 630.5239 629.8035 628.5482 627.0878 625.794 624.7523 624.156 624.0154 624.3292 625.167 626.4886 628.1229 629.8513 631.7634 633.7691 636.0044 638.3597 640.6115 642.3527 643.3855 643.8246 643.7645 643.5204 643.3099 643.2357 643.0085 642.1718 640.5352 638.3978 636.3502 635.0604 634.6254 634.8241 635.5682 636.5649 637.4178 637.9605 637.9741 637.2335 636.0375 634.8256 634.0536 633.5343 633.0284 633.0433 633.6881 -9999 -9999 -9999 -9999 -9999 -9999 -9999 -9999 -9999 -9999 -9999 -9999 -9999 -9999 -9999 -9999 -9999 -9999 -9999 -9999 -9999 -9999 -9999 -9999 -9999 -9999 -9999 -9999 -9999 -9999 -9999 -9999 -9999 -9999 -9999 -9999 -9999 -9999 -9999 -9999 -9999 -9999 -9999 -9999 -9999 -9999 -9999 -9999 -9999 -9999 -9999 -9999 -9999 -9999 -9999 -9999 -9999 -9999 -9999 -9999 -9999 -9999 -9999 -9999 -9999 -9999 -9999 -9999 -9999 -9999 -9999 -9999 -9999 -9999 -9999 -9999 -9999 -9999 -9999
-9999 -9999 -9999 -9999 -9999 -9999 -9999 -9999 -9999 -9999 -9999 -9999 -9999 -9999 -9999 -9999 -9999 -9999 -9999 -9999 -9999 -9999 -9999 -9999 -9999 -9999 -9999 -9999 -9999 -9999 -9999 -9999 -9999 -9999 -9999 -9999 -9999 -9999 -9999 -9999 -9999 -9999 -9999 -9999 -9999 -9999 -9999 -9999 -9999 -9999 -9999 -9999 625.3883 625.6382 625.5306 625.0381 624.3909 623.754 623.4684 623.4995 623.7778 624.0399 624.3885 624.7763 624.9574 624.8544 624.2995 623.269 622.1521 621.2645 620.6081 620.1362 620.0495 620.4526 621.1057 621.9653 622.9673 624.3682 626.2719 628.4478 630.9036 633.3902 635.659 637.4146 638.4962 638.9323 638.7377 638.2689 637.7787 637.3641 636.8289 635.8472 634.3815 632.6329 630.8754 629.7219 629.3138 629.519 630.3406 631.3876 632.1522 632.6127 632.716 632.2873 631.6423 631.0864 630.9717 631.0952 631.1141 631.3169 631.7626 632.1628 632.9695 -9999 -9999 -9999 -9999 -9999 -9999 -9999 -9999 -9999 -9999 -9999 -9999 -9999 -9999 -9999 -9999 -9999 -9999 -9999 -9999 -9999 -9999 -9999 -9999 -9999 -9999 -9999 -9999 -9999 -9999 -9999 -9999 -9999 -9999 -9999 -9999 -9999 -9999 -9999 -9999 -9999 -9999 -9999 -9999 -9999 -9999 -9999 -9999 -9999 -9999 -9999 -9999 -9999 -9999 -9999 -9999 -9999 -9999 -9999 -9999 -9999 -9999 -9999 -9999 -9999 -9999 -9999 -9999 -9999 -9999 -9999 -9999 -9999 -9999 -9999 -9999 -9999
-9999 -9999 -9999 -9999 -9999 -9999 -9999 -9999 -9999 -9999 -9999 -9999 -9999 -9999 -9999 -9999 -9999 -9999 -9999 -9999 -9999 -9999 -9999 -9999 -9999 -9999 -9999 -9999 -9999 -9999 -9999 -9999 -9999 -9999 -9999 -9999 -9999 -9999 -9999 -9999 -9999 -9999 -9999 -9999 -9999 -9999 -9999 -9999 -9999 -9999 -9999 624.7915 624.3138 623.7706 623.0548 622.3886 621.8356 621.0949 620.5622 620.2544 620.2443 620.1722 620.2184 620.3549 620.447 620.4573 620.2731 619.7347 619.2374 618.9894 618.888 618.4788 618.2799 618.4205 618.748 619.1754 619.6962 620.4987 621.7113 623.5679 625.9703 628.4166 630.5289 632.119 633.0493 633.3201 632.9961 632.397 631.7231 631.0432 630.3101 629.3903 628.5437 627.5056 626.1871 625.1943 624.7523 624.8569 625.436 626.3802 626.8795 627.1462 627.2503 627.0704 626.9454 627.0675 627.6747 628.4383 629.1346 629.6447 630.0527 630.4459 631.2364 632.2474 -9999 -9999 -9999 -9999 -9999 -9999 -9999 -9999 -9999 -9999 -9999 -9999 -9999 -9999 -9999 -9999 -9999 -9999 -9999 -9999 -9999 -9999 -9999 -9999 -9999 -9999 -9999 -9999 -9999 -9999 -9999 -9999 -9999 -9999 -9999 -9999 -9999 -9999 -9999 -9999 -9999 -9999 -9999 -9999 -9999 -9999 -9999 -9999 -9999 -9999 -9999 -9999 -9999 -9999 -9999 -9999 -9999 -9999 -9999 -9999 -9999 -9999 -9999 -9999 -9999 -9999 -9999 -9999 -9999 -9999 -9999 -9999 -9999 -9999 -9999 -9999
-9999 -9999 -9999 -9999 -9999 -9999 -9999 -9999 -9999 -9999 -9999 -9999 -9999 -9999 -9999 -9999 -9999 -9999 -9999 -9999 -9999 -9999 -9999 -9999 -9999 -9999 -9999 -9999 -9999 -9999 -9999 -9999 -9999 -9999 -9999 -9999 -9999 -9999 -9999 -9999 -9999 -9999 -9999 -9999 -9999 -9999 -9999 -9999 -9999 -9999 624.6525 623.777 623.1843 622.0618 621.1009 620.6515 620.2463 619.4077 618.7468 618.5223 619.1467 618.793 618.4499 618.228 618.0826 618.0151 617.8933 617.6284 617.5643 617.785 618.0643 617.8003 617.5697 617.5291 617.6088 617.7136 617.8388 618.1266 618.7632 619.9777 621.9791 624.2681 626.1937 627.5865 628.2084 627.9749 627.4731 626.9255 626.2052 625.4421 624.6646 623.9893 623.561 623.1729 622.156 621.3596 620.9716 621.0507 621.5697 622.3464 622.4208 622.4549 622.5107 622.5001 622.5752 623.1437 624.2889 625.4565 626.6668 627.6734 628.5287 629.2526 630.1191 631.2666 632.7168 -9999 -9999 -9999 -9999 -9999 -9999 -9999 -9999 -9999 -9999 -9999 -9999 -9999 -9999 -9999 -9999 -9999 -9999 -9999 -9999 -9999 -9999 -9999 -9999 -9999 -9999 -9999 -9999 -9999 -9999 -9999 -9999 -9999 -9999 -9999 -9999 -9999 -9999 -9999 -9999 -9999 -9999 -9999 -9999 -9999 -9999 -9999 -9999 -9999 -9999 -9999 -9999 -9999 -9999 -9999 -9999 -9999 -9999 -9999 -9999 -9999 -9999 -9999 -9999 -9999 -9999 -9999 -9999 -9999 -9999 -9999 -9999 -9999 -9999 -9999
-9999 -9999 -9999 -9999 -9999 -9999 -9999 -9999 -9999 -9999 -9999 -9999 -9999 -9999 -9999 -9999 -9999 -9999 -9999 -9999 -9999 -9999 -9999 -9999 -9999 -9999 -9999 -9999 -9999 -9999 -9999 -9999 -9999 -9999 -9999 -9999 -9999 -9999 -9999 -9999 -9999 -9999 -9999 -9999 -9999 -9999 -9999 -9999 -9999 -9999 623.4901 622.5477 621.9349 620.77 620.08 620.6347 619.5995 618.5186 617.8996 618.0015 618.4753 618.1379 617.6974 617.2981 616.9443 616.7411 616.6296 616.4976 616.5939 616.9645 617.3047 617.2789 617.1733 617.1323 617.132 617.0861 616.9716 616.9025 617.0958 617.7744 619.0853 620.9659 622.8517 624.256 624.8361 624.4624 623.6466 622.7528 621.877 621.1269 620.3615 619.8135 619.5083 619.2582 618.7374 618.2766 618.0205 618.0484 618.3447 618.7074 618.7704 618.8654 619.0602 619.2427 619.4071 620.1078 621.2219 622.4649 623.9199 625.4334 626.95 628.1251 629.1846 630.3071 631.5704 632.704 634.5025 -9999 -9999 -9999 -9999 -9999 -9999 -9999 -9999 -9999 -9999 -9999 -9999 -9999 -9999 -9999 -9999 -9999 -9999 -9999 -9999 -9999 -9999 -9999 -9999 -9999 -9999 -9999 -9999 -9999 -9999 -9999 -9999 -9999 -9999 -9999 -9999 -9999 -9999 -9999 -9999 -9999 -9999 -9999 -9999 -9999 -9999 -9999 -9999 -9999 -9999 -9999 -9999 -9999 -9999 -9999 -9999 -9999 -9999 -9999 -9999 -9999 -9999 -9999 -9999 -9999 -9999 -9999 -9999 -9999 -9999 -9999 -9999 -9999
-9999 -9999 -9999 -9999 -9999 -9999 -9999 -9999 -9999 -9999 -9999 -9999 -9999 -9999 -9999 -9999 -9999 -9999 -9999 -9999 -9999 -9999 -9999 -9999 -9999 -9999 -9999 -9999 -9999 -9999 -9999 -9999 -9999 -9999 -9999 -9999 -9999 -9999 -9999 -9999 -9999 -9999 -9999 -9999 -9999 -9999 -9999 -9999 -9999 624.7757 623.0673 623.0139 621.9862 620.6616 620.6432 619.9332 618.7791 617.8914 617.5041 617.6511 617.716 617.5037 617.1639 616.791 616.3531 616.0569 615.9401 615.9093 616.0103 616.3406 616.5758 616.6826 616.7425 616.823 616.8982 616.8672 616.6805 616.4367 616.3497 616.6447 617.4695 618.8301 620.6461 622.2022 622.869 622.2728 621.103 619.9336 619.0571 618.6182 618.1582 617.6806 617.3365 617.0571 616.7068 616.3694 616.1404 616.132 616.3062 616.4893 616.6439 616.9973 617.5408 617.9875 617.9198 618.2389 619.1771 620.4167 621.8279 623.1716 625.0021 626.7402 628.1305 629.4996 630.7798 632.1741 634.0381 636.0625 -9999 -9999 -9999 -9999 -9999 -9999 -9999 -9999 -9999 -9999 -9999 -9999 -9999 -9999 -9999 -9999 -9999 -9999 -9999 -9999 -9999 -9999 -9999 -9999 -9999 -9999 -9999 -9999 -9999 -9999 -9999 -9999 -9999 -9999 -9999 -9999 -9999 -9999 -9999 -9999 -9999 -9999 -9999 -9999 -9999 -9999 -9999 -9999 -9999 -9999 -9999 -9999 -9999 -9999 -9999 -9999 -9999 -9999 -9999 -9999 -9999 -9999 -9999 -9999 -9999 -9999 -9999 -9999 -9999 -9999 -9999 -9999
-9999 -9999 -9999 -9999 -9999 -9999 -9999 -9999 -9999 -9999 -9999 -9999 -9999 -9999 -9999 -9999 -9999 -9999 -9999 -9999 -9999 -9999 -9999 -9999 -9999 -9999 -9999 -9999 -9999 -9999 -9999 -9999 -9999 -9999 -9999 -9999 -9999 -9999 -9999 -9999 -9999 -9999 -9999 -9999 -9999 -9999 -9999 -9999 -9999 626.6918 624.6173 623.6143 623.0681 621.8448 620.6644 619.2251 618.083 617.5426 617.2054 617.0778 616.937 616.809 616.5687 616.2909 615.8942 615.5847 615.4849 615.4927 615.5723 615.7137 615.848 616.0004 616.1904 616.4276 616.6601 616.7668 616.6559 616.3922 616.1877 616.2693 616.8004 617.8592 619.433 621.158 621.9766 621.0005 619.5187 618.3497 617.9641 618.0403 617.4789 616.8683 616.4093 616.0542 615.7233 615.4032 615.156 615.095 615.2104 615.3127 615.499 615.994 616.7049 617.0202 617.0256 617.2318 617.9242 619.0444 620.4099 621.5022 622.9053 624.7582 626.5006 628.1335 629.7698 631.5922 633.7193 635.8992 637.7536 -9999 -9999 -9999 -9999 -9999 -9999 -9999 -9999 -9999 -9999 -9999 -9999 -9999 -9999 -9999 -9999 -9999 -9999 -9999 -9999 -9999 -9999 -9999 -9999 -9999 -9999 -9999 -9999 -9999 -9999 -9999 -9999 -9999 -9999 -9999 -9999 -9999 -9999 -9999 -9999 -9999 -9999 -9999 -9999 -9999 -9999 -9999 -9999 -9999 -9999 -9999 -9999 -9999 -9999 -9999 -9999 -9999 -9999 -9999 -9999 -9999 -9999 -9999 -9999 -9999 -9999 -9999 -9999 -9999 -9999 -9999
-9999 -9999 -9999 -9999 -9999 -9999 -9999 -9999 -9999 -9999 -9999 -9999 -9999 -9999 -9999 -9999 -9999 -9999 -9999 -9999 -9999 -9999 -9999 -9999 -9999 -9999 -9999 -9999 -9999 -9999 -9999 -9999 -9999 -9999 -9999 -9999 -9999 -9999 -9999 -9999 -9999 -9999 -9999 -9999 -9999 -9999 -9999 -9999 -9999 629.9809 627.6068 626.0442 625.2349 623.7999 621.6252 619.3483 618.3921 617.8014 617.2834 616.8092 616.4529 616.2027 615.9393 615.6851 615.3832 615.1654 615.1049 615.1383 615.2283 615.2639 615.2849 615.382 615.6095 615.9545 616.3409 616.6301 616.6872 616.5253 616.3293 616.3312 616.6837 617.4669 618.6899 620.5081 621.1761 619.9934 618.4645 617.6077 617.3234 617.3486 617.1161 616.5574 616.0865 615.6953 615.3756 615.062 614.8094 614.6894 614.7314 614.7982 614.8947 615.2833 615.8794 616.251 616.3728 616.5583 617.066 617.9191 619.0112 620.0797 621.2863 622.5783 624.2472 626.214 628.1345 630.2997 632.8153 635.3299 637.2877 638.4482 -9999 -9999 -9999 -9999 -9999 -9999 -9999 -9999 -9999 -9999 -9999 -9999 -9999 -9999 -9999 -9999 -9999 -9999 -9999 -9999 -9999 -9999 -9999 -9999 -9999 -9999 -9999 -9999 -9999 -9999 -9999 -9999 -9999 -9999 -9999 -9999 -9999 -9999 -9999 -9999 -9999 -9999 -9999 -9999 -9999 -9999 -9999 -9999 -9999 -9999 -9999 -9999 -9999 -9999 -9999 -9999 -9999 -9999 -9999 -9999 -9999 -9999 -9999 -9999 -9999 -9999 -9999 -9999 -9999 -9999
-9999 -9999 -9999 -9999 -9999 -9999 -9999 -9999 -9999 -9999 -9999 -9999 -9999 -9999 -9999 -9999 -9999 -9999 -9999 -9999 -9999 -9999 -9999 -9999 -9999 -9999 -9999 -9999 -9999 -9999 -9999 -9999 -9999 -9999 -9999 -9999 -9999 -9999 -9999 -9999 -9999 -9999 -9999 -9999 -9999 -9999 -9999 -9999 -9999 633.7677 631.2988 629.4293 628.2759 626.4906 623.5928 620.6563 619.4221 618.373 617.491 616.7089 616.1398 615.7292 615.3904 615.1053 614.8342 614.7977 614.7953 614.8082 614.9725 614.9958 614.981 615.0121 615.1908 615.5377 615.9877 616.4097 616.6495 616.6608 616.5734 616.6008 616.9015 617.543 618.5299 620.1539 620.1672 619.0459 617.9056 617.2354 616.9223 616.8073 616.6077 616.2146 615.8068 615.4503 615.176 614.9744 614.7711 614.6286 614.5485 614.5887 614.6277 614.8141 615.2313 615.5911 615.8011 616.009 616.4053 617.0488 617.9194 618.9502 620.1235 621.0892 622.3574 623.9778 626.0289 628.3915 631.1515 633.9125 635.9796 637.2939 638.4517 -9999 -9999 -9999 -9999 -9999 -9999 -9999 -9999 -9999 -9999 -9999 -9999 -9999 -9999 -9999 -9999 -9999 -9999 -9999 -9999 -9999 -9999 -9999 -9999 -9999 -9999 -9999 -9999 -9999 -9999 -9999 -9999 -9999 -9999 -9999 -9999 -9999 -9999 -9999 -9999 -9999 -9999 -9999 -9999 -9999 -9999 -9999 -9999 -9999 -9999 -9999 -9999 -9999 -9999 -9999 -9999 -9999 -9999 -9999 -9999 -9999 -9999 -9999 -9999 -9999 -9999 -9999 -9999 -9999
-9999 -9999 -9999 -9999 -9999 -9999 -9999 -9999 -9999 -9999 -9999 -9999 -9999 -9999 -9999 -9999 -9999 -9999 -9999 -9999 -9999 -9999 -9999 -9999 -9999 -9999 -9999 -9999 -9999 -9999 -9999 -9999 -9999 -9999 -9999 -9999 -9999 -9999 -9999 -9999 -9999 -9999 -9999 -9999 -9999 -9999 -9999 -9999 -9999 637.2805 634.9808 633.055 631.6445 629.4529 626.0486 622.4528 620.1125 618.4447 617.2366 616.3842 615.8143 615.3954 615.0413 614.7933 614.5711 614.5269 614.5399 614.6172 614.7935 614.8035 614.8529 614.8628 614.9602 615.2357 615.6571 616.1242 616.4954 616.6841 616.755 616.8781 617.2111 617.8162 618.5863 619.4857 619.215 618.1752 617.4412 616.9523 616.6477 616.4541 616.2561 615.9695 615.6364 615.3238 615.0658 614.858 614.6639 614.4948 614.3939 614.4479 614.495 614.5798 614.7545 615.0219 615.2507 615.4899 615.8372 616.3426 617.0453 617.9137 618.8781 619.7325 620.7129 622.031 623.7832 626.0649 628.8844 631.7903 634.1205 635.4095 637.1228 637.8293 -9999 -9999 -9999 -9999 -9999 -9999 -9999 -9999 -9999 -9999 -9999 -9999 -9999 -9999 -9999 -9999 -9999 -9999 -9999 -9999 -9999 -9999 -9999 -9999 -9999 -9999 -9999 -9999 -9999 -9999 -9999 -9999 -9999 -9999 -9999 -9999 -9999 -9999 -9999 -9999 -9999 -9999 -9999 -9999 -9999 -9999 -9999 -9999 -9999 -9999 -9999 -9999 -9999 -9999 -9999 -9999 -9999 -9999 -9999 -9999 -9999 -9999 -9999 -9999 -9999 -9999 -9999 -9999
-9999 -9999 -9999 -9999 -9999 -9999 -9999 -9999 -9999 -9999 -9999 -9999 -9999 -9999 -9999 -9999 -9999 -9999 -9999 -9999 -9999 -9999 -9999 -9999 -9999 -9999 -9999 -9999 -9999 -9999 -9999 -9999 -9999 -9999 -9999 -9999 -9999 -9999 -9999 -9999 -9999 -9999 -9999 -9999 -9999 -9999 -9999 -9999 -9999 -9999 638.1837 636.422 634.9581 632.5674 628.8796 624.7383 621.317 618.8847 617.1893 616.1113 615.4945 615.1176 614.8077 614.5753 614.3754 614.2787 614.283 614.3723 614.5272 614.6484 614.7981 614.8342 614.8531 615.0237 615.3542 615.7834 616.2081 616.5304 616.7528 616.9786 617.3262 617.8328 618.3646 618.8781 618.5298 617.79 617.0266 616.6429 616.3846 616.1737 615.9865 615.7906 615.5405 615.2762 615.0488 614.8467 614.6586 614.4962 614.3644 614.3488 614.4159 614.4609 614.5419 614.6367 614.785 615.0117 615.3331 615.7529 616.3412 617.0899 617.868 618.5817 619.2761 620.3726 622.1122 623.8212 626.1895 629.1406 632.0423 634.2338 635.7529 636.2468 636.1665 -9999 -9999 -9999 -9999 -9999 -9999 -9999 -9999 -9999 -9999 -9999 -9999 -9999 -9999 -9999 -9999 -9999 -9999 -9999 -9999 -9999 -9999 -9999 -9999 -9999 -9999 -9999 -9999 -9999 -9999 -9999 -9999 -9999 -9999 -9999 -9999 -9999 -9999 -9999 -9999 -9999 -9999 -9999 -9999 -9999 -9999 -9999 -9999 -9999 -9999 -9999 -9999 -9999 -9999 -9999 -9999 -9999 -9999 -9999 -9999 -9999 -9999 -9999 -9999 -9999 -9999 -9999
-9999 -9999 -9999 -9999 -9999 -9999 -9999 -9999 -9999 -9999 -9999 -9999 -9999 -9999 -9999 -9999 -9999 -9999 -9999 -9999 -9999 -9999 -9999 -9999 -9999 -9999 -9999 -9999 -9999 -9999 -9999 -9999 -9999 -9999 -9999 -9999 -9999 -9999 -9999 -9999 -9999 -9999 -9999 -9999 -9999 -9999 -9999 -9999 -9999 -9999 640.5781 639.2239 638.0146 635.7696 632.1398 627.6943 623.4162 620.0741 617.7067 616.2063 615.3941 615.0151 614.7946 614.493 614.2262 614.0551 613.9969 614.0695 614.2208 614.3956 614.6078 614.7953 614.7998 614.8896 615.1106 615.4487 615.8478 616.2308 616.5564 616.8579 617.1932 617.5688 617.9116 618.3274 617.932 617.3918 616.7647 616.2623 615.9965 615.842 615.7067 615.5743 615.4241 615.2295 615.0411 614.894 614.7361 614.6073 614.4933 614.4056 614.3854 614.4011 614.4337 614.4717 614.537 614.6914 614.9471 615.2843 615.7751 616.4267 617.0581 617.6068 617.9143 618.5444 619.8228 621.2892 623.3535 626.0679 629.4042 632.3547 634.2486 634.918 634.7826 -9999 -9999 -9999 -9999 -9999 -9999 -9999 -9999 -9999 -9999 -9999 -9999 -9999 -9999 -9999 -9999 -9999 -9999 -9999 -9999 -9999 -9999 -9999 -9999 -9999 -9999 -9999 -9999 -9999 -9999 -9999 -9999 -9999 -9999 -9999 -9999 -9999 -9999 -9999 -9999 -9999 -9999 -9999 -9999 -9999 -9999 -9999 -9999 -9999 -9999 -9999 -9999 -9999 -9999 -9999 -9999 -9999 -9999 -9999 -9999 -9999 -9999 -9999 -9999 -9999 -9999 -9999
-9999 -9999 -9999 -9999 -9999 -9999 -9999 -9999 -9999 -9999 -9999 -9999 -9999 -9999 -9999 -9999 -9999 -9999 -9999 -9999 -9999 -9999 -9999 -9999 -9999 -9999 -9999 -9999 -9999 -9999 -9999 -9999 -9999 -9999 -9999 -9999 -9999 -9999 -9999 -9999 -9999 -9999 -9999 -9999 -9999 -9999 -9999 -9999 -9999 -9999 -9999 641.1466 640.5112 638.7673 635.5014 631.0381 626.1765 621.863 618.7686 616.7278 615.566 615.0388 614.7949 614.4338 614.0903 613.8415 613.7148 613.7355 613.8628 614.0439 614.2583 614.5103 614.6553 614.7975 614.9467 615.1853 615.5084 615.8754 616.2415 616.5869 616.9304 617.2743 617.5858 617.8299 617.5676 617.1206 616.5613 616.0596 615.7002 615.5056 615.3971 615.3165 615.2291 615.1294 614.9966 614.8958 614.8227 614.7267 614.6708 614.5823 614.4872 614.4326 614.4171 614.4128 614.4362 614.5192 614.6924 614.9365 615.3256 615.8671 616.3264 616.6298 616.8714 617.3434 618.1281 619.1925 620.907 623.4506 626.73 630.2216 632.853 633.9595 634.0526 634.0068 -9999 -9999 -9999 -9999 -9999 -9999 -9999 -9999 -9999 -9999 -9999 -9999 -9999 -9999 -9999 -9999 -9999 -9999 -9999 -9999 -9999 -9999 -9999 -9999 -9999 -9999 -9999 -9999 -9999 -9999 -9999 -9999 -9999 -9999 -9999 -9999 -9999 -9999 -9999 -9999 -9999 -9999 -9999 -9999 -9999 -9999 -9999 -9999 -9999 -9999 -9999 -9999 -9999 -9999 -9999 -9999 -9999 -9999 -9999 -9999 -9999 -9999 -9999 -9999 -9999 -9999
-9999 -9999 -9999 -9999 -9999 -9999 -9999 -9999 -9999 -9999 -9999 -9999 -9999 -9999 -9999 -9999 -9999 -9999 -9999 -9999 -9999 -9999 -9999 -9999 -9999 -9999 -9999 -9999 -9999 -9999 -9999 -9999 -9999 -9999 -9999 -9999 -9999 -9999 -9999 -9999 -9999 -9999 -9999 -9999 -9999 -9999 -9999 -9999 -9999 -9999 -9999 -9999 641.98 641.1754 638.54 634.327 629.2123 624.1628 620.1957 617.5278 615.9227 615.1301 614.7922 614.3451 613.9302 613.6219 613.4459 613.4124 613.497 613.6643 613.8904 614.1616 614.3977 614.6044 614.7968 614.9871 615.2347 615.5419 615.8882 616.2372 616.5793 616.9059 617.1757 617.3143 617.1575 616.829 616.3658 615.8843 615.5156 615.2872 615.1648 615.0967 615.019 614.9803 614.9205 614.8672 614.8302 614.8114 614.7693 614.752 614.6621 614.575 614.5167 614.467 614.4379 614.472 614.5594 614.7098 614.9944 615.4309 615.7963 615.998 616.2843 616.8191 617.5596 618.3451 619.188 621.3292 624.4866 628.1846 631.4347 633.288 633.9626 634.0043 -9999 -9999 -9999 -9999 -9999 -9999 -9999 -9999 -9999 -9999 -9999 -9999 -9999 -9999 -9999 -9999 -9999 -9999 -9999 -9999 -9999 -9999 -9999 -9999 -9999 -9999 -9999 -9999 -9999 -9999 -9999 -9999 -9999 -9999 -9999 -9999 -9999 -9999 -9999 -9999 -9999 -9999 -9999 -9999 -9999 -9999 -9999 -9999 -9999 -9999 -9999 -9999 -9999 -9999 -9999 -9999 -9999 -9999 -9999 -9999 -9999 -9999 -9999 -9999 -9999 -9999
-9999 -9999 -9999 -9999 -9999 -9999 -9999 -9999 -9999 -9999 -9999 -9999 -9999 -9999 -9999 -9999 -9999 -9999 -9999 -9999 -9999 -9999 -9999 -9999 -9999 -9999 -9999 -9999 -9999 -9999 -9999 -9999 -9999 -9999 -9999 -9999 -9999 -9999 -9999 -9999 -9999 -9999 -9999 -9999 -9999 -9999 -9999 -9999 -9999 -9999 -9999 -9999 642.7664 642.8968 640.9161 637.1297 631.9925 626.5029 621.8257 618.3699 616.2592 615.1557 614.727 614.175 613.7111 613.3718 613.1644 613.0905 613.1372 613.2789 613.4888 613.7625 614.0488 614.3169 614.5608 614.796 615.017 615.2686 615.5573 615.8662 616.1813 616.4823 616.722 616.8302 616.7069 616.4381 616.0778 615.6681 615.3523 615.1352 614.9929 614.9381 614.8005 614.7974 614.7993 614.7996 614.7999 614.7999 614.8 614.8173 614.7911 614.7358 614.6867 614.6146 614.5334 614.4931 614.5317 614.6162 614.8035 615.1411 615.4593 615.7019 616.0653 616.6572 617.3286 617.6213 618.1652 619.7607 622.8233 626.2249 629.8094 632.3544 633.3793 633.5516 633.3173 -9999 -9999 -9999 -9999 -9999 -9999 -9999 -9999 -9999 -9999 -9999 -9999 -9999 -9999 -9999 -9999 -9999 -9999 -9999 -9999 -9999 -9999 -9999 -9999 -9999 -9999 -9999 -9999 -9999 -9999 -9999 -9999 -9999 -9999 -9999 -9999 -9999 -9999 -9999 -9999 -9999 -9999 -9999 -9999 -9999 -9999 -9999 -9999 -9999 -9999 -9999 -9999 -9999 -9999 -9999 -9999 -9999 -9999 -9999 -9999 -9999 -9999 -9999 -9999 -9999
-9999 -9999 -9999 -9999 -9999 -9999 -9999 -9999 -9999 -9999 -9999 -9999 -9999 -9999 -9999 -9999 -9999 -9999 -9999 -9999 -9999 -9999 -9999 -9999 -9999 -9999 -9999 -9999 -9999 -9999 -9999 -9999 -9999 -9999 -9999 -9999 -9999 -9999 -9999 -9999 -9999 -9999 -9999 -9999 -9999 -9999 -9999 -9999 -9999 -9999 -9999 -9999 -9999 643.4199 642.1699 639.0803 634.1619 628.4173 623.1726 619.0447 616.4409 614.9473 614.333 613.8502 613.4292 613.0956 612.8723 612.7692 612.7832 612.8993 613.0787 613.3378 613.6442 613.9536 614.2428 614.52 614.796 615.0345 615.2709 615.507 615.7754 616.0333 616.2511 616.3564 616.2505 615.9941 615.6559 615.3248 615.1263 614.9861 614.8063 614.778 614.4915 614.4844 614.5326 614.59 614.6434 614.6909 614.7386 614.7995 614.8 614.7999 614.8 614.7683 614.6848 614.5907 614.5637 614.6239 614.7413 614.9916 615.2713 615.5684 615.9655 616.4678 616.7714 616.9406 617.3563 618.5461 621.0059 624.1904 627.8252 630.6584 632.0815 632.2188 631.6902 -9999 -9999 -9999 -9999 -9999 -9999 -9999 -9999 -9999 -9999 -9999 -9999 -9999 -9999 -9999 -9999 -9999 -9999 -9999 -9999 -9999 -9999 -9999 -9999 -9999 -9999 -9999 -9999 -9999 -9999 -9999 -9999 -9999 -9999 -9999 -9999 -9999 -9999 -9999 -9999 -9999 -9999 -9999 -9999 -9999 -9999 -9999 -9999 -9999 -9999 -9999 -9999 -9999 -9999 -9999 -9999 -9999 -9999 -9999 -9999 -9999 -9999 -9999 -9999 -9999
-9999 -9999 -9999 -9999 -9999 -9999 -9999 -9999 -9999 -9999 -9999 -9999 -9999 -9999 -9999 -9999 -9999 -9999 -9999 -9999 -9999 -9999 -9999 -9999 -9999 -9999 -9999 -9999 -9999 -9999 -9999 -9999 -9999 -9999 -9999 -9999 -9999 -9999 -9999 -9999 -9999 -9999 -9999 -9999 -9999 -9999 -9999 -9999 -9999 -9999 -9999 -9999 -9999 643.3959 642.0948 639.9929 635.5473 629.7825 624.1461 619.5597 616.6128 614.8778 614.0928 613.5951 613.1783 612.8347 612.587 612.4507 612.4297 612.5099 612.6741 612.9214 613.2288 613.5557 613.8745 614.1809 614.5123 614.7989 615.0198 615.1597 615.3885 615.5932 615.7658 615.8503 615.7659 615.5512 615.1944 614.8345 614.7944 614.7762 614.5597 614.3884 614.1505 614.1333 614.1909 614.2753 614.3699 614.4581 614.535 614.5989 614.6298 614.6598 614.7083 614.7989 614.7999 614.725 614.653 614.6624 614.7571 614.9341 615.165 615.4487 615.7257 616.0405 616.2203 616.3829 616.7568 617.7117 619.5907 622.5381 625.7119 628.8005 630.5239 630.6161 629.9382 628.2164 -9999 -9999 -9999 -9999 -9999 -9999 -9999 -9999 -9999 -9999 -9999 -9999 -9999 -9999 -9999 -9999 -9999 -9999 -9999 -9999 -9999 -9999 -9999 -9999 -9999 -9999 -9999 -9999 -9999 -9999 -9999 -9999 -9999 -9999 -9999 -9999 -9999 -9999 -9999 -9999 -9999 -9999 -9999 -9999 -9999 -9999 -9999 -9999 -9999 -9999 -9999 -9999 -9999 -9999 -9999 -9999 -9999 -9999 -9999 -9999 -9999 -9999 -9999 -9999
-9999 -9999 -9999 -9999 -9999 -9999 -9999 -9999 -9999 -9999 -9999 -9999 -9999 -9999 -9999 -9999 -9999 -9999 -9999 -9999 -9999 -9999 -9999 -9999 -9999 -9999 -9999 -9999 -9999 -9999 -9999 -9999 -9999 -9999 -9999 -9999 -9999 -9999 -9999 -9999 -9999 -9999 -9999 -9999 -9999 -9999 -9999 -9999 -9999 -9999 -9999 -9999 -9999 642.8602 641.3611 640.2743 636.2829 630.6123 624.7348 619.9194 616.7698 614.8768 613.9852 613.4248 612.9716 612.6016 612.3214 612.1472 612.0911 612.1464 612.2996 612.5385 612.84 613.1655 613.5009 613.8434 614.1991 614.5277 614.7849 614.8149 615.0447 615.193 615.3514 615.3959 615.2971 615.1453 614.7906 614.3964 614.2933 614.2491 614.1035 613.9372 613.7724 613.7496 613.7919 613.8767 613.989 614.1097 614.2135 614.2906 614.3369 614.3746 614.4326 614.5952 614.7234 614.7999 614.7636 614.7291 614.7637 614.8745 615.0623 615.2822 615.5227 615.7439 615.8876 616.0052 616.3552 617.2137 618.8331 621.5078 624.1412 626.7556 628.5065 629.2029 628.6489 626.9203 625.132 -9999 -9999 -9999 -9999 -9999 -9999 -9999 -9999 -9999 -9999 -9999 -9999 -9999 -9999 -9999 -9999 -9999 -9999 -9999 -9999 -9999 -9999 -9999 -9999 -9999 -9999 -9999 -9999 -9999 -9999 -9999 -9999 -9999 -9999 -9999 -9999 -9999 -9999 -9999 -9999 -9999 -9999 -9999 -9999 -9999 -9999 -9999 -9999 -9999 -9999 -9999 -9999 -9999 -9999 -9999 -9999 -9999 -9999 -9999 -9999 -9999 -9999 -9999
-9999 -9999 -9999 -9999 -9999 -9999 -9999 -9999 -9999 -9999 -9999 -9999 -9999 -9999 -9999 -9999 -9999 -9999 -9999 -9999 -9999 644.5469 643.5082 642.5799 641.7485 640.5178 -9999 -9999 -9999 -9999 -9999 -9999 -9999 -9999 -9999 -9999 -9999 -9999 -9999 -9999 -9999 -9999 -9999 -9999 -9999 -9999 -9999 -9999 -9999 -9999 -9999 -9999 -9999 642.5991 641.934 640.4059 636.3422 630.7695 625.0038 620.1334 616.8787 614.8397 613.7463 613.126 612.7216 612.3617 612.066 611.8622 611.7712 611.8056 611.9518 612.188 612.4811 612.7863 613.1122 613.4612 613.8199 614.1516 614.4188 614.5754 614.7844 614.8237 615.0364 615.0425 614.8345 614.748 614.3394 613.9127 613.7391 613.6596 613.5603 613.4484 613.3521 613.3265 613.3446 613.4115 613.5262 613.665 613.7994 613.9056 613.9812 614.0458 614.1406 614.3121 614.4899 614.6556 614.7983 614.7999 614.7949 614.8507 614.9933 615.1862 615.3986 615.6136 615.7451 615.8237 616.1288 616.9058 618.4015 620.7969 622.6143 624.769 626.2748 627.9242 627.8817 626.2025 624.4616 624.3325 -9999 -9999 -9999 -9999 -9999 -9999 -9999 -9999 -9999 -9999 -9999 -9999 -9999 -9999 -9999 -9999 -9999 -9999 -9999 -9999 -9999 -9999 -9999 -9999 -9999 -9999 -9999 -9999 -9999 -9999 -9999 -9999 -9999 -9999 -9999 -9999 -9999 -9999 -9999 -9999 -9999 -9999 -9999 -9999 -9999 -9999 -9999 -9999 -9999 -9999 -9999 -9999 -9999 -9999 -9999 -9999 -9999 -9999 -9999 -9999 -9999 -9999
-9999 -9999 -9999 -9999 -9999 -9999 -9999 -9999 -9999 -9999 -9999 -9999 -9999 -9999 -9999 -9999 -9999 -9999 -9999 646.0998 643.894 641.9642 640.7966 640.093 639.6688 639.046 638.1413 637.0784 -9999 -9999 -9999 -9999 -9999 -9999 -9999 -9999 -9999 -9999 -9999 -9999 -9999 -9999 -9999 -9999 -9999 -9999 -9999 -9999 -9999 -9999 -9999 -9999 -9999 643.2089 642.4004 639.8849 635.4627 630.0219 624.8061 620.0888 616.9054 614.8184 613.5754 612.8551 612.4198 612.1008 611.8105 611.5907 611.4728 611.4792 611.6119 611.8423 612.128 612.3934 612.6927 613.0263 613.3727 613.6979 613.9773 614.1952 614.4016 614.5493 614.7766 614.7584 614.4348 614.1614 613.7771 613.3977 613.1618 613.056 612.9847 612.926 612.8837 612.8558 612.8505 612.899 613.0068 613.1578 613.3209 613.4664 613.5839 613.6876 613.8217 613.9884 614.1644 614.3461 614.5922 614.7277 614.7998 614.8522 614.9404 615.1172 615.2883 615.4844 615.6407 615.7953 615.984 616.603 617.7814 619.4798 621.1561 623.041 625.1585 626.7693 627.3267 625.881 624.238 623.6921 623.4449 -9999 -9999 -9999 -9999 -9999 -9999 -9999 -9999 -9999 -9999 -9999 -9999 -9999 -9999 -9999 -9999 -9999 -9999 -9999 -9999 -9999 -9999 -9999 -9999 -9999 -9999 -9999 -9999 -9999 -9999 -9999 -9999 -9999 -9999 -9999 -9999 -9999 -9999 -9999 -9999 -9999 -9999 -9999 -9999 -9999 -9999 -9999 -9999 -9999 -9999 -9999 -9999 -9999 -9999 -9999 -9999 -9999 -9999 -9999 -9999 -9999
-9999 -9999 -9999 -9999 -9999 -9999 -9999 -9999 -9999 -9999 -9999 -9999 -9999 -9999 -9999 -9999 -9999 -9999 645.5493 643.5486 641.0866 638.8363 637.4329 636.9222 637.025 637.2037 636.8418 636.1011 635.3625 635.0341 -9999 -9999 -9999 -9999 -9999 -9999 -9999 -9999 -9999 -9999 -9999 -9999 -9999 -9999 -9999 -9999 -9999 -9999 -9999 -9999 -9999 -9999 643.8605 642.7294 641.2523 638.1469 633.4565 628.1516 623.4244 619.5282 616.7928 614.8333 613.5369 612.7145 612.1942 611.8367 611.5581 611.3304 611.1915 611.168 611.2689 611.4669 611.7049 611.9515 612.2305 612.5438 612.8697 613.1775 613.4497 613.6794 613.8699 614.0188 614.1315 614.0569 613.7606 613.4368 613.0946 612.7806 612.5583 612.4381 612.3879 612.3782 612.3813 612.3509 612.3224 612.3566 612.4607 612.6187 612.8095 613.0007 613.1713 613.3236 613.4878 613.6603 613.8464 614.0759 614.3476 614.5629 614.7021 614.7995 614.9047 615.0402 615.22 615.3688 615.5187 615.678 615.9285 616.3472 617.1633 618.3486 619.9169 621.7295 623.7396 625.4933 626.0406 625.2974 624.1741 623.391 622.962 622.8001 623.3574 624.2886 -9999 -9999 -9999 -9999 -9999 -9999 -9999 -9999 -9999 -9999 -9999 -9999 -9999 -9999 -9999 -9999 -9999 -9999 -9999 -9999 -9999 -9999 -9999 -9999 -9999 -9999 -9999 -9999 -9999 -9999 -9999 -9999 -9999 -9999 -9999 -9999 -9999 -9999 -9999 -9999 -9999 -9999 -9999 -9999 -9999 -9999 -9999 -9999 -9999 -9999 -9999 -9999 -9999 -9999 -9999 -9999 -9999 -9999
-9999 -9999 -9999 -9999 -9999 -9999 -9999 -9999 -9999 -9999 -9999 -9999 -9999 -9999 -9999 -9999 -9999 644.0726 642.9326 640.7416 637.9853 635.353 633.6166 633.1713 633.7634 634.6766 635.0972 634.8228 634.3925 634.7688 635.4907 636.4278 -9999 -9999 -9999 -9999 -9999 -9999 -9999 -9999 -9999 -9999 -9999 -9999 -9999 -9999 -9999 -9999 -9999 -9999 -9999 643.9791 642.9014 640.77 639.1741 635.6691 630.7476 625.6714 621.6951 618.892 616.6832 614.9003 613.6293 612.731 612.1058 611.6606 611.3309 611.0864 610.9252 610.8705 610.932 611.0908 611.273 611.4919 611.7456 612.0303 612.3279 612.6062 612.8484 613.0526 613.2036 613.2969 613.3181 613.1987 612.9222 612.6104 612.3175 612.0726 611.8994 611.7962 611.7781 611.8242 611.8863 611.8441 611.8011 611.8251 611.925 612.0862 612.2987 612.5317 612.756 612.9488 613.1463 613.3309 613.5209 613.7797 614.074 614.3356 614.5287 614.6703 614.7996 614.9501 615.131 615.3019 615.4415 615.5813 615.8136 616.1698 616.7817 617.7107 618.8949 620.394 622.006 623.3513 624.5123 624.8141 624.1608 623.3069 622.6809 622.4116 622.3759 622.6151 623.8489 625.8817 -9999 -9999 -9999 -9999 -9999 -9999 -9999 -9999 -9999 -9999 -9999 -9999 -9999 -9999 -9999 -9999 -9999 -9999 -9999 -9999 -9999 -9999 -9999 -9999 -9999 -9999 -9999 -9999 -9999 -9999 -9999 -9999 -9999 -9999 -9999 -9999 -9999 -9999 -9999 -9999 -9999 -9999 -9999 -9999 -9999 -9999 -9999 -9999 -9999 -9999 -9999 -9999 -9999 -9999 -9999 -9999
-9999 -9999 -9999 -9999 -9999 -9999 -9999 -9999 -9999 -9999 -9999 -9999 -9999 -9999 -9999 -9999 642.1873 641.735 640.3574 637.9005 634.7825 631.7155 629.5797 629.0864 629.9635 631.3631 632.5621 633.1607 633.4357 634.2316 635.6041 637.1178 638.4425 639.9769 -9999 -9999 -9999 -9999 -9999 -9999 -9999 -9999 -9999 -9999 -9999 -9999 -9999 -9999 -9999 -9999 -9999 643.1266 641.8947 639.983 637.3104 633.1141 628.0118 623.3777 620.3451 618.3698 616.5751 614.946 613.7529 612.8267 612.1154 611.5756 611.1683 610.8706 610.6744 610.5841 610.5961 610.697 610.8428 611.0317 611.2607 611.5134 611.7726 612.0087 612.2047 612.3594 612.4572 612.4864 612.4387 612.2928 612.042 611.7621 611.5216 611.3436 611.2365 611.1761 611.1992 611.2957 611.434 611.3763 611.3496 611.3855 611.4768 611.6174 611.8343 612.0922 612.3602 612.5837 612.8103 613.0129 613.2181 613.473 613.7728 614.0649 614.3035 614.4799 614.6359 614.7999 614.9945 615.1885 615.3535 615.5093 615.6954 616.0072 616.4464 617.0917 617.9567 619.1531 620.5508 621.8236 623.0565 623.7161 623.7859 623.1135 622.4304 622.0385 621.989 622.1938 623.4804 626.277 629.8749 -9999 -9999 -9999 -9999 -9999 -9999 -9999 -9999 -9999 -9999 -9999 -9999 -9999 -9999 -9999 -9999 -9999 -9999 -9999 -9999 -9999 -9999 -9999 -9999 -9999 -9999 -9999 -9999 -9999 -9999 -9999 -9999 -9999 -9999 -9999 -9999 -9999 -9999 -9999 -9999 -9999 -9999 -9999 -9999 -9999 -9999 -9999 -9999 -9999 -9999 -9999 -9999 -9999 -9999 -9999
-9999 -9999 -9999 -9999 -9999 -9999 -9999 -9999 -9999 -9999 -9999 -9999 -9999 -9999 -9999 -9999 640.5123 639.7769 638.0293 635.2766 631.7715 628.2767 625.8725 625.3593 626.0416 627.4964 629.1828 630.532 631.5648 632.8184 634.3755 636.1135 637.7249 639.1569 640.4556 -9999 -9999 -9999 -9999 -9999 -9999 -9999 -9999 -9999 -9999 -9999 -9999 -9999 -9999 -9999 643.1154 642.0167 640.5638 638.4755 635.1089 630.4641 625.4603 621.4368 619.0212 617.4242 616.0637 614.832 613.7528 612.8468 612.0995 611.4996 611.0316 610.6816 610.4446 610.3153 610.2842 610.3348 610.4415 610.5995 610.7982 611.016 611.2329 611.4189 611.5598 611.6567 611.7023 611.6798 611.591 611.437 611.23 611.0097 610.8347 610.7238 610.6265 610.7055 610.7843 610.863 610.9415 611.0197 611.0962 611.1722 611.2477 611.3223 611.494 611.7174 611.9741 612.2019 612.465 612.6816 612.8987 613.1494 613.4473 613.7608 614.0322 614.2494 614.4279 614.6078 614.8002 615.0225 615.2119 615.3913 615.5823 615.8195 616.1536 616.5989 617.1932 618.0236 619.1401 620.2872 621.3488 622.0989 622.85 622.3719 622.0172 621.7562 621.8796 622.5262 624.4028 627.7305 631.6359 635.1205 -9999 -9999 -9999 -9999 -9999 -9999 -9999 -9999 -9999 -9999 -9999 -9999 -9999 -9999 -9999 -9999 -9999 -9999 -9999 -9999 -9999 -9999 -9999 -9999 -9999 -9999 -9999 -9999 -9999 -9999 -9999 -9999 -9999 -9999 -9999 -9999 -9999 -9999 -9999 -9999 -9999 -9999 -9999 -9999 -9999 -9999 -9999 -9999 -9999 -9999 -9999 -9999 -9999 -9999
-9999 -9999 -9999 -9999 -9999 -9999 -9999 -9999 -9999 -9999 -9999 -9999 -9999 -9999 -9999 639.4284 639.5546 638.274 636.1199 633.0369 629.212 625.5559 623.2744 622.4332 622.6967 623.7734 625.3542 627.0333 628.6585 630.3397 632.1142 634.0542 635.9508 637.5619 638.7775 640.2271 641.2385 -9999 -9999 -9999 -9999 -9999 -9999 -9999 -9999 -9999 -9999 -9999 -9999 -9999 641.8908 640.6377 639.0474 636.5389 632.6232 627.7764 623.1259 619.9491 617.9563 616.5949 615.5132 614.6093 613.5988 612.7076 611.9634 611.3495 610.8561 610.48 610.2172 610.0616 609.9994 610.0126 610.0833 610.2101 610.3776 610.5601 610.7335 610.8719 610.9592 611.0043 611.0093 610.9623 610.8698 610.7412 610.6084 610.4987 610.4485 610.5159 610.5828 610.7216 610.8567 610.9675 611.0742 611.2004 611.3107 611.3802 611.4091 611.4039 611.416 611.4847 611.5579 611.813 612.1046 612.3247 612.5586 612.8156 613.1117 613.4363 613.7394 613.9832 614.1914 614.3892 614.5923 614.8001 615.0174 615.2499 615.4631 615.6787 615.9215 616.2197 616.6246 617.2018 617.985 618.9501 619.8458 620.5697 621.1881 621.3428 621.387 621.4418 621.9558 623.3546 625.7696 629.3286 633.25 636.5361 -9999 -9999 -9999 -9999 -9999 -9999 -9999 -9999 -9999 -9999 -9999 -9999 -9999 -9999 -9999 -9999 -9999 -9999 -9999 -9999 -9999 -9999 -9999 -9999 -9999 -9999 -9999 -9999 -9999 -9999 -9999 -9999 -9999 -9999 -9999 -9999 -9999 -9999 -9999 -9999 -9999 -9999 -9999 -9999 -9999 -9999 -9999 -9999 -9999 -9999 -9999 -9999 -9999 -9999
-9999 -9999 -9999 -9999 -9999 -9999 -9999 -9999 -9999 -9999 -9999 -9999 -9999 -9999 -9999 639.9836 639.0606 637.2217 634.6896 631.267 627.3722 623.9505 621.5374 620.2515 619.9492 620.45 621.6982 622.9896 624.7313 626.7089 628.8164 631.0914 633.4033 635.4286 637.0414 638.4312 639.5571 -9999 -9999 -9999 -9999 -9999 -9999 -9999 -9999 -9999 -9999 -9999 -9999 641.5197 640.5896 639.3826 637.5666 634.5897 630.2796 625.5348 621.3724 618.8528 617.1822 615.9452 614.9425 614.1075 613.2225 612.4004 611.6912 611.1013 610.6207 610.2466 609.9812 609.819 609.7454 609.7397 609.7875 609.881 610.015 610.1638 610.2986 610.3982 610.4469 610.4581 610.4476 610.4078 610.3546 610.3021 610.2841 610.3544 610.5109 610.7208 610.9284 611.1412 611.3285 611.4764 611.6073 611.7549 611.8817 611.9437 611.9297 611.8497 611.7411 611.6487 611.589 611.6497 611.8 611.9855 612.2235 612.4905 612.7858 613.1178 613.4426 613.7092 613.9355 614.1595 614.3828 614.605 614.8102 615.0967 615.3439 615.5645 615.764 615.9692 616.2349 616.6394 617.2073 617.9099 618.6413 619.1777 619.7042 620.0548 620.3104 620.7764 621.6161 623.4704 626.4128 630.2441 634.181 637.2851 639.076 -9999 -9999 -9999 -9999 -9999 -9999 -9999 -9999 -9999 -9999 -9999 -9999 -9999 -9999 -9999 -9999 -9999 -9999 -9999 -9999 -9999 -9999 -9999 -9999 -9999 -9999 -9999 -9999 -9999 -9999 -9999 -9999 -9999 -9999 -9999 -9999 -9999 -9999 -9999 -9999 -9999 -9999 -9999 -9999 -9999 -9999 -9999 -9999 -9999 -9999 -9999 -9999 -9999
-9999 -9999 -9999 -9999 -9999 -9999 -9999 -9999 -9999 -9999 -9999 -9999 -9999 -9999 -9999 641.2627 639.2518 636.6475 633.7351 630.1965 626.4698 623.0868 620.4456 618.7189 617.8683 617.8708 618.2435 619.1165 620.6663 622.5121 624.7297 627.3716 630.0862 632.5311 634.5045 636.1274 637.499 638.2075 638.4177 -9999 -9999 -9999 -9999 -9999 -9999 -9999 -9999 -9999 -9999 640.1042 639.5649 638.3654 636.305 632.937 628.3608 623.7521 620.215 618.2496 616.7426 615.5227 614.6143 613.6773 612.7985 612.0137 611.344 610.7894 610.3397 609.9907 609.7429 609.593 609.5253 609.518 609.5552 609.6267 609.7269 609.8446 609.9499 610.0247 610.0568 610.0634 610.0729 610.0782 610.1089 610.1843 610.3509 610.6002 610.915 611.2462 611.5562 611.8283 612.0544 612.2192 612.36 612.5117 612.6487 612.7195 612.6893 612.5519 612.3411 612.1133 611.9182 611.8009 611.7368 611.7859 611.9701 612.2073 612.4882 612.8224 613.1666 613.4347 613.6749 613.9238 614.1892 614.4777 614.7891 615.0044 615.2236 615.4519 615.6364 615.7869 615.9717 616.2654 616.7126 617.2402 617.7715 618.0573 618.5302 618.8324 619.3062 619.9315 621.0452 623.0007 626.3145 630.4512 634.4725 637.4911 639.0664 -9999 -9999 -9999 -9999 -9999 -9999 -9999 -9999 -9999 -9999 -9999 -9999 -9999 -9999 -9999 -9999 -9999 -9999 -9999 -9999 -9999 -9999 -9999 -9999 -9999 -9999 -9999 -9999 -9999 -9999 -9999 -9999 -9999 -9999 -9999 -9999 -9999 -9999 -9999 -9999 -9999 -9999 -9999 -9999 -9999 -9999 -9999 -9999 -9999 -9999 -9999 -9999 -9999
-9999 -9999 -9999 -9999 -9999 -9999 -9999 -9999 -9999 -9999 -9999 -9999 -9999 -9999 -9999 642.4971 639.803 636.6437 633.563 630.1443 626.3329 622.7844 619.8192 617.6647 616.2075 615.5497 615.5109 616.0627 617.3148 618.8497 620.804 623.3264 626.2092 628.9709 631.3213 633.3062 635.1132 636.6123 637.6764 637.7814 637.2598 -9999 -9999 -9999 -9999 -9999 -9999 -9999 -9999 639.0967 638.907 637.8512 635.5873 631.7788 626.8976 622.3227 619.4949 618.0137 616.4851 615.0873 614.1063 613.187 612.3433 611.6028 610.978 610.4667 610.0558 609.7401 609.5205 609.3948 609.3466 609.3492 609.3879 609.4493 609.5281 609.6193 609.7079 609.7753 609.8167 609.8469 609.918 610.0005 610.1661 610.3942 610.7031 611.0892 611.5198 611.9453 612.3264 612.6339 612.8716 613.0297 613.155 613.2958 613.437 613.5293 613.5273 613.356 613.0691 612.7389 612.4392 612.2229 612.0646 611.8201 611.8823 612.0177 612.231 612.5485 612.9052 613.1397 613.382 613.6536 613.9464 614.2523 614.5535 614.7996 615.0417 615.3148 615.5106 615.6331 615.771 616.0135 616.3769 616.8176 617.1898 617.4628 617.7814 617.9368 618.388 619.1686 620.4755 622.7026 626.0621 630.3477 634.4355 637.3518 638.6558 -9999 -9999 -9999 -9999 -9999 -9999 -9999 -9999 -9999 -9999 -9999 -9999 -9999 -9999 -9999 -9999 -9999 -9999 -9999 -9999 -9999 -9999 -9999 -9999 -9999 -9999 -9999 -9999 -9999 -9999 -9999 -9999 -9999 -9999 -9999 -9999 -9999 -9999 -9999 -9999 -9999 -9999 -9999 -9999 -9999 -9999 -9999 -9999 -9999 -9999 -9999 -9999 -9999
-9999 -9999 -9999 -9999 -9999 -9999 -9999 -9999 -9999 -9999 -9999 -9999 -9999 -9999 -9999 643.5192 640.4767 637.144 634.03 630.6938 626.8281 622.8806 619.4752 616.9885 615.2372 614.5596 614.2487 614.4195 615.1487 616.3496 617.9158 619.9321 622.4973 625.2147 627.8453 630.2109 632.499 634.731 636.613 637.7062 637.8531 -9999 -9999 -9999 -9999 -9999 -9999 -9999 638.069 638.6248 638.5607 637.5171 635.155 631.0373 625.9388 621.3008 618.6156 617.1849 616.0266 614.7448 613.6747 612.7362 611.9116 611.2091 610.6301 610.1653 609.7996 609.5231 609.3372 609.24 609.2164 609.2374 609.2833 609.345 609.4161 609.496 609.5822 609.6642 609.7428 609.8356 609.978 610.1707 610.452 610.8096 611.2306 611.7065 612.2102 612.6917 613.115 613.4362 613.6469 613.7706 613.8588 613.9675 614.095 614.2117 614.266 614.0931 613.7632 613.3591 612.9758 612.6738 612.4326 612.1192 611.9958 611.9782 612.0485 612.2811 612.5628 612.7806 613.04 613.3452 613.6667 613.9814 614.2765 614.5374 614.8182 615.1583 615.3727 615.4844 615.6045 615.8303 616.1771 616.5602 616.8774 617.0471 617.1968 617.3395 617.7764 618.5438 620.0634 622.4784 625.8665 630.2169 634.3378 637.1674 638.2758 -9999 -9999 -9999 -9999 -9999 -9999 -9999 -9999 -9999 -9999 -9999 -9999 -9999 -9999 -9999 -9999 -9999 -9999 -9999 -9999 -9999 -9999 -9999 -9999 -9999 -9999 -9999 -9999 -9999 -9999 -9999 -9999 -9999 -9999 -9999 -9999 -9999 -9999 -9999 -9999 -9999 -9999 -9999 -9999 -9999 -9999 -9999 -9999 -9999 -9999 -9999 -9999 -9999
-9999 -9999 -9999 -9999 -9999 -9999 -9999 -9999 -9999 -9999 -9999 -9999 -9999 -9999 -9999 -9999 641.3275 637.9386 634.7693 631.3244 627.5016 623.0635 619.1498 616.3848 614.8096 614.3046 613.7804 613.6852 614.0955 614.9188 616.0134 617.4937 619.4328 621.8403 624.4766 627.1128 629.8273 632.6861 635.4089 637.4293 638.104 637.8213 -9999 -9999 -9999 -9999 -9999 -9999 638.6378 638.7466 638.3289 637.0243 634.4496 630.1843 625.1042 620.4974 617.7209 616.2076 615.1099 614.141 613.1967 612.3152 611.5308 610.8687 610.3319 609.9099 609.5869 609.3514 609.2017 609.1361 609.1383 609.1788 609.2311 609.2972 609.3741 609.4603 609.561 609.6747 609.8035 609.9655 610.1904 610.4861 610.8669 611.3283 611.8348 612.3663 612.9001 613.4001 613.838 614.1639 614.3003 614.3646 614.4025 614.4595 614.5414 614.6503 614.785 614.5997 614.2804 613.8419 613.3922 613.0031 612.6763 612.4205 612.2538 612.1476 612.1008 612.1366 612.2118 612.4328 612.7041 613.0343 613.39 613.7175 614.0341 614.3405 614.7756 615.0396 615.218 615.3285 615.4564 615.7 616.0654 616.4492 616.7195 616.8176 616.8145 616.8623 617.2108 618.0456 619.7809 622.4359 625.9804 630.3591 634.3976 637.113 638.3246 -9999 -9999 -9999 -9999 -9999 -9999 -9999 -9999 -9999 -9999 -9999 -9999 -9999 -9999 -9999 -9999 -9999 -9999 -9999 -9999 -9999 -9999 -9999 -9999 -9999 -9999 -9999 -9999 -9999 -9999 -9999 -9999 -9999 -9999 -9999 -9999 -9999 -9999 -9999 -9999 -9999 -9999 -9999 -9999 -9999 -9999 -9999 -9999 -9999 -9999 -9999 -9999 -9999
-9999 -9999 -9999 -9999 -9999 -9999 -9999 -9999 -9999 -9999 -9999 -9999 -9999 -9999 -9999 -9999 642.3785 639.009 635.6801 632.0002 627.9199 623.2255 618.9053 615.8062 614.2605 613.7041 613.3644 613.304 613.6262 614.2672 614.8658 615.8536 617.2665 619.1557 621.5464 624.2191 627.2714 630.7647 634.1855 636.7229 637.9712 638.0066 -9999 -9999 -9999 -9999 -9999 639.7175 639.4185 638.691 637.5954 635.8096 632.8459 628.6312 623.9258 619.6917 616.9415 615.4736 614.5911 613.6731 612.7839 611.9518 611.2123 610.592 610.0974 609.7153 609.4301 609.231 609.1141 609.0774 609.1041 609.1536 609.1999 609.2709 609.366 609.4816 609.6155 609.7702 609.9547 610.1835 610.485 610.8723 611.3412 611.8768 612.4438 613.0005 613.5258 614.0045 614.4291 614.7679 614.8058 614.8043 614.8018 614.8005 614.8005 614.8044 614.9091 614.8039 614.5784 614.1327 613.6334 613.1488 612.8649 612.7545 612.6405 612.5104 612.3823 612.2838 612.2338 612.3062 612.4791 612.7784 613.1498 613.4726 613.8133 614.1417 614.5253 614.8016 615.0018 615.1545 615.3256 615.6097 616.0145 616.4282 616.6804 616.7037 616.5848 616.5423 616.8618 617.8299 619.7178 622.6509 626.4572 630.8653 634.6273 636.9357 638.1837 639.1777 -9999 -9999 -9999 -9999 -9999 -9999 -9999 -9999 -9999 -9999 -9999 -9999 -9999 -9999 -9999 -9999 -9999 -9999 -9999 -9999 -9999 -9999 -9999 -9999 -9999 -9999 -9999 -9999 -9999 -9999 -9999 -9999 -9999 -9999 -9999 -9999 -9999 -9999 -9999 -9999 -9999 -9999 -9999 -9999 -9999 -9999 -9999 -9999 -9999 -9999 -9999 -9999
-9999 -9999 -9999 -9999 -9999 -9999 -9999 -9999 -9999 -9999 -9999 -9999 -9999 -9999 -9999 -9999 643.2293 639.9421 636.382 632.3356 627.814 623.004 618.6383 615.4411 613.785 613.1723 612.9573 612.9866 613.2683 613.6781 614.0962 614.7729 615.7976 617.3194 619.3687 621.9778 625.2024 629.2402 633.1567 636.1316 637.8191 638.1541 638.0339 -9999 -9999 -9999 639.6405 639.8175 639.0992 637.5278 635.6054 633.274 630.224 626.4611 622.2675 618.6703 616.1937 614.8248 614.0438 613.2479 612.4322 611.655 610.9595 610.3802 609.9248 609.5798 609.3273 609.1567 609.0646 609.0476 609.0876 609.125 609.177 609.2645 609.3875 609.5399 609.7142 609.9125 610.1483 610.4385 610.8043 611.2672 611.8104 612.4117 613.0171 613.574 614.0514 614.4604 614.8059 615.0808 615.1631 615.1627 615.1388 615.0984 615.0536 615.0269 615.0415 614.9718 614.787 614.3055 613.7496 613.2568 613.1744 613.189 613.1494 613.0289 612.8646 612.6766 612.4973 612.3952 612.3963 612.5963 612.9518 613.2106 613.5192 613.8704 614.2561 614.5792 614.8053 615.0072 615.2227 615.5494 615.9977 616.4421 616.6973 616.6581 616.4373 616.2974 616.5849 617.6398 619.6616 622.929 627.0149 631.4208 634.8638 636.7439 637.9455 638.842 -9999 -9999 -9999 -9999 -9999 -9999 -9999 -9999 -9999 -9999 -9999 -9999 -9999 -9999 -9999 -9999 -9999 -9999 -9999 -9999 -9999 -9999 -9999 -9999 -9999 -9999 -9999 -9999 -9999 -9999 -9999 -9999 -9999 -9999 -9999 -9999 -9999 -9999 -9999 -9999 -9999 -9999 -9999 -9999 -9999 -9999 -9999 -9999 -9999 -9999 -9999 -9999
-9999 -9999 -9999 -9999 -9999 -9999 -9999 -9999 -9999 -9999 -9999 -9999 -9999 -9999 -9999 -9999 643.6484 640.4055 636.5061 632.0195 627.2087 622.4681 618.3132 615.2048 613.434 612.6837 612.5283 612.6293 612.9406 613.2203 613.5673 614.0717 614.8088 615.9762 617.9054 620.5907 624.1343 628.3884 632.6646 635.8601 637.6182 638.1376 638.0283 -9999 -9999 637.7695 638.6764 638.4144 637.0544 634.9527 632.5177 629.896 627.1462 623.9816 620.3291 617.3925 615.3626 614.2715 613.6375 612.9148 612.1464 611.418 610.7618 610.2183 609.8002 609.491 609.2684 609.1198 609.0406 609.0266 609.0583 609.1022 609.1681 609.2753 609.429 609.6176 609.8312 610.069 610.3467 610.6856 611.1041 611.6208 612.2296 612.8817 613.5277 614.0811 614.4821 614.8024 615.0854 615.3013 615.4009 615.4242 615.3951 615.3396 615.2607 615.1957 615.1365 615.024 614.8009 614.3901 613.9117 613.553 613.6044 613.6582 613.6912 613.6364 613.4839 613.2581 612.9707 612.713 612.5284 612.4836 612.6761 612.9026 613.1989 613.5741 614.006 614.4292 614.788 614.9322 615.1501 615.4994 615.9775 616.4473 616.703 616.6233 616.3087 616.0637 616.2696 617.3046 619.4727 623.1792 627.5092 631.8731 634.9538 636.2769 637.2769 -9999 -9999 -9999 -9999 -9999 -9999 -9999 -9999 -9999 -9999 -9999 -9999 -9999 -9999 -9999 -9999 -9999 -9999 -9999 -9999 -9999 -9999 -9999 -9999 -9999 -9999 -9999 -9999 -9999 -9999 -9999 -9999 -9999 -9999 -9999 -9999 -9999 -9999 -9999 -9999 -9999 -9999 -9999 -9999 -9999 -9999 -9999 -9999 -9999 -9999 -9999 -9999 -9999
-9999 -9999 -9999 -9999 -9999 -9999 -9999 -9999 -9999 -9999 -9999 -9999 -9999 -9999 -9999 -9999 643.7702 640.5547 636.4041 631.5595 626.525 621.8875 617.9975 615.056 613.2226 612.317 612.1103 612.1781 612.4639 612.8256 613.2604 613.7653 614.3715 615.2455 617.2316 620.0262 623.8619 628.3751 632.7313 635.8727 637.3961 637.9807 637.9422 -9999 636.2917 636.249 636.5853 635.913 634.1552 631.7308 629.0518 626.5162 623.9465 621.1577 618.3438 616.1588 614.653 613.7062 613.1068 612.5439 611.8535 611.2019 610.5908 610.0836 609.7029 609.431 609.2401 609.1123 609.0426 609.0283 609.0551 609.1029 609.1793 609.3033 609.4828 609.7026 609.9481 610.2191 610.5272 610.8961 611.3513 611.9025 612.549 613.2506 613.9343 614.4983 614.8024 615.0375 615.255 615.4341 615.5406 615.5815 615.5682 615.5036 615.4122 615.2949 615.187 615.0326 614.8005 614.4589 614.0696 613.7941 613.8358 613.9861 614.1478 614.2339 614.1639 613.9697 613.6046 613.2397 612.8925 612.6387 612.5685 612.6783 612.9221 613.2866 613.7402 614.2035 614.5859 614.8051 615.0593 615.424 615.9139 616.399 616.6561 616.5548 616.1835 615.8602 616.012 617.0777 619.4538 623.5486 628.0848 632.3721 635.0383 635.6192 636.1461 -9999 -9999 -9999 -9999 -9999 -9999 -9999 -9999 -9999 -9999 -9999 -9999 -9999 -9999 -9999 -9999 -9999 -9999 -9999 -9999 -9999 -9999 -9999 -9999 -9999 -9999 -9999 -9999 -9999 -9999 -9999 -9999 -9999 -9999 -9999 -9999 -9999 -9999 -9999 -9999 -9999 -9999 -9999 -9999 -9999 -9999 -9999 -9999 -9999 -9999 -9999 -9999 -9999
-9999 -9999 -9999 -9999 -9999 -9999 -9999 -9999 -9999 -9999 -9999 -9999 -9999 -9999 -9999 646.0673 643.8889 640.7374 636.4863 631.3752 626.0814 621.4631 617.8025 614.964 613.0836 612.0642 611.7521 611.7649 612.0613 612.538 613.1397 613.8043 614.5414 615.3625 617.4917 620.5095 624.4733 628.8741 632.9756 635.7426 636.2903 637.3372 637.9369 636.5787 635.3206 634.5479 634.2341 633.2128 631.1341 628.5731 625.9756 623.4178 620.9506 618.5871 616.5425 615.0128 613.9411 613.149 612.5598 612.0353 611.4821 610.9601 610.4071 609.9496 609.6134 609.3835 609.228 609.1251 609.0674 609.0556 609.0816 609.131 609.2129 609.3486 609.546 609.7896 610.0582 610.3497 610.6789 611.0618 611.5257 612.0895 612.744 613.4551 614.1642 614.767 614.955 615.1094 615.2909 615.4611 615.5811 615.6416 615.6429 615.5891 615.4854 615.3551 615.1981 615.024 614.8003 614.5209 614.2107 614.0034 614.0268 614.2256 614.508 614.7849 614.8288 614.7281 614.3019 613.9215 613.442 612.9774 612.6337 612.5946 612.7427 613.0507 613.4852 613.9721 614.4187 614.7852 614.991 615.3012 615.7841 616.2689 616.5383 616.4437 616.0648 615.7229 615.874 616.9964 619.5112 623.7901 628.7908 633.0983 635.6807 636.7274 637.3201 -9999 -9999 -9999 -9999 -9999 -9999 -9999 -9999 -9999 -9999 -9999 -9999 -9999 -9999 -9999 -9999 -9999 -9999 -9999 -9999 -9999 -9999 -9999 -9999 -9999 -9999 -9999 -9999 -9999 -9999 -9999 -9999 -9999 -9999 -9999 -9999 -9999 -9999 -9999 -9999 -9999 -9999 -9999 -9999 -9999 -9999 -9999 -9999 -9999 -9999 -9999 -9999 -9999
-9999 -9999 -9999 -9999 -9999 -9999 -9999 -9999 -9999 -9999 -9999 -9999 -9999 -9999 -9999 646.2651 644.1496 641.1013 636.8052 631.475 625.9233 621.1777 617.7565 614.9312 612.9741 611.8244 611.4702 611.4957 611.78 612.2932 612.9803 613.7864 614.7216 615.9622 618.2538 621.3545 625.0823 629.0334 632.6606 635.0851 635.0672 636.5543 637.8907 636.413 634.6113 633.2571 632.3362 630.7568 628.2701 625.8219 623.2694 620.7417 618.4813 616.5985 615.1806 614.2981 613.4745 612.739 612.1257 611.5957 611.0984 610.6359 610.1864 609.8101 609.5307 609.3449 609.2261 609.1505 609.1088 609.1024 609.1309 609.1819 609.2666 609.4092 609.6168 609.8756 610.1611 610.465 610.7984 611.1816 611.6356 612.1771 612.7996 613.4629 614.0927 614.5837 614.8033 614.9857 615.1952 615.3882 615.5321 615.6121 615.6296 615.5868 615.4913 615.3527 615.1904 615.0071 614.7997 614.5617 614.3174 614.1823 614.2295 614.4641 614.8431 615.2944 615.4905 615.3492 614.9304 614.6815 614.1256 613.5251 613.0072 612.7225 612.7063 612.9001 613.2611 613.7161 614.1597 614.5303 614.7955 615.0878 615.5646 616.0637 616.356 616.3082 615.9792 615.6853 615.9091 617.1609 619.8758 624.3964 629.637 633.9571 636.575 637.8168 638.2573 -9999 -9999 -9999 -9999 -9999 -9999 -9999 -9999 -9999 -9999 -9999 -9999 -9999 -9999 -9999 -9999 -9999 -9999 -9999 -9999 -9999 -9999 -9999 -9999 -9999 -9999 -9999 -9999 -9999 -9999 -9999 -9999 -9999 -9999 -9999 -9999 -9999 -9999 -9999 -9999 -9999 -9999 -9999 -9999 -9999 -9999 -9999 -9999 -9999 -9999 -9999 -9999 -9999
-9999 -9999 -9999 -9999 -9999 -9999 -9999 -9999 -9999 -9999 -9999 -9999 -9999 -9999 -9999 646.5726 644.6064 641.593 637.1945 631.6577 625.9006 621.0597 617.7977 614.8535 612.8903 611.7762 611.3741 611.4058 611.7328 612.1227 612.8505 613.8212 615.0422 616.8263 618.887 621.5547 624.5366 627.5807 630.585 633.2123 635.0098 636.7001 637.2755 636.1351 634.2693 632.2726 630.8941 628.6069 625.752 623.1553 620.6906 618.4852 616.6909 615.262 614.4377 613.9858 613.2289 612.4817 611.836 611.2885 610.8087 610.3821 610.0056 609.7 609.474 609.3253 609.2363 609.1846 609.16 609.1617 609.1935 609.2485 609.3342 609.4822 609.693 609.9601 610.256 610.5683 610.8986 611.2639 611.692 612.1959 612.7634 613.3535 613.905 614.3405 614.6123 614.8074 615.0497 615.2603 615.4211 615.5157 615.5441 615.5125 615.4284 615.3029 615.148 614.9799 614.7994 614.5963 614.3979 614.3519 614.484 614.8302 615.4137 615.959 616.2176 616.0826 615.7081 615.3294 614.7806 614.1418 613.5024 613.0337 612.8101 612.8497 613.0946 613.4738 613.8828 614.2456 614.5389 614.8257 615.3132 615.8125 616.1512 616.1864 615.9563 615.7682 616.1236 617.5807 620.5905 625.4219 630.7021 634.8492 637.2518 638.3722 638.9115 -9999 -9999 -9999 -9999 -9999 -9999 -9999 -9999 -9999 -9999 -9999 -9999 -9999 -9999 -9999 -9999 -9999 -9999 -9999 -9999 -9999 -9999 -9999 -9999 -9999 -9999 -9999 -9999 -9999 -9999 -9999 -9999 -9999 -9999 -9999 -9999 -9999 -9999 -9999 -9999 -9999 -9999 -9999 -9999 -9999 -9999 -9999 -9999 -9999 -9999 -9999 -9999 -9999
-9999 -9999 -9999 -9999 -9999 -9999 -9999 -9999 -9999 -9999 -9999 -9999 -9999 -9999 -9999 647.2122 645.4172 642.2908 637.6704 631.9028 626.0187 620.6989 616.9146 614.3135 612.6648 611.7535 611.3384 611.2886 611.4913 611.8375 612.6456 613.7065 614.9667 616.7183 618.4054 620.3277 622.2078 624.2479 626.7122 629.5414 632.3766 634.7132 635.8332 635.4891 634.1403 632.1752 629.689 626.5065 623.4197 620.7508 618.5289 616.8378 615.5604 614.6141 613.9064 613.4651 612.9151 612.2521 611.643 611.1111 610.6476 610.2446 609.9111 609.6517 609.4639 609.3405 609.2691 609.2313 609.2181 609.228 609.2622 609.3224 609.4105 609.558 609.7733 610.0403 610.3412 610.6591 610.9823 611.3258 611.7184 612.175 612.686 613.2139 613.7056 614.1299 614.4819 614.7918 614.9515 615.1265 615.2805 615.3776 615.4117 615.3879 615.3168 615.2095 615.0807 614.9425 614.8006 614.6777 614.5299 614.5188 614.7845 615.3422 616.0811 616.7251 617.019 616.8271 616.3954 615.9109 615.3206 614.6925 613.9873 613.4048 613.0293 612.8972 613.0015 613.2828 613.6425 614.0113 614.3776 614.7742 615.116 615.5833 615.969 616.12 616.0269 615.9667 616.4679 618.1409 621.4728 626.4917 631.6542 635.3846 637.1749 638.2756 -9999 -9999 -9999 -9999 -9999 -9999 -9999 -9999 -9999 -9999 -9999 -9999 -9999 -9999 -9999 -9999 -9999 -9999 -9999 -9999 -9999 -9999 -9999 -9999 -9999 -9999 -9999 -9999 -9999 -9999 -9999 -9999 -9999 -9999 -9999 -9999 -9999 -9999 -9999 -9999 -9999 -9999 -9999 -9999 -9999 -9999 -9999 -9999 -9999 -9999 -9999 -9999 -9999 -9999
-9999 -9999 -9999 -9999 -9999 -9999 -9999 -9999 -9999 -9999 -9999 -9999 -9999 -9999 -9999 647.8698 646.1447 642.9705 638.1702 632.1407 625.9807 620.3765 616.3035 613.8438 612.4487 611.7432 611.3281 611.2053 611.3441 611.729 612.3727 613.308 614.2333 615.4362 616.7928 617.8263 618.806 620.1413 622.2166 625.1443 628.3621 631.3767 633.3986 633.9783 633.129 630.957 627.856 624.3185 621.2433 618.7556 616.9508 615.6713 614.7913 614.0641 613.4681 613.0219 612.562 612.0278 611.498 611.0126 610.5854 610.2172 609.9132 609.6785 609.5099 609.3983 609.3326 609.2986 609.2863 609.2992 609.3349 609.3956 609.4883 609.631 609.8453 610.1141 610.4114 610.7336 611.0472 611.3693 611.7294 612.1423 612.6035 613.0868 613.5378 613.949 614.3228 614.6364 614.8033 614.9899 615.1335 615.2216 615.2539 615.238 615.1787 615.0923 614.9966 614.9148 614.8485 614.7986 614.649 614.6437 614.9681 615.7946 616.6793 617.4397 617.788 617.4732 616.9492 616.381 615.679 614.9149 614.3464 613.7526 613.2821 613.0203 612.9833 613.161 613.4521 613.7948 614.158 614.5229 614.8378 615.3749 615.8573 616.1467 616.2067 616.2766 616.8876 618.7131 622.3841 627.3541 632.1642 635.223 636.5552 637.7676 -9999 -9999 -9999 -9999 -9999 -9999 -9999 -9999 -9999 -9999 -9999 -9999 -9999 -9999 -9999 -9999 -9999 -9999 -9999 -9999 -9999 -9999 -9999 -9999 -9999 -9999 -9999 -9999 -9999 -9999 -9999 -9999 -9999 -9999 -9999 -9999 -9999 -9999 -9999 -9999 -9999 -9999 -9999 -9999 -9999 -9999 -9999 -9999 -9999 -9999 -9999 -9999 -9999 -9999
-9999 -9999 -9999 -9999 -9999 -9999 -9999 -9999 -9999 -9999 -9999 -9999 -9999 -9999 -9999 648.1396 646.6225 643.4678 638.6382 632.5106 626.1255 620.3094 616.0563 613.6039 612.3328 611.7395 611.3033 611.0933 611.1195 611.3679 611.8064 612.4702 613.1 613.9307 614.764 615.2977 615.8632 616.8498 618.574 621.119 624.3052 627.5966 630.2188 631.5123 630.9126 628.7772 625.7128 622.37 619.4445 617.3607 615.9089 614.9276 614.3434 613.7813 613.2576 612.7849 612.3456 611.8937 611.4396 611.0086 610.6226 610.2871 609.9999 609.7738 609.6077 609.4957 609.4269 609.3892 609.3713 609.3771 609.4119 609.4695 609.5592 609.6981 609.8995 610.1636 610.4637 610.7844 611.0798 611.3862 611.7245 612.1023 612.5269 612.9878 613.4481 613.8864 614.2838 614.6004 614.7993 614.9317 615.0208 615.0726 615.0901 615.0801 615.0362 614.9685 614.896 614.8634 614.8384 614.8 614.7368 614.8202 615.4831 616.2174 617.0175 617.8323 618.1431 617.8871 617.4758 616.8076 616.0327 615.3021 614.7394 614.0792 613.5298 613.1773 613.0445 613.118 613.3365 613.6376 613.9967 614.3949 614.804 615.3236 615.8636 616.291 616.5131 616.7104 617.395 619.2913 623.1392 628.0892 632.3539 634.4769 636.3867 637.622 -9999 -9999 -9999 -9999 -9999 -9999 -9999 -9999 -9999 -9999 -9999 -9999 -9999 -9999 -9999 -9999 -9999 -9999 -9999 -9999 -9999 -9999 -9999 -9999 -9999 -9999 -9999 -9999 -9999 -9999 -9999 -9999 -9999 -9999 -9999 -9999 -9999 -9999 -9999 -9999 -9999 -9999 -9999 -9999 -9999 -9999 -9999 -9999 -9999 -9999 -9999 -9999 -9999 -9999
-9999 -9999 -9999 -9999 -9999 -9999 -9999 -9999 -9999 -9999 -9999 -9999 -9999 -9999 -9999 647.9871 646.4855 643.5853 639.0082 632.9594 626.4541 620.4799 616.0885 613.5726 612.3127 611.7338 611.2375 610.9346 610.8504 610.9724 611.2672 611.6863 611.9816 612.6161 613.2226 613.6848 614.3136 615.3464 616.7918 618.4507 620.9746 623.9856 626.5973 628.0674 627.7401 626.0184 623.3946 620.5502 618.1296 616.434 615.3249 614.7111 614.1561 613.6777 613.2357 612.7312 612.2776 611.8597 611.4589 611.076 610.7267 610.4198 610.1405 609.914 609.7437 609.622 609.5441 609.4977 609.4736 609.4675 609.4932 609.5483 609.6273 609.7542 609.9403 610.1827 610.4727 610.7726 611.0626 611.3602 611.6807 612.0398 612.4518 612.9147 613.4004 613.8789 614.306 614.6286 614.7997 614.8892 614.9351 614.9459 614.9337 614.9287 614.9066 614.8618 614.8002 614.8156 614.8291 614.8176 614.7999 614.8062 615.2371 615.9215 616.7765 617.7166 618.1802 618.1379 617.7753 616.9842 616.1404 615.4093 614.8194 614.2449 613.7117 613.3232 613.1315 613.1319 613.2922 613.5558 613.9051 614.3303 614.8041 615.3094 615.9216 616.5082 616.9266 617.2882 618.0417 619.9857 623.9732 628.8152 632.6977 634.2668 635.6865 636.9658 -9999 -9999 -9999 -9999 -9999 -9999 -9999 -9999 -9999 -9999 -9999 -9999 -9999 -9999 -9999 -9999 -9999 -9999 -9999 -9999 -9999 -9999 -9999 -9999 -9999 -9999 -9999 -9999 -9999 -9999 -9999 -9999 -9999 -9999 -9999 -9999 -9999 -9999 -9999 -9999 -9999 -9999 -9999 -9999 -9999 -9999 -9999 -9999 -9999 -9999 -9999 -9999 -9999 -9999
-9999 -9999 -9999 -9999 -9999 -9999 -9999 -9999 -9999 -9999 -9999 -9999 -9999 -9999 -9999 647.8915 646.4244 643.6718 639.3654 633.4604 626.9164 620.8337 616.322 613.715 612.3793 611.7204 611.1313 610.7363 610.5588 610.5813 610.7628 611.0391 611.318 611.7699 612.2562 612.6775 613.4548 614.6532 616.006 616.8136 618.3333 620.762 623.0003 624.2738 624.1049 623.036 621.1087 618.8975 617.1068 615.785 614.8801 614.3918 613.936 613.496 613.0931 612.6812 612.2717 611.8832 611.516 611.1683 610.8445 610.5529 610.2893 610.0679 609.8933 609.764 609.6739 609.6171 609.5847 609.572 609.5827 609.6299 609.7025 609.8069 609.9698 610.1896 610.4498 610.7371 611.02 611.3085 611.6219 611.9715 612.3789 612.8491 613.3628 613.8834 614.357 614.6951 614.8006 614.8512 614.8632 614.8542 614.8004 614.8 614.8 614.7998 614.775 614.8 614.8275 614.8213 614.8105 614.8 614.8308 615.292 615.9526 616.8651 617.5535 617.6597 617.2527 616.6155 615.8691 615.2357 614.7925 614.3187 613.8401 613.4515 613.2308 613.1929 613.303 613.5252 613.8496 614.269 614.7641 615.2009 615.9161 616.6937 617.3629 617.975 618.8274 620.8299 624.8849 629.6349 633.3707 635.0505 636.1404 637.1036 -9999 -9999 -9999 -9999 -9999 -9999 -9999 -9999 -9999 -9999 -9999 -9999 -9999 -9999 -9999 -9999 -9999 -9999 -9999 -9999 -9999 -9999 -9999 -9999 -9999 -9999 -9999 -9999 -9999 -9999 -9999 -9999 -9999 -9999 -9999 -9999 -9999 -9999 -9999 -9999 -9999 -9999 -9999 -9999 -9999 -9999 -9999 -9999 -9999 -9999 -9999 -9999 -9999 -9999
-9999 -9999 -9999 -9999 -9999 -9999 -9999 -9999 -9999 -9999 -9999 -9999 -9999 -9999 -9999 648.0165 646.5763 643.7988 639.8121 634.0906 627.5251 621.3757 616.7589 614.0255 612.537 611.7042 610.9947 610.5159 610.2729 610.2341 610.3552 610.5804 610.8635 611.2441 611.6639 611.8983 612.6791 613.8146 614.6356 615.2098 616.1671 618.0079 619.9983 621.2614 621.4305 620.7338 619.3528 617.7997 616.4441 615.4402 614.7933 614.2848 613.8198 613.3853 612.9829 612.6012 612.2373 611.8911 611.5605 611.2463 610.9497 610.6755 610.4275 610.2147 610.0402 609.9055 609.8073 609.7413 609.6995 609.6809 609.684 609.7157 609.7814 609.8701 610.0013 610.192 610.4293 610.6916 610.9673 611.2517 611.5552 611.9002 612.3011 612.7714 613.2997 613.8538 614.3787 614.7916 614.8694 614.8643 614.8002 614.7994 614.7323 614.7035 614.6976 614.7036 614.7107 614.7479 614.7996 614.8 614.8116 614.8051 614.8 614.8082 614.9907 615.646 616.1312 616.2679 616.0851 615.7291 615.2921 614.8334 614.6017 614.2949 613.9089 613.5537 613.3278 613.2668 613.3422 613.519 613.7833 614.1221 614.4993 614.8976 615.7654 616.709 617.6414 618.6083 619.6362 621.8669 626.0404 630.697 634.2778 635.9192 636.7306 -9999 -9999 -9999 -9999 -9999 -9999 -9999 -9999 -9999 -9999 -9999 -9999 -9999 -9999 -9999 -9999 -9999 -9999 -9999 -9999 -9999 -9999 -9999 -9999 -9999 -9999 -9999 -9999 -9999 -9999 -9999 -9999 -9999 -9999 -9999 -9999 -9999 -9999 -9999 -9999 -9999 -9999 -9999 -9999 -9999 -9999 -9999 -9999 -9999 -9999 -9999 -9999 -9999 -9999 -9999
-9999 -9999 -9999 -9999 -9999 -9999 -9999 -9999 -9999 -9999 -9999 -9999 -9999 -9999 -9999 648.3394 646.9028 643.8167 640.3732 634.9055 628.3257 622.1751 617.4625 614.5338 612.8225 611.7148 610.8651 610.3084 610.0212 609.954 610.0512 610.2557 610.517 610.8096 611.0897 611.3226 611.8428 612.6563 613.3492 613.9706 614.844 616.1298 617.9895 619.2704 619.6584 619.2331 618.1889 617.0744 616.0029 615.1897 614.7467 614.2243 613.7522 613.3192 612.923 612.5546 612.2086 611.8851 611.5834 611.2985 611.0298 610.7794 610.5496 610.3474 610.1781 610.0411 609.9392 609.8657 609.8191 609.7909 609.7887 609.813 609.8628 609.9417 610.0488 610.2034 610.4131 610.6598 610.9232 611.1991 611.4943 611.8243 612.2112 612.6666 613.1842 613.7302 614.2437 614.6356 614.7991 614.7996 614.7266 614.6726 614.6216 614.5917 614.5827 614.5883 614.6029 614.6314 614.6682 614.735 614.7999 614.8185 614.8206 614.7995 614.701 614.8143 614.9053 614.9238 614.8948 614.8458 614.7827 614.5881 614.4528 614.2424 613.9319 613.6219 613.4119 613.3407 613.3984 613.5351 613.7509 614.0323 614.3777 614.8081 615.541 616.4719 617.498 618.61 620.0898 622.7656 627.1398 631.6855 635.0135 636.4976 637.004 -9999 -9999 -9999 -9999 -9999 -9999 -9999 -9999 -9999 -9999 -9999 -9999 -9999 -9999 -9999 -9999 -9999 -9999 -9999 -9999 -9999 -9999 -9999 -9999 -9999 -9999 -9999 -9999 -9999 -9999 -9999 -9999 -9999 -9999 -9999 -9999 -9999 -9999 -9999 -9999 -9999 -9999 -9999 -9999 -9999 -9999 -9999 -9999 -9999 -9999 -9999 -9999 -9999 -9999 -9999
-9999 -9999 -9999 -9999 -9999 -9999 -9999 -9999 -9999 -9999 -9999 -9999 -9999 -9999 -9999 648.7297 647.6552 645.294 641.5845 636.0571 629.5078 623.3179 618.4578 615.1976 613.2648 611.7971 610.7848 610.1505 609.8301 609.7543 609.8503 610.0483 610.2845 610.5143 610.7094 610.9003 611.2507 611.7801 612.3979 613.1122 614.1302 615.2635 617.0196 618.2269 618.7345 618.551 617.8303 616.7911 615.7313 614.8764 614.4456 614.0194 613.6178 613.2352 612.8701 612.5264 612.2034 611.9003 611.6183 611.3555 611.1086 610.8773 610.6645 610.473 610.3088 610.1746 610.0682 609.9932 609.9398 609.9089 609.8957 609.9119 609.956 610.0182 610.1082 610.2362 610.4125 610.6367 610.892 611.1616 611.4452 611.7561 612.1158 612.5403 613.0258 613.5386 614.0181 614.3844 614.5782 614.6224 614.5801 614.5325 614.4878 614.4603 614.4531 614.4613 614.4811 614.5143 614.5631 614.6521 614.7407 614.8 614.8282 614.7997 614.6375 614.5323 614.4525 614.3957 614.3559 614.3783 614.4038 614.3609 614.308 614.1618 613.9131 613.652 613.4742 613.416 613.4615 613.5815 613.749 614.0034 614.3517 614.7955 615.2855 616.0654 617.1221 618.4023 620.2872 623.5349 628.1053 632.4758 635.4794 636.7094 636.8782 -9999 -9999 -9999 -9999 -9999 -9999 -9999 -9999 -9999 -9999 -9999 -9999 -9999 -9999 -9999 -9999 -9999 -9999 -9999 -9999 -9999 -9999 -9999 -9999 -9999 -9999 -9999 -9999 -9999 -9999 -9999 -9999 -9999 -9999 -9999 -9999 -9999 -9999 -9999 -9999 -9999 -9999 -9999 -9999 -9999 -9999 -9999 -9999 -9999 -9999 -9999 -9999 -9999 -9999 -9999
-9999 -9999 -9999 -9999 -9999 -9999 -9999 -9999 -9999 -9999 -9999 -9999 -9999 -9999 -9999 -9999 648.0931 646.1398 642.4479 637.0272 630.6499 624.5215 619.345 615.7723 613.7483 611.9119 610.7412 610.0481 609.7106 609.6375 609.7438 609.9481 610.1724 610.3624 610.5041 610.6354 610.8627 611.2277 611.7336 612.3908 613.4102 614.6517 616.2326 617.6567 618.3223 618.3087 617.7872 616.7153 615.6269 614.8101 614.2744 613.8329 613.4462 613.1016 612.7826 612.4796 612.1918 611.9191 611.6617 611.42 611.1929 610.9795 610.7805 610.6 610.4415 610.3082 610.2028 610.1218 610.0677 610.031 610.0133 610.0163 610.0486 610.1049 610.1777 610.2821 610.433 610.6328 610.8716 611.1338 611.4078 611.6984 612.0264 612.4113 612.8533 613.3234 613.7662 614.1138 614.3234 614.4056 614.405 614.3739 614.3386 614.3195 614.3164 614.3297 614.3578 614.4015 614.4668 614.559 614.6569 614.7414 614.8 614.7997 614.657 614.5054 614.3763 614.2685 614.2034 614.1744 614.2148 614.2108 614.1813 614.0755 613.8741 613.6608 613.5236 613.4874 613.548 613.6437 613.7693 613.9702 614.3059 614.7618 615.109 615.7312 616.7488 618.1313 620.2252 624.0322 628.7507 632.9642 635.6902 636.6519 636.5 -9999 -9999 -9999 -9999 -9999 -9999 -9999 -9999 -9999 -9999 -9999 -9999 -9999 -9999 -9999 -9999 -9999 -9999 -9999 -9999 -9999 -9999 -9999 -9999 -9999 -9999 -9999 -9999 -9999 -9999 -9999 -9999 -9999 -9999 -9999 -9999 -9999 -9999 -9999 -9999 -9999 -9999 -9999 -9999 -9999 -9999 -9999 -9999 -9999 -9999 -9999 -9999 -9999 -9999 -9999
-9999 -9999 -9999 -9999 -9999 -9999 -9999 -9999 -9999 -9999 -9999 -9999 -9999 -9999 -9999 -9999 647.9881 646.1749 642.7243 637.6125 631.4737 625.3967 619.8807 615.9321 613.5549 611.8047 610.647 609.9798 609.6626 609.6007 609.717 609.9305 610.158 610.3317 610.436 610.5112 610.6386 610.8923 611.2826 611.8682 612.9154 614.1742 615.6425 617.4579 618.1665 618.15 617.6848 616.5486 615.4338 614.7417 614.1489 613.6779 613.2875 612.9537 612.6614 612.3971 612.1512 611.9188 611.6971 611.4846 611.2806 611.0858 610.902 610.7316 610.5798 610.4498 610.3424 610.2605 610.2002 610.1616 610.1378 610.1321 610.1497 610.192 610.2559 610.3423 610.4678 610.6436 610.8651 611.1154 611.3787 611.6519 611.9504 612.2965 612.6944 613.1212 613.5293 613.8647 614.0817 614.1901 614.2191 614.2082 614.1857 614.173 614.1765 614.1957 614.2311 614.2834 614.3569 614.4471 614.5427 614.6327 614.703 614.724 614.661 614.5437 614.4258 614.3173 614.2186 614.156 614.1235 614.1335 614.1028 614.0044 613.8411 613.6729 613.5842 613.5905 613.6532 613.7245 613.7912 613.9152 614.135 614.474 614.8686 615.7374 616.7689 618.1896 620.3753 624.4515 629.2135 633.2624 635.7651 636.4874 -9999 -9999 -9999 -9999 -9999 -9999 -9999 -9999 -9999 -9999 -9999 -9999 -9999 -9999 -9999 -9999 -9999 -9999 -9999 -9999 -9999 -9999 -9999 -9999 -9999 -9999 -9999 -9999 -9999 -9999 -9999 -9999 -9999 -9999 -9999 -9999 -9999 -9999 -9999 -9999 -9999 -9999 -9999 -9999 -9999 -9999 -9999 -9999 -9999 -9999 -9999 -9999 -9999 -9999 -9999 -9999
-9999 -9999 -9999 -9999 -9999 -9999 -9999 -9999 -9999 -9999 -9999 -9999 -9999 -9999 -9999 -9999 647.6937 646.0646 642.8721 638.0045 631.9432 625.6909 620.056 615.9297 613.3982 611.7076 610.6061 609.9637 609.6776 609.6344 609.7542 609.9677 610.2001 610.3782 610.4671 610.5035 610.5637 610.7548 611.1312 611.7679 612.8093 614.0446 615.4745 617.4081 618.0646 617.8779 617.2812 616.1678 615.0109 614.4556 613.9636 613.5219 613.1436 612.8214 612.5466 612.309 612.0977 611.9031 611.7186 611.5399 611.3647 611.1929 611.0266 610.8689 610.7244 610.5981 610.4919 610.4061 610.3433 610.2993 610.2711 610.2565 610.2623 610.2906 610.3395 610.4127 610.5187 610.6699 610.8684 611.1033 611.3561 611.616 611.8921 612.2062 612.5668 612.9548 613.3302 613.6474 613.8727 613.994 614.0402 614.0432 614.0305 614.0244 614.0341 614.0602 614.1023 614.1605 614.2335 614.3159 614.4011 614.4834 614.554 614.5933 614.5833 614.5356 614.4542 614.3795 614.2767 614.1993 614.1276 614.0834 614.0334 613.9434 613.8123 613.6932 613.6525 613.7107 613.7924 613.8485 613.8782 613.9198 614.0316 614.3271 614.8746 615.9918 617.2639 618.7021 620.7362 624.8131 629.5289 633.4418 635.8099 636.436 -9999 -9999 -9999 -9999 -9999 -9999 -9999 -9999 -9999 -9999 -9999 -9999 -9999 -9999 -9999 -9999 -9999 -9999 -9999 -9999 -9999 -9999 -9999 -9999 -9999 -9999 -9999 -9999 -9999 -9999 -9999 -9999 -9999 -9999 -9999 -9999 -9999 -9999 -9999 -9999 -9999 -9999 -9999 -9999 -9999 -9999 -9999 -9999 -9999 -9999 -9999 -9999 -9999 -9999 -9999 -9999
-9999 -9999 -9999 -9999 -9999 -9999 -9999 -9999 -9999 -9999 -9999 -9999 -9999 -9999 -9999 -9999 647.4912 646.0721 643.1561 638.4773 632.4078 625.9044 620.1824 615.9942 613.4367 611.7329 610.6472 610.027 609.7497 609.7123 609.8268 610.0317 610.2625 610.4501 610.5481 610.5709 610.601 610.7367 611.1132 611.7927 612.8912 614.1107 615.4623 617.3969 618.0571 617.8488 617.0779 615.9581 614.8814 614.3226 613.8178 613.379 613.0124 612.7034 612.4458 612.2328 612.0537 611.8943 611.7438 611.5961 611.4484 611.3 611.153 611.0098 610.8749 610.7535 610.6492 610.5623 610.4944 610.4464 610.4128 610.391 610.3856 610.4016 610.4375 610.4953 610.5835 610.712 610.886 611.1002 611.34 611.5902 611.8527 612.1445 612.4769 612.8335 613.1783 613.4725 613.6888 613.8177 613.8729 613.8833 613.8761 613.8748 613.8901 613.9213 613.9683 614.0288 614.0986 614.1708 614.2419 614.3098 614.3706 614.4147 614.4319 614.4214 614.386 614.3445 614.2856 614.2212 614.1572 614.0724 613.9999 613.8953 613.782 613.7089 613.7195 613.8353 613.9509 614.007 614.0037 613.9918 614.038 614.2938 614.9216 616.2276 617.6771 619.2883 621.082 625.0893 629.7394 633.5298 635.8109 636.4479 -9999 -9999 -9999 -9999 -9999 -9999 -9999 -9999 -9999 -9999 -9999 -9999 -9999 -9999 -9999 -9999 -9999 -9999 -9999 -9999 -9999 -9999 -9999 -9999 -9999 -9999 -9999 -9999 -9999 -9999 -9999 -9999 -9999 -9999 -9999 -9999 -9999 -9999 -9999 -9999 -9999 -9999 -9999 -9999 -9999 -9999 -9999 -9999 -9999 -9999 -9999 -9999 -9999 -9999 -9999 -9999
-9999 -9999 -9999 -9999 -9999 -9999 -9999 -9999 -9999 -9999 -9999 -9999 -9999 -9999 -9999 -9999 647.4469 646.2487 643.5688 639.0264 632.9462 626.2969 620.4621 616.2625 613.7814 611.9508 610.858 610.202 609.8796 609.8118 609.9042 610.0896 610.3146 610.5093 610.6254 610.6607 610.6788 610.7955 611.1262 611.7726 612.7726 613.9532 615.344 617.2517 618.0002 617.846 616.9669 615.83 614.8282 614.1388 613.601 613.1843 612.8519 612.5702 612.3403 612.1588 612.0162 611.8933 611.7767 611.6594 611.5383 611.4127 611.2841 611.1556 611.0311 610.9158 610.8138 610.7267 610.6556 610.6021 610.5632 610.5351 610.5206 610.5259 610.5502 610.5942 610.6653 610.7719 610.92 611.1104 611.3345 611.577 611.8328 612.1119 612.4241 612.7561 613.073 613.3407 613.537 613.6567 613.7115 613.7252 613.7214 613.7224 613.7418 613.7778 613.8276 613.8893 613.9555 614.0195 614.0759 614.1282 614.1745 614.2109 614.2372 614.2527 614.2517 614.243 614.222 614.187 614.1404 614.0809 613.9888 613.8794 613.7749 613.7305 613.7858 613.9517 614.1017 614.168 614.1494 614.0972 614.1058 614.2736 614.7696 615.7069 617.0514 618.7192 620.985 625.1871 629.8458 633.4861 635.657 636.3688 -9999 -9999 -9999 -9999 -9999 -9999 -9999 -9999 -9999 -9999 -9999 -9999 -9999 -9999 -9999 -9999 -9999 -9999 -9999 -9999 -9999 -9999 -9999 -9999 -9999 -9999 -9999 -9999 -9999 -9999 -9999 -9999 -9999 -9999 -9999 -9999 -9999 -9999 -9999 -9999 -9999 -9999 -9999 -9999 -9999 -9999 -9999 -9999 -9999 -9999 -9999 -9999 -9999 -9999 -9999 -9999
-9999 -9999 -9999 -9999 -9999 -9999 -9999 -9999 -9999 -9999 -9999 -9999 -9999 -9999 -9999 -9999 647.5718 646.6191 644.1227 639.6483 633.5556 626.8293 620.8544 616.6882 614.4559 612.4361 611.252 610.491 610.0619 609.9117 609.955 610.1122 610.3284 610.5348 610.6678 610.7234 610.7511 610.8526 611.1592 611.7629 612.688 613.813 615.1366 616.8669 617.8521 617.822 616.7952 615.5896 614.6719 613.869 613.2861 612.8884 612.6119 612.3785 612.1968 612.063 611.971 611.8902 611.808 611.7208 611.6274 611.5259 611.4171 611.3044 611.1917 611.0836 610.9852 610.8987 610.8252 610.7668 610.722 610.6882 610.6661 610.6626 610.6779 610.7096 610.7645 610.851 610.9749 611.1403 611.3459 611.5803 611.8331 612.1063 612.4035 612.714 613.0052 613.2439 613.4137 613.5143 613.5593 613.5699 613.5665 613.5681 613.5894 613.6292 613.681 613.7429 613.8071 613.8656 613.9128 613.9497 613.9824 614.0063 614.028 614.0568 614.0851 614.1016 614.1107 614.103 614.0845 614.051 613.9891 613.8784 613.7791 613.7579 613.8519 614.0389 614.2131 614.2928 614.2665 614.1827 614.1273 614.196 614.4445 615.0408 616.3229 618.1194 620.7995 625.2225 629.8569 633.2288 635.1555 636.0483 -9999 -9999 -9999 -9999 -9999 -9999 -9999 -9999 -9999 -9999 -9999 -9999 -9999 -9999 -9999 -9999 -9999 -9999 -9999 -9999 -9999 -9999 -9999 -9999 -9999 -9999 -9999 -9999 -9999 -9999 -9999 -9999 -9999 -9999 -9999 -9999 -9999 -9999 -9999 -9999 -9999 -9999 -9999 -9999 -9999 -9999 -9999 -9999 -9999 -9999 -9999 -9999 -9999 -9999 -9999 -9999
-9999 -9999 -9999 -9999 -9999 -9999 -9999 -9999 -9999 -9999 -9999 -9999 -9999 -9999 -9999 -9999 -9999 646.884 644.5496 640.098 633.9614 627.1755 621.1053 616.9293 614.7951 613.0303 611.7046 610.7932 610.2435 609.9929 609.9663 610.0847 610.2881 610.5098 610.6674 610.7426 610.7847 610.888 611.1789 611.7686 612.7089 613.8248 615.0583 616.6874 617.8215 617.786 616.5233 615.1292 614.1814 613.3999 612.8352 612.4741 612.2172 612.0944 611.9951 611.927 611.9059 611.8719 611.8237 611.7668 611.7042 611.6296 611.5436 611.4493 611.351 611.2526 611.1602 611.0756 611.001 610.9388 610.8893 610.8503 610.8218 610.8093 610.8167 610.8394 610.8806 610.9491 611.0516 611.1946 611.3813 611.6055 611.8547 612.1232 612.4086 612.6964 612.9608 613.1698 613.3081 613.3839 613.4141 613.4188 613.4144 613.4153 613.436 613.4766 613.5292 613.5909 613.6549 613.7108 613.7555 613.7828 613.8019 613.8156 613.826 613.855 613.9034 613.9471 613.9756 613.9913 613.9874 613.9751 613.9267 613.8585 613.7736 613.7572 613.8632 614.0612 614.2523 614.3493 614.3253 614.2209 614.118 614.1066 614.2859 614.8151 615.9293 617.7319 620.5656 625.0104 629.5593 632.8206 634.4788 635.631 -9999 -9999 -9999 -9999 -9999 -9999 -9999 -9999 -9999 -9999 -9999 -9999 -9999 -9999 -9999 -9999 -9999 -9999 -9999 -9999 -9999 -9999 -9999 -9999 -9999 -9999 -9999 -9999 -9999 -9999 -9999 -9999 -9999 -9999 -9999 -9999 -9999 -9999 -9999 -9999 -9999 -9999 -9999 -9999 -9999 -9999 -9999 -9999 -9999 -9999 -9999 -9999 -9999 -9999 -9999 -9999
-9999 -9999 -9999 -9999 -9999 -9999 -9999 -9999 -9999 -9999 -9999 -9999 -9999 -9999 -9999 -9999 -9999 646.8127 644.5863 640.1578 634.0123 627.2209 621.154 617.0549 615.1676 613.457 611.9091 610.9431 610.3459 610.0313 609.9403 610.0122 610.1974 610.4282 610.62 610.7219 610.7813 610.8943 611.188 611.7918 612.8265 614.0151 615.1162 616.6272 617.8204 617.8055 616.5293 614.9677 613.7789 612.8945 612.3285 612.0457 611.78 611.7587 611.7592 611.7612 611.8297 611.8321 611.8113 611.7832 611.7568 611.7122 611.6525 611.5809 611.5006 611.4159 611.332 611.253 611.1792 611.1144 611.0616 611.0193 610.9861 610.965 610.9627 610.9777 611.009 611.0638 611.1499 611.2745 611.444 611.6553 611.8971 612.1581 612.4282 612.6925 612.9259 613.1038 613.2078 613.2562 613.2703 613.2686 613.2634 613.2648 613.2841 613.3228 613.3734 613.4346 613.4985 613.555 613.5991 613.6289 613.637 613.6405 613.6428 613.6619 613.7162 613.7867 613.8359 613.8698 613.8825 613.8813 613.8657 613.8212 613.7424 613.7156 613.8077 614.0007 614.2006 614.3164 614.309 614.206 614.0873 614.0597 614.2417 614.7775 615.7468 617.4914 620.2597 624.4852 628.8705 632.108 633.5419 634.8452 636.0362 -9999 -9999 -9999 -9999 -9999 -9999 -9999 -9999 -9999 -9999 -9999 -9999 -9999 -9999 -9999 -9999 -9999 -9999 -9999 -9999 -9999 -9999 -9999 -9999 -9999 -9999 -9999 -9999 -9999 -9999 -9999 -9999 -9999 -9999 -9999 -9999 -9999 -9999 -9999 -9999 -9999 -9999 -9999 -9999 -9999 -9999 -9999 -9999 -9999 -9999 -9999 -9999 -9999 -9999 -9999
-9999 -9999 -9999 -9999 -9999 -9999 -9999 -9999 -9999 -9999 -9999 -9999 -9999 -9999 -9999 -9999 646.8365 646.3324 644.1729 639.8033 633.7232 627.002 620.995 616.8824 614.8705 613.2875 611.8578 610.9435 610.3628 610.0259 609.8936 609.9205 610.0739 610.3051 610.5214 610.6635 610.7508 610.8826 611.1903 611.8171 612.9451 614.278 615.2327 616.5337 617.806 617.8162 616.5048 614.8371 613.3882 612.368 611.8071 611.7192 611.5165 611.4833 611.5338 611.6274 611.758 611.7602 611.76 611.76 611.7773 611.761 611.7301 611.687 611.6292 611.5634 611.4922 611.4218 611.3538 611.2889 611.2338 611.1897 611.1542 611.1272 611.1147 611.1202 611.1436 611.19 611.2659 611.3778 611.5327 611.7294 611.9575 612.2035 612.4521 612.6856 612.8842 613.0296 613.0969 613.1206 613.121 613.1149 613.1108 613.1144 613.1328 613.167 613.2142 613.2743 613.3387 613.3954 613.442 613.4756 613.4903 613.4808 613.4771 613.4871 613.5342 613.6152 613.6948 613.7407 613.7725 613.7804 613.7804 613.7483 613.6785 613.6355 613.6968 613.8643 614.0587 614.1875 614.2043 614.1223 614.0115 613.983 614.1705 614.7102 615.577 617.3258 619.9401 623.7255 627.8539 631.4066 633.6871 635.3817 636.3805 -9999 -9999 -9999 -9999 -9999 -9999 -9999 -9999 -9999 -9999 -9999 -9999 -9999 -9999 -9999 -9999 -9999 -9999 -9999 -9999 -9999 -9999 -9999 -9999 -9999 -9999 -9999 -9999 -9999 -9999 -9999 -9999 -9999 -9999 -9999 -9999 -9999 -9999 -9999 -9999 -9999 -9999 -9999 -9999 -9999 -9999 -9999 -9999 -9999 -9999 -9999 -9999 -9999 -9999 -9999
-9999 -9999 -9999 -9999 -9999 -9999 -9999 -9999 -9999 -9999 -9999 -9999 -9999 -9999 -9999 -9999 646.0006 645.5059 643.3546 639.1985 633.3268 626.7562 620.8489 616.7904 614.807 613.2427 611.8306 610.9089 610.3341 609.996 609.8417 609.8353 609.9506 610.1594 610.3911 610.5673 610.6937 610.8569 611.1806 611.7885 612.7955 613.9375 614.9372 616.2097 617.7382 617.7713 616.2831 614.5176 612.8701 611.8066 611.3182 611.209 611.1472 611.1777 611.2755 611.4091 611.5463 611.6128 611.6596 611.7061 611.7598 611.76 611.76 611.7529 611.7223 611.6816 611.629 611.5717 611.5133 611.4548 611.3996 611.3545 611.3187 611.2894 611.2695 611.2654 611.2799 611.3197 611.3912 611.4967 611.6401 611.8212 612.0295 612.2513 612.4691 612.6626 612.8142 612.9121 612.9584 612.9686 612.9621 612.9556 612.9552 612.9633 612.9832 613.0134 613.0543 613.1112 613.1757 613.2328 613.2795 613.3196 613.3419 613.3409 613.3235 613.3286 613.368 613.4458 613.5399 613.6091 613.6483 613.6742 613.6806 613.6666 613.6064 613.5436 613.5597 613.6826 613.8492 613.9767 614.0137 613.962 613.8694 613.8324 613.9663 614.3992 615.2764 617.215 619.6958 622.798 626.4486 630.2812 633.395 635.3889 636.4941 636.9712 -9999 -9999 -9999 -9999 -9999 -9999 -9999 -9999 -9999 -9999 -9999 -9999 -9999 -9999 -9999 -9999 -9999 -9999 -9999 -9999 -9999 -9999 -9999 -9999 -9999 -9999 -9999 -9999 -9999 -9999 -9999 -9999 -9999 -9999 -9999 -9999 -9999 -9999 -9999 -9999 -9999 -9999 -9999 -9999 -9999 -9999 -9999 -9999 -9999 -9999 -9999 -9999 -9999 -9999
-9999 -9999 -9999 -9999 -9999 -9999 -9999 -9999 -9999 -9999 -9999 -9999 -9999 -9999 -9999 -9999 644.9333 644.3419 642.4133 638.6191 633.0243 626.6354 620.8265 616.8495 615.0201 613.3596 611.8564 610.8876 610.2927 609.9526 609.7933 609.7689 609.8497 610.0227 610.2445 610.4488 610.6151 610.8171 611.1674 611.763 612.652 613.7148 614.8676 616.3196 617.7706 617.6359 615.777 613.8942 612.1934 611.2638 610.8455 610.7452 610.7667 610.8612 610.9993 611.1546 611.3018 611.4105 611.496 611.5707 611.6384 611.6812 611.7227 611.7599 611.76 611.7538 611.7256 611.6895 611.6449 611.5991 611.55 611.5067 611.4706 611.4423 611.4196 611.4085 611.4149 611.4468 611.5142 611.6173 611.7528 611.9175 612.1027 612.2929 612.4714 612.6205 612.7254 612.7833 612.8049 612.8038 612.7952 612.7916 612.7972 612.8103 612.8333 612.8615 612.8953 612.9456 613.0092 613.0663 613.113 613.1555 613.1876 613.1962 613.1865 613.1804 613.2132 613.2893 613.386 613.4679 613.5187 613.5508 613.5734 613.5759 613.5352 613.4591 613.4279 613.4919 613.6134 613.7189 613.7634 613.7419 613.6831 613.6586 613.7769 614.1871 615.1261 617.0685 619.2266 621.6436 624.7097 628.4398 632.0422 634.72 636.171 636.668 -9999 -9999 -9999 -9999 -9999 -9999 -9999 -9999 -9999 -9999 -9999 -9999 -9999 -9999 -9999 -9999 -9999 -9999 -9999 -9999 -9999 -9999 -9999 -9999 -9999 -9999 -9999 -9999 -9999 -9999 -9999 -9999 -9999 -9999 -9999 -9999 -9999 -9999 -9999 -9999 -9999 -9999 -9999 -9999 -9999 -9999 -9999 -9999 -9999 -9999 -9999 -9999 -9999 -9999
-9999 -9999 -9999 -9999 -9999 -9999 -9999 -9999 -9999 -9999 -9999 -9999 -9999 -9999 -9999 -9999 -9999 643.6141 641.856 638.3353 632.9798 626.735 620.9474 616.8339 614.6548 613.0557 611.7636 610.8561 610.2668 609.9161 609.7494 609.7189 609.7777 609.9122 610.108 610.3212 610.525 610.7673 611.1475 611.7508 612.5901 613.6557 614.9117 616.4173 617.7794 617.4843 615.399 613.2993 611.7324 610.8454 610.4559 610.37 610.4354 610.5728 610.7379 610.9041 611.0558 611.1828 611.2888 611.3789 611.4579 611.5282 611.6006 611.6697 611.7196 611.7599 611.76 611.7586 611.7334 611.707 611.6711 611.636 611.6018 611.575 611.5548 611.5415 611.5421 611.5657 611.625 611.7235 611.8516 612.0002 612.1594 612.316 612.4506 612.5532 612.6129 612.6366 612.6368 612.6285 612.622 612.625 612.6377 612.6548 612.6805 612.707 612.7358 612.7784 612.8384 612.8958 612.9409 612.9855 613.0248 613.0424 613.0427 613.0411 613.0673 613.1384 613.2385 613.3309 613.3855 613.4219 613.4523 613.4739 613.4589 613.3849 613.3164 613.3202 613.3871 613.46 613.496 613.4971 613.4803 613.4899 613.6107 613.9749 614.7678 616.157 617.9146 619.9836 622.6516 625.9685 629.9645 633.3131 635.3802 636.0281 635.8758 -9999 -9999 -9999 -9999 -9999 -9999 -9999 -9999 -9999 -9999 -9999 -9999 -9999 -9999 -9999 -9999 -9999 -9999 -9999 -9999 -9999 -9999 -9999 -9999 -9999 -9999 -9999 -9999 -9999 -9999 -9999 -9999 -9999 -9999 -9999 -9999 -9999 -9999 -9999 -9999 -9999 -9999 -9999 -9999 -9999 -9999 -9999 -9999 -9999 -9999 -9999 -9999 -9999
-9999 -9999 -9999 -9999 -9999 -9999 -9999 -9999 -9999 -9999 -9999 -9999 -9999 -9999 -9999 -9999 -9999 643.4308 641.7769 638.4457 633.3182 627.2063 621.4322 617.1773 614.6218 612.9092 611.7127 610.8672 610.2938 609.9226 609.7249 609.6797 609.7273 609.8323 609.9977 610.2072 610.4395 610.7205 611.1266 611.7453 612.6212 613.78 615.2419 617.1133 617.8903 617.2593 615.0302 612.695 611.2773 610.4926 610.1519 610.0881 610.1771 610.3359 610.5123 610.6782 610.8239 610.951 611.0615 611.1565 611.2399 611.3229 611.4137 611.5058 611.5884 611.6608 611.7136 611.7599 611.76 611.765 611.7465 611.7288 611.7026 611.679 611.6649 611.6541 611.6514 611.667 611.7145 611.8024 611.9187 612.0488 612.1812 612.3054 612.3944 612.4515 612.4752 612.4731 612.4584 612.4458 612.4446 612.4583 612.4783 612.4938 612.5217 612.5456 612.5717 612.61 612.6654 612.7212 612.7652 612.8088 612.854 612.8813 612.8872 612.8954 612.9226 612.9928 613.0939 613.1956 613.2596 613.2928 613.3257 613.3609 613.3677 613.3071 613.2211 613.1775 613.1921 613.2292 613.2529 613.2676 613.2912 613.3429 613.4662 613.7482 614.2906 615.179 616.5663 618.2887 620.6011 623.695 627.7986 631.6321 634.1711 635.1196 634.9304 -9999 -9999 -9999 -9999 -9999 -9999 -9999 -9999 -9999 -9999 -9999 -9999 -9999 -9999 -9999 -9999 -9999 -9999 -9999 -9999 -9999 -9999 -9999 -9999 -9999 -9999 -9999 -9999 -9999 -9999 -9999 -9999 -9999 -9999 -9999 -9999 -9999 -9999 -9999 -9999 -9999 -9999 -9999 -9999 -9999 -9999 -9999 -9999 -9999 -9999 -9999 -9999 -9999
-9999 -9999 -9999 -9999 -9999 -9999 -9999 -9999 -9999 -9999 -9999 -9999 -9999 -9999 -9999 -9999 -9999 643.4588 641.996 638.9731 634.1106 628.1422 622.4174 618.1166 615.0598 613.0313 611.7485 610.9661 610.4048 609.9983 609.7482 609.659 609.6932 609.7822 609.9229 610.1266 610.3861 610.7117 611.1465 611.768 612.7391 613.9822 615.5052 617.434 617.8521 616.8518 614.7026 612.3685 610.9931 610.2588 609.9484 609.8998 609.9977 610.1586 610.3282 610.4808 610.6111 610.7269 610.8317 610.9236 611.0046 611.0884 611.1859 611.2908 611.3914 611.4851 611.5711 611.6506 611.7087 611.7599 611.76 611.7731 611.7603 611.7443 611.7408 611.7349 611.7311 611.7389 611.772 611.8447 611.9429 612.0486 612.15 612.2473 612.2924 612.3142 612.3143 612.2974 612.2756 612.2615 612.2664 612.2917 612.3207 612.3242 612.3472 612.3719 612.4013 612.4383 612.4916 612.546 612.5876 612.6293 612.6774 612.7122 612.7261 612.7381 612.7739 612.8439 612.9502 613.059 613.1388 613.1711 613.1974 613.2388 613.2622 613.2177 613.1295 613.0613 613.0408 613.0491 613.0604 613.0842 613.142 613.2376 613.3787 613.6173 614.0266 614.6932 615.5898 616.9169 618.8153 621.5795 625.6035 629.8677 633.0274 634.3075 634.1458 633.5168 -9999 -9999 -9999 -9999 -9999 -9999 -9999 -9999 -9999 -9999 -9999 -9999 -9999 -9999 -9999 -9999 -9999 -9999 -9999 -9999 -9999 -9999 -9999 -9999 -9999 -9999 -9999 -9999 -9999 -9999 -9999 -9999 -9999 -9999 -9999 -9999 -9999 -9999 -9999 -9999 -9999 -9999 -9999 -9999 -9999 -9999 -9999 -9999 -9999 -9999 -9999 -9999
-9999 -9999 -9999 -9999 -9999 -9999 -9999 -9999 -9999 -9999 -9999 -9999 -9999 -9999 -9999 -9999 -9999 643.4886 642.3586 639.7477 635.1956 629.3958 623.7398 619.5422 615.7438 613.3391 611.9196 611.2126 610.616 610.141 609.8254 609.6783 609.6795 609.7609 609.8903 610.0925 610.3892 610.7903 611.3096 611.9583 613.0513 614.3418 615.8338 617.5967 617.8265 616.5543 614.4706 612.2074 610.8552 610.1406 609.8422 609.7974 609.8908 610.035 610.1791 610.3046 610.4141 610.5142 610.6083 610.6923 610.7668 610.8441 610.9395 611.0483 611.1564 611.2601 611.3627 611.4659 611.5624 611.6485 611.707 611.7598 611.76 611.76 611.7751 611.774 611.7704 611.7712 611.7881 611.8467 611.9203 611.996 612.0579 612.1102 612.1331 612.1406 612.1328 612.1141 612.0931 612.0808 612.0899 612.1257 612.1558 612.1676 612.1818 612.2016 612.2296 612.267 612.3174 612.3711 612.4124 612.451 612.4999 612.541 612.5595 612.5765 612.6161 612.6925 612.8013 612.9205 613.0118 613.0581 613.0748 613.1099 613.1454 613.1188 613.0389 612.9623 612.9268 612.9247 612.9336 612.9633 613.0458 613.178 613.3453 613.5549 613.8615 614.3096 614.9172 615.9296 617.5081 619.962 623.5984 628.0694 631.8517 633.7778 633.9868 633.0933 -9999 -9999 -9999 -9999 -9999 -9999 -9999 -9999 -9999 -9999 -9999 -9999 -9999 -9999 -9999 -9999 -9999 -9999 -9999 -9999 -9999 -9999 -9999 -9999 -9999 -9999 -9999 -9999 -9999 -9999 -9999 -9999 -9999 -9999 -9999 -9999 -9999 -9999 -9999 -9999 -9999 -9999 -9999 -9999 -9999 -9999 -9999 -9999 -9999 -9999 -9999 -9999
-9999 -9999 -9999 -9999 -9999 -9999 -9999 -9999 -9999 -9999 -9999 -9999 -9999 -9999 -9999 -9999 -9999 643.4994 642.7519 640.5853 636.3981 630.7257 624.8317 620.0809 616.1426 613.6974 612.3218 611.6168 610.8734 610.3099 609.937 609.7444 609.705 609.7719 609.8982 610.1027 610.4378 610.9497 611.6833 612.5718 613.6531 614.936 616.5045 617.7573 617.7453 616.2039 614.1898 612.0718 610.787 610.103 609.8156 609.7672 609.843 609.9537 610.0552 610.1427 610.2286 610.3138 610.3948 610.4669 610.5327 610.6013 610.6899 610.7981 610.9083 611.0134 611.1202 611.2343 611.3521 611.465 611.5611 611.6395 611.6842 611.7216 611.7599 611.76 611.76 611.76 611.7601 611.8131 611.8543 611.8906 611.918 611.9385 611.946 611.947 611.9425 611.9306 611.9182 611.9098 611.9192 611.9752 612.006 612.0192 612.0261 612.0391 612.0673 612.1027 612.1483 612.198 612.2408 612.2792 612.3282 612.374 612.3973 612.4138 612.4562 612.5362 612.6488 612.7747 612.8807 612.9386 612.9617 612.9769 613.0046 612.9977 612.9376 612.8702 612.8348 612.8386 612.8613 612.9023 612.9973 613.1504 613.343 613.5533 613.8184 614.1987 614.7231 615.3239 616.5011 618.5292 621.654 626.0372 630.3442 633.0664 633.6077 632.5023 631.4107 -9999 -9999 -9999 -9999 -9999 -9999 -9999 -9999 -9999 -9999 -9999 -9999 -9999 -9999 -9999 -9999 -9999 -9999 -9999 -9999 -9999 -9999 -9999 -9999 -9999 -9999 -9999 -9999 -9999 -9999 -9999 -9999 -9999 -9999 -9999 -9999 -9999 -9999 -9999 -9999 -9999 -9999 -9999 -9999 -9999 -9999 -9999 -9999 -9999 -9999 -9999
-9999 -9999 -9999 -9999 -9999 -9999 -9999 -9999 -9999 -9999 -9999 -9999 -9999 -9999 -9999 -9999 -9999 643.5373 643.0171 641.2469 637.5507 632.1877 626.1334 620.8616 616.7057 614.1493 612.659 611.7253 610.976 610.4332 610.0703 609.863 609.7893 609.8274 609.9434 610.1401 610.4746 611.0182 611.8496 613.0784 614.1917 615.4237 617.2156 618.0018 617.5984 615.7048 613.7629 611.9091 610.7631 610.1349 609.8606 609.8003 609.8407 609.9021 609.9502 609.9969 610.0594 610.1313 610.1954 610.249 610.3013 610.3629 610.4454 610.552 610.6638 610.7678 610.8708 610.9841 611.1085 611.2364 611.3555 611.4578 611.5364 611.6008 611.6521 611.6755 611.6895 611.7014 611.719 611.7598 611.7601 611.7601 611.7602 611.7602 611.7602 611.7601 611.7601 611.7601 611.76 611.7599 611.7609 611.8405 611.873 611.8833 611.8829 611.8889 611.9237 611.957 611.9927 612.0317 612.0742 612.1165 612.1671 612.2173 612.2457 612.2615 612.2999 612.3806 612.494 612.6219 612.7402 612.8146 612.8434 612.8524 612.8483 612.8441 612.8109 612.7681 612.7482 612.767 612.813 612.8762 612.9788 613.1348 613.3335 613.5593 613.8018 614.1125 614.4722 614.8639 615.7451 617.3849 620.0611 624.0898 628.5527 631.6594 632.3186 631.833 631.0168 -9999 -9999 -9999 -9999 -9999 -9999 -9999 -9999 -9999 -9999 -9999 -9999 -9999 -9999 -9999 -9999 -9999 -9999 -9999 -9999 -9999 -9999 -9999 -9999 -9999 -9999 -9999 -9999 -9999 -9999 -9999 -9999 -9999 -9999 -9999 -9999 -9999 -9999 -9999 -9999 -9999 -9999 -9999 -9999 -9999 -9999 -9999 -9999 -9999 -9999 -9999
-9999 -9999 -9999 -9999 -9999 -9999 -9999 -9999 -9999 -9999 -9999 -9999 -9999 -9999 -9999 -9999 -9999 643.2318 642.8705 641.5084 638.4359 633.6051 627.7107 622.2189 617.7173 614.8513 613.1334 611.8354 611.0651 610.5786 610.2664 610.0638 609.9609 609.9506 610.0349 610.2109 610.5168 611.024 611.8288 613.0916 614.3969 615.7478 617.5294 618.126 617.5151 615.5024 613.5992 611.8869 610.8552 610.2639 609.9838 609.8918 609.876 609.8713 609.8643 609.8778 609.9224 609.9783 610.0183 610.0435 610.0748 610.1301 610.2102 610.3156 610.4302 610.5349 610.6322 610.7369 610.8568 610.9874 611.1174 611.2366 611.3383 611.4229 611.4902 611.5359 611.5676 611.5927 611.6168 611.641 611.64 611.6309 611.6205 611.6119 611.6061 611.6046 611.6075 611.6149 611.6271 611.6467 611.6832 611.7593 611.7601 611.7601 611.7599 611.7604 611.8158 611.8409 611.8602 611.8821 611.9248 611.9673 612.0214 612.0737 612.1081 612.125 612.1572 612.2318 612.3425 612.4667 612.5892 612.6804 612.7216 612.7238 612.6982 612.6824 612.6655 612.6482 612.651 612.6882 612.7568 612.8463 612.9604 613.1116 613.3036 613.5315 613.7889 614.0757 614.4 614.7493 615.2902 616.63 618.9708 622.5406 626.7182 629.9218 630.9526 631.0692 630.7046 -9999 -9999 -9999 -9999 -9999 -9999 -9999 -9999 -9999 -9999 -9999 -9999 -9999 -9999 -9999 -9999 -9999 -9999 -9999 -9999 -9999 -9999 -9999 -9999 -9999 -9999 -9999 -9999 -9999 -9999 -9999 -9999 -9999 -9999 -9999 -9999 -9999 -9999 -9999 -9999 -9999 -9999 -9999 -9999 -9999 -9999 -9999 -9999 -9999 -9999 -9999
-9999 -9999 -9999 -9999 -9999 -9999 -9999 -9999 -9999 -9999 -9999 -9999 -9999 -9999 -9999 -9999 -9999 -9999 642.0327 641.095 638.743 634.7033 629.3889 623.9651 619.0593 615.7302 613.8542 612.1616 611.3104 610.8482 610.5885 610.3833 610.233 610.1665 610.1953 610.3395 610.6211 611.0858 611.832 613.1452 614.6728 616.2452 617.7366 618.2141 617.5472 615.6257 613.804 612.1236 611.1407 610.52 610.1909 610.0389 609.9456 609.8635 609.8059 609.8008 609.8356 609.8706 609.8766 609.8643 609.8688 609.9141 609.9946 610.0959 610.2086 610.3142 610.4081 610.5029 610.6119 610.736 610.8669 610.9943 611.11 611.21 611.2926 611.3571 611.4062 611.4445 611.4751 611.4969 611.5023 611.4971 611.4874 611.478 611.4705 611.4681 611.4731 611.4855 611.5057 611.5355 611.5775 611.6287 611.6438 611.6539 611.6708 611.7014 611.7598 611.7601 611.7599 611.7603 611.8129 611.8451 611.8978 611.9476 611.9857 612.0056 612.0319 612.0958 612.1985 612.3147 612.4324 612.5348 612.5955 612.6066 612.576 612.5369 612.5179 612.5149 612.5352 612.5879 612.6718 612.7822 612.9111 613.0669 613.2462 613.4684 613.7152 613.9824 614.191 614.4423 614.9127 616.1936 618.4233 621.7586 625.4611 628.4401 629.7133 630.4097 630.4222 -9999 -9999 -9999 -9999 -9999 -9999 -9999 -9999 -9999 -9999 -9999 -9999 -9999 -9999 -9999 -9999 -9999 -9999 -9999 -9999 -9999 -9999 -9999 -9999 -9999 -9999 -9999 -9999 -9999 -9999 -9999 -9999 -9999 -9999 -9999 -9999 -9999 -9999 -9999 -9999 -9999 -9999 -9999 -9999 -9999 -9999 -9999 -9999 -9999 -9999 -9999
-9999 -9999 -9999 -9999 -9999 -9999 -9999 -9999 -9999 -9999 -9999 -9999 -9999 -9999 -9999 -9999 -9999 -9999 640.5111 639.9791 638.1475 634.9648 630.3353 625.0222 620.0587 616.4626 614.2775 612.7059 611.7943 611.2904 611.0723 610.8248 610.6025 610.4585 610.429 610.5404 610.8234 611.2943 611.9621 613.2852 614.889 616.6171 617.8967 618.3775 617.7324 616.1172 614.3705 612.7128 611.624 610.8817 610.4667 610.2344 610.0507 609.8894 609.7918 609.7817 609.8137 609.822 609.7859 609.7357 609.7158 609.7479 609.8231 609.9102 610.005 610.1016 610.1912 610.2793 610.3776 610.4916 610.6168 610.7449 610.8673 610.9783 611.0737 611.1534 611.2183 611.2699 611.3103 611.3387 611.3539 611.3586 611.3561 611.3507 611.3453 611.3431 611.349 611.3636 611.3868 611.4188 611.4578 611.4979 611.5245 611.5494 611.5822 611.6254 611.6722 611.6875 611.696 611.7133 611.7598 611.7602 611.8083 611.8427 611.8826 611.9041 611.927 611.9758 612.0637 612.1696 612.2759 612.3809 612.4596 612.4896 612.4623 612.4131 612.3838 612.3805 612.406 612.468 612.5596 612.6791 612.821 612.9882 613.1691 613.3708 613.5864 613.8085 614.0098 614.2803 614.8057 615.9354 618.0207 621.1536 624.6179 627.7994 629.4388 630.3247 630.5184 -9999 -9999 -9999 -9999 -9999 -9999 -9999 -9999 -9999 -9999 -9999 -9999 -9999 -9999 -9999 -9999 -9999 -9999 -9999 -9999 -9999 -9999 -9999 -9999 -9999 -9999 -9999 -9999 -9999 -9999 -9999 -9999 -9999 -9999 -9999 -9999 -9999 -9999 -9999 -9999 -9999 -9999 -9999 -9999 -9999 -9999 -9999 -9999 -9999 -9999 -9999
