ncols         170
nrows         74
xllcorner     793850
yllcorner     6004750
cellsize      50
NODATA_value  -9999
-9999 -9999 -9999 -9999 -9999 -9999 -9999 -9999 -9999 -9999 -9999 -9999 -9999 -9999 -9999 -9999 -9999 -9999 -9999 -9999 -9999 -9999 -9999 -9999 -9999 -9999 -9999 -9999 -9999 -9999 -9999 -9999 -9999 -9999 -9999 -9999 -9999 -9999 -9999 -9999 -9999 -9999 -9999 -9999 -9999 -9999 -9999 -9999 -9999 -9999 -9999 -9999 -9999 -9999 -9999 -9999 -9999 -9999 -9999 -9999 -9999 -9999 -9999 -9999 -9999 -9999 -9999 -9999 -9999 -9999 -9999 -9999 -9999 -9999 -9999 -9999 -9999 -9999 -9999 -9999 -9999 -9999 -9999 -9999 -9999 -9999 -9999 -9999 -9999 -9999 -9999 -9999 -9999 -9999 -9999 -9999 -9999 -9999 -9999 -9999 -9999 -9999 -9999 -9999 -9999 -9999 -9999 -9999 -9999 -9999 -9999 -9999 -9999 -9999 -9999 -9999 625.8223 625.5033 624.9321 623.4826 621.5825 619.8312 618.7039 618.1471 617.8716 617.2782 616.3947 615.4153 614.7434 614.7648 615.46 616.5733 617.8847 619.1924 620.3973 -9999 -9999 -9999 -9999 -9999 -9999 -9999 -9999 -9999 -9999 -9999 -9999 -9999 -9999 -9999 -9999 -9999 -9999 -9999 -9999 -9999 -9999 -9999 -9999 -9999 -9999 -9999 -9999 -9999 -9999 -9999 -9999 -9999 -9999 -9999
-9999 -9999 -9999 -9999 -9999 -9999 -9999 -9999 -9999 -9999 -9999 -9999 -9999 -9999 -9999 -9999 -9999 -9999 -9999 -9999 -9999 -9999 -9999 -9999 -9999 -9999 -9999 -9999 -9999 -9999 -9999 -9999 -9999 -9999 -9999 -9999 -9999 -9999 -9999 -9999 -9999 -9999 -9999 -9999 -9999 -9999 -9999 -9999 -9999 -9999 -9999 -9999 -9999 -9999 -9999 -9999 -9999 -9999 -9999 -9999 -9999 -9999 -9999 -9999 -9999 -9999 -9999 -9999 -9999 -9999 -9999 -9999 -9999 -9999 -9999 -9999 -9999 -9999 -9999 -9999 -9999 -9999 -9999 -9999 -9999 -9999 -9999 -9999 -9999 -9999 -9999 -9999 -9999 -9999 -9999 -9999 -9999 -9999 -9999 -9999 624.9547 624.6007 624.6295 -9999 -9999 -9999 -9999 -9999 -9999 -9999 -9999 -9999 -9999 -9999 -9999 625.2933 624.4855 624.1024 623.0134 621.1854 619.1016 617.3942 616.5729 616.4186 616.3225 615.6643 614.6014 613.4207 612.6841 612.7377 613.5993 614.9252 616.4261 617.8882 619.1786 -9999 -9999 -9999 -9999 -9999 -9999 -9999 -9999 -9999 -9999 -9999 -9999 -9999 -9999 -9999 -9999 -9999 -9999 -9999 -9999 -9999 -9999 -9999 -9999 -9999 -9999 -9999 -9999 -9999 -9999 -9999 -9999 -9999 -9999 -9999
-9999 -9999 -9999 -9999 -9999 -9999 -9999 -9999 -9999 -9999 -9999 -9999 -9999 -9999 -9999 -9999 -9999 -9999 -9999 -9999 -9999 -9999 -9999 -9999 -9999 -9999 -9999 -9999 -9999 -9999 -9999 -9999 -9999 -9999 -9999 -9999 -9999 -9999 -9999 -9999 -9999 -9999 -9999 -9999 -9999 -9999 -9999 -9999 -9999 -9999 -9999 -9999 -9999 -9999 -9999 -9999 -9999 -9999 -9999 -9999 -9999 -9999 -9999 -9999 -9999 -9999 -9999 -9999 -9999 -9999 -9999 -9999 -9999 -9999 -9999 -9999 -9999 -9999 -9999 -9999 -9999 -9999 -9999 -9999 -9999 -9999 -9999 -9999 -9999 -9999 -9999 -9999 -9999 -9999 -9999 -9999 -9999 -9999 626.6757 625.1623 624.1928 623.8445 623.962 624.441 624.9622 625.4785 -9999 -9999 -9999 -9999 -9999 -9999 -9999 -9999 623.5926 623.5302 623.0055 622.2032 620.6991 618.6556 616.5515 615.0043 614.5494 614.7751 614.8163 614.1163 612.8249 611.5056 610.7737 610.9171 611.9683 613.5823 615.2973 616.8743 618.1813 619.1608 -9999 -9999 -9999 -9999 -9999 -9999 -9999 -9999 -9999 -9999 -9999 -9999 -9999 -9999 -9999 -9999 -9999 -9999 -9999 -9999 -9999 -9999 -9999 -9999 -9999 -9999 -9999 -9999 -9999 -9999 -9999 -9999 -9999 -9999
-9999 -9999 -9999 -9999 -9999 -9999 -9999 -9999 -9999 -9999 -9999 -9999 -9999 -9999 -9999 -9999 -9999 -9999 -9999 -9999 -9999 -9999 -9999 -9999 -9999 -9999 -9999 -9999 -9999 -9999 -9999 -9999 -9999 -9999 -9999 -9999 -9999 -9999 -9999 -9999 -9999 -9999 -9999 -9999 -9999 -9999 -9999 -9999 -9999 -9999 -9999 -9999 -9999 -9999 -9999 -9999 -9999 -9999 -9999 -9999 -9999 -9999 -9999 -9999 -9999 -9999 -9999 -9999 -9999 -9999 -9999 -9999 -9999 -9999 -9999 -9999 -9999 -9999 -9999 -9999 -9999 -9999 -9999 -9999 -9999 -9999 -9999 -9999 -9999 -9999 -9999 -9999 -9999 -9999 -9999 -9999 630.4873 628.4454 626.2066 624.3011 623.0461 622.548 622.7371 623.4599 624.2138 625.001 625.6664 -9999 -9999 -9999 -9999 -9999 -9999 621.7132 621.5128 621.4141 620.8998 619.8574 618.2014 616.2422 614.4061 613.012 612.7007 612.9822 613.0547 612.3441 611.0416 609.8487 609.3249 609.5511 610.7514 612.6661 614.6608 616.2974 617.4427 618.1519 -9999 -9999 -9999 -9999 -9999 -9999 -9999 -9999 -9999 -9999 -9999 -9999 -9999 -9999 -9999 -9999 -9999 -9999 -9999 -9999 -9999 -9999 -9999 -9999 -9999 -9999 -9999 -9999 -9999 -9999 -9999 -9999 -9999 -9999
-9999 -9999 -9999 -9999 -9999 -9999 -9999 -9999 -9999 -9999 -9999 -9999 -9999 -9999 -9999 -9999 -9999 -9999 -9999 -9999 -9999 -9999 -9999 -9999 -9999 -9999 -9999 -9999 -9999 -9999 -9999 -9999 -9999 -9999 -9999 -9999 -9999 -9999 -9999 -9999 -9999 -9999 -9999 -9999 -9999 -9999 -9999 -9999 -9999 -9999 -9999 -9999 -9999 -9999 -9999 -9999 -9999 -9999 -9999 -9999 -9999 -9999 -9999 -9999 -9999 -9999 -9999 -9999 -9999 -9999 -9999 -9999 -9999 -9999 -9999 -9999 -9999 -9999 -9999 -9999 -9999 -9999 -9999 -9999 -9999 -9999 -9999 -9999 -9999 -9999 -9999 -9999 -9999 -9999 -9999 631.8444 630.1111 627.7465 625.1534 622.8848 621.3196 620.6688 620.9345 621.9061 623.0294 624.1202 625.0255 625.5602 -9999 -9999 623.6906 622.2287 620.8562 619.886 619.4798 619.1251 618.401 617.1945 615.6894 614.3045 613.2901 612.2263 611.7018 611.5159 611.2852 610.6193 609.6299 608.7279 608.4568 608.8735 610.1933 612.3278 614.5056 615.9895 616.8149 617.1092 -9999 -9999 -9999 -9999 -9999 -9999 -9999 -9999 -9999 -9999 -9999 -9999 -9999 -9999 -9999 -9999 -9999 -9999 -9999 -9999 -9999 -9999 -9999 -9999 -9999 -9999 -9999 -9999 -9999 -9999 -9999 -9999 -9999 -9999
-9999 -9999 -9999 -9999 -9999 -9999 -9999 -9999 -9999 -9999 -9999 -9999 -9999 -9999 -9999 -9999 -9999 -9999 -9999 -9999 -9999 -9999 -9999 -9999 -9999 -9999 -9999 -9999 -9999 -9999 -9999 -9999 -9999 -9999 -9999 -9999 -9999 -9999 -9999 -9999 -9999 -9999 -9999 -9999 -9999 -9999 -9999 -9999 -9999 -9999 -9999 -9999 -9999 -9999 -9999 -9999 -9999 -9999 -9999 -9999 -9999 -9999 -9999 -9999 -9999 -9999 -9999 -9999 -9999 -9999 -9999 -9999 -9999 -9999 -9999 -9999 -9999 -9999 -9999 -9999 -9999 -9999 -9999 -9999 -9999 -9999 -9999 -9999 -9999 -9999 -9999 -9999 -9999 -9999 632.7582 631.201 629.025 626.294 623.3631 620.746 618.9006 618.173 618.5527 619.7888 621.3396 622.7927 623.9756 624.6978 624.6549 623.78 622.3808 620.7675 619.2139 618.0015 617.3094 616.5746 615.5598 614.2734 613.1781 612.7833 612.6597 611.68 610.7989 610.2909 609.8155 609.2045 608.5953 608.0743 608.0356 608.6724 610.2151 612.416 614.5795 615.8164 616.127 616.0117 -9999 -9999 -9999 -9999 -9999 -9999 -9999 -9999 -9999 -9999 -9999 -9999 -9999 -9999 -9999 -9999 -9999 -9999 -9999 -9999 -9999 -9999 -9999 -9999 -9999 -9999 -9999 -9999 -9999 -9999 -9999 -9999 -9999 -9999
-9999 -9999 -9999 -9999 -9999 -9999 -9999 -9999 -9999 -9999 -9999 -9999 -9999 -9999 -9999 -9999 -9999 -9999 -9999 -9999 -9999 -9999 -9999 -9999 -9999 -9999 -9999 -9999 -9999 -9999 -9999 -9999 -9999 -9999 -9999 -9999 -9999 -9999 -9999 -9999 -9999 -9999 -9999 -9999 -9999 -9999 -9999 -9999 -9999 -9999 -9999 -9999 -9999 -9999 -9999 -9999 -9999 -9999 -9999 -9999 -9999 -9999 -9999 -9999 -9999 -9999 -9999 -9999 -9999 -9999 -9999 -9999 -9999 -9999 -9999 -9999 -9999 -9999 -9999 -9999 -9999 -9999 -9999 -9999 -9999 -9999 -9999 -9999 -9999 -9999 -9999 -9999 -9999 633.4211 632.022 629.9763 627.294 624.1431 620.8851 617.984 615.9529 615.2137 615.6672 617.1335 619.0323 620.8505 622.2755 623.1515 623.1644 622.28 620.8254 619.1177 617.3837 615.9177 614.8494 613.8743 612.5908 611.4859 610.9214 611.1929 611.5903 610.9787 610.1132 609.4064 608.8375 608.4048 608.0883 607.8436 608.0483 608.8986 610.5826 612.778 614.6865 615.7527 615.6008 615.0115 -9999 -9999 -9999 -9999 -9999 -9999 -9999 -9999 -9999 -9999 -9999 -9999 -9999 -9999 -9999 -9999 -9999 -9999 -9999 -9999 -9999 -9999 -9999 -9999 -9999 -9999 -9999 -9999 -9999 -9999 -9999 -9999 -9999 -9999
-9999 -9999 -9999 -9999 -9999 -9999 -9999 -9999 -9999 -9999 -9999 -9999 -9999 -9999 -9999 -9999 -9999 -9999 -9999 -9999 -9999 -9999 -9999 -9999 -9999 -9999 -9999 -9999 -9999 -9999 -9999 -9999 -9999 -9999 -9999 -9999 -9999 -9999 -9999 -9999 -9999 -9999 -9999 -9999 -9999 -9999 -9999 -9999 -9999 -9999 -9999 -9999 -9999 -9999 -9999 -9999 -9999 -9999 -9999 -9999 -9999 -9999 -9999 -9999 -9999 -9999 -9999 -9999 -9999 -9999 -9999 -9999 -9999 -9999 -9999 -9999 -9999 -9999 -9999 -9999 -9999 -9999 -9999 -9999 -9999 -9999 -9999 -9999 -9999 -9999 -9999 -9999 -9999 632.4828 630.7178 628.2111 625.0701 621.5489 618.0698 615.133 613.187 612.6014 612.8607 614.2562 616.2303 618.2047 619.7919 620.7422 620.8431 620.0915 618.7462 617.0574 615.2051 613.5566 612.2716 611.1667 610.1137 609.4363 609.2756 609.8421 610.6199 610.2266 609.4418 608.7395 608.2972 608.0161 607.9947 607.9603 608.4805 609.6369 611.4912 613.4958 614.8241 615.3169 614.8963 614.0642 -9999 -9999 -9999 -9999 -9999 -9999 -9999 -9999 -9999 -9999 -9999 -9999 -9999 -9999 -9999 -9999 -9999 -9999 -9999 -9999 -9999 -9999 -9999 -9999 -9999 -9999 -9999 -9999 -9999 -9999 -9999 -9999 -9999 -9999
-9999 -9999 -9999 -9999 -9999 -9999 -9999 -9999 -9999 -9999 -9999 -9999 -9999 -9999 -9999 -9999 -9999 -9999 -9999 -9999 -9999 -9999 -9999 -9999 -9999 -9999 -9999 -9999 -9999 -9999 -9999 -9999 -9999 -9999 -9999 -9999 -9999 -9999 -9999 -9999 -9999 -9999 -9999 -9999 -9999 -9999 -9999 -9999 -9999 -9999 -9999 -9999 -9999 -9999 -9999 -9999 -9999 -9999 -9999 -9999 -9999 -9999 -9999 -9999 -9999 -9999 -9999 -9999 -9999 -9999 -9999 -9999 -9999 -9999 -9999 -9999 -9999 -9999 -9999 -9999 -9999 -9999 -9999 -9999 -9999 -9999 -9999 -9999 -9999 -9999 -9999 -9999 632.55 631.2018 628.9847 626.0464 622.5301 618.7523 615.3074 612.6652 611.3331 611.4026 610.9656 611.6424 613.2151 615.0231 616.5245 617.4507 617.6042 617.0248 615.8865 614.3808 612.6899 611.1333 609.9939 609.1366 608.4626 608.1572 608.3794 609.0115 609.7397 609.4362 608.7307 608.1161 607.936 607.8008 607.9136 608.2567 609.2792 610.8488 612.7202 614.2792 614.9719 614.8636 614.1008 613.1934 612.3841 611.7135 611.1731 611.1008 611.4257 612.0462 -9999 -9999 -9999 -9999 -9999 -9999 -9999 -9999 -9999 -9999 -9999 -9999 -9999 -9999 -9999 -9999 -9999 -9999 -9999 -9999 -9999 -9999 -9999 -9999 -9999 -9999 -9999 -9999
-9999 -9999 -9999 -9999 -9999 -9999 -9999 -9999 -9999 -9999 -9999 -9999 -9999 -9999 -9999 -9999 -9999 -9999 -9999 -9999 -9999 -9999 -9999 -9999 -9999 -9999 -9999 -9999 -9999 -9999 -9999 -9999 -9999 -9999 -9999 -9999 -9999 -9999 -9999 -9999 -9999 -9999 -9999 -9999 -9999 -9999 -9999 -9999 -9999 -9999 -9999 -9999 -9999 -9999 -9999 -9999 -9999 -9999 -9999 -9999 -9999 -9999 -9999 -9999 -9999 -9999 -9999 -9999 -9999 -9999 -9999 -9999 -9999 -9999 -9999 -9999 -9999 -9999 -9999 -9999 -9999 -9999 -9999 -9999 -9999 -9999 -9999 -9999 -9999 -9999 -9999 -9999 631.353 629.4807 626.8235 623.5394 619.813 615.991 612.8386 610.7886 610.1084 610.3073 609.829 609.7085 610.5059 611.7839 612.9766 613.7532 613.8447 613.3871 612.4894 611.3187 610.1175 609.0709 608.3885 607.9913 607.6965 607.5537 607.912 608.4734 608.9421 608.6703 608.0453 607.578 607.5789 607.7162 608.1481 609.0071 610.5704 612.3795 613.9404 614.8259 614.9684 614.2643 613.3229 612.4714 611.7319 611.1271 610.8756 610.8755 611.037 611.5085 612.1354 -9999 -9999 -9999 -9999 -9999 -9999 -9999 -9999 -9999 -9999 -9999 -9999 -9999 -9999 -9999 -9999 -9999 -9999 -9999 -9999 -9999 -9999 -9999 -9999 -9999 -9999 -9999
-9999 -9999 -9999 -9999 -9999 -9999 -9999 -9999 -9999 -9999 -9999 -9999 -9999 -9999 -9999 -9999 -9999 -9999 -9999 -9999 -9999 -9999 -9999 -9999 -9999 -9999 -9999 -9999 -9999 -9999 -9999 -9999 -9999 -9999 -9999 -9999 -9999 -9999 -9999 -9999 -9999 -9999 -9999 -9999 -9999 -9999 -9999 -9999 -9999 -9999 -9999 -9999 -9999 -9999 -9999 -9999 -9999 -9999 -9999 -9999 -9999 -9999 -9999 -9999 -9999 -9999 -9999 -9999 -9999 -9999 -9999 -9999 -9999 -9999 -9999 -9999 -9999 -9999 -9999 -9999 -9999 -9999 -9999 -9999 -9999 -9999 -9999 -9999 -9999 -9999 -9999 631.3561 629.7036 627.314 624.2998 620.8173 617.0974 613.5379 610.8786 609.3907 608.954 609.0591 608.9194 608.4581 608.6712 609.3604 610.1615 610.7104 610.5596 610.1287 609.5432 608.8652 608.2357 607.7128 607.4888 607.445 607.4207 607.2983 607.5278 607.9858 608.3224 608.0174 607.5596 607.359 607.4904 607.8265 608.6201 610.0411 612.0228 613.7668 614.7769 615.0704 614.732 613.7277 612.735 611.9105 611.1891 610.9135 610.9148 610.9975 611.0092 611.24 611.6939 612.2798 -9999 -9999 -9999 -9999 -9999 -9999 -9999 -9999 -9999 -9999 -9999 -9999 -9999 -9999 -9999 -9999 -9999 -9999 -9999 -9999 -9999 -9999 -9999 -9999 -9999 -9999
-9999 -9999 -9999 -9999 -9999 -9999 -9999 -9999 -9999 -9999 -9999 -9999 -9999 -9999 -9999 -9999 -9999 -9999 -9999 -9999 -9999 -9999 -9999 -9999 -9999 -9999 -9999 -9999 -9999 -9999 -9999 -9999 -9999 -9999 -9999 -9999 -9999 -9999 -9999 -9999 -9999 -9999 -9999 -9999 -9999 -9999 -9999 -9999 -9999 -9999 -9999 -9999 -9999 -9999 -9999 -9999 -9999 -9999 -9999 -9999 -9999 -9999 -9999 -9999 -9999 -9999 -9999 -9999 -9999 -9999 -9999 -9999 -9999 -9999 -9999 -9999 -9999 -9999 -9999 -9999 -9999 -9999 -9999 -9999 -9999 -9999 -9999 -9999 -9999 -9999 631.3696 629.8163 627.5872 624.77 621.5029 617.962 614.4304 611.3952 609.368 608.3047 608.0179 608.0514 608.014 607.8075 607.8468 608.1587 608.6497 609.0859 608.5146 608.0551 607.7317 607.4402 607.2158 607.014 606.9855 607.0008 607.0083 607.0063 607.2014 607.5142 607.7244 607.5342 607.3373 607.2941 607.4861 607.9889 609.1028 611.0748 613.2712 614.7859 615.2965 615.0126 614.199 613.1558 612.235 611.5686 611.0294 610.8814 610.999 610.9997 610.999 611.1417 611.5944 612.1157 -9999 -9999 -9999 -9999 -9999 -9999 -9999 -9999 -9999 -9999 -9999 -9999 -9999 -9999 -9999 -9999 -9999 -9999 -9999 -9999 -9999 -9999 -9999 -9999 -9999 -9999
-9999 -9999 -9999 -9999 -9999 -9999 -9999 -9999 -9999 -9999 -9999 -9999 -9999 -9999 -9999 -9999 -9999 -9999 -9999 -9999 -9999 -9999 -9999 -9999 -9999 -9999 -9999 -9999 -9999 -9999 -9999 -9999 -9999 -9999 -9999 -9999 -9999 -9999 -9999 -9999 -9999 -9999 -9999 -9999 -9999 -9999 -9999 -9999 -9999 -9999 -9999 -9999 -9999 -9999 -9999 -9999 -9999 -9999 -9999 -9999 -9999 -9999 -9999 -9999 -9999 -9999 -9999 -9999 -9999 -9999 -9999 -9999 -9999 -9999 -9999 -9999 -9999 -9999 -9999 -9999 -9999 -9999 -9999 -9999 -9999 -9999 -9999 -9999 -9999 631.3953 629.8901 627.7639 625.0831 621.9618 618.5776 615.1354 611.9785 609.6019 608.2482 607.6945 607.5001 607.4958 607.5018 607.4789 607.467 607.4825 607.5649 607.6292 607.2715 607.0571 606.9963 606.957 606.8644 606.7741 606.7642 606.7878 606.8196 606.8698 607.006 607.2272 607.3703 607.3337 607.2935 607.3413 607.5165 608.1466 609.542 611.8638 614.2043 615.5544 615.5712 614.7912 613.6519 612.6353 611.9279 611.4166 610.9947 610.734 610.8506 610.8234 610.9172 611.1754 611.8902 612.5324 -9999 -9999 -9999 -9999 -9999 -9999 -9999 -9999 -9999 -9999 -9999 -9999 -9999 -9999 -9999 -9999 -9999 -9999 -9999 -9999 -9999 -9999 -9999 -9999 -9999 -9999
-9999 -9999 -9999 -9999 -9999 -9999 -9999 -9999 -9999 -9999 -9999 -9999 -9999 -9999 -9999 -9999 -9999 -9999 -9999 -9999 -9999 -9999 -9999 -9999 -9999 -9999 -9999 -9999 -9999 -9999 -9999 -9999 -9999 -9999 -9999 -9999 -9999 -9999 -9999 -9999 -9999 -9999 -9999 -9999 -9999 -9999 -9999 -9999 -9999 -9999 -9999 -9999 -9999 -9999 -9999 -9999 -9999 -9999 -9999 -9999 -9999 -9999 -9999 -9999 -9999 -9999 -9999 -9999 -9999 -9999 -9999 -9999 -9999 -9999 -9999 -9999 -9999 -9999 -9999 -9999 -9999 -9999 -9999 -9999 -9999 -9999 -9999 -9999 631.3834 629.9228 627.8447 625.2457 622.2344 618.9651 615.6285 612.4784 609.9167 608.2618 607.5311 607.4288 607.2657 607.2119 607.2013 607.186 607.1453 607.0908 607.02 607.0164 606.9227 606.8747 606.9133 606.9994 606.9034 606.8071 606.7639 606.7661 606.8022 606.875 606.9981 607.1255 607.2274 607.2743 607.3443 607.49 607.6256 608.2794 609.9091 612.4443 614.7754 615.7798 615.4685 614.2307 612.8884 611.8881 611.4271 611.1606 610.7578 610.1838 610.141 610.4315 610.9332 611.5956 612.479 613.2261 613.7905 -9999 -9999 -9999 -9999 -9999 -9999 -9999 -9999 -9999 -9999 -9999 -9999 -9999 -9999 -9999 -9999 -9999 -9999 -9999 -9999 -9999 -9999 -9999 -9999 -9999
-9999 -9999 -9999 -9999 -9999 -9999 -9999 -9999 -9999 -9999 -9999 -9999 -9999 -9999 -9999 -9999 -9999 -9999 -9999 -9999 -9999 -9999 -9999 -9999 -9999 -9999 -9999 -9999 -9999 -9999 -9999 -9999 -9999 -9999 -9999 -9999 -9999 -9999 -9999 -9999 -9999 -9999 -9999 -9999 -9999 -9999 -9999 -9999 -9999 -9999 -9999 -9999 -9999 -9999 -9999 -9999 -9999 -9999 -9999 -9999 -9999 -9999 -9999 -9999 -9999 -9999 -9999 -9999 -9999 -9999 -9999 -9999 -9999 -9999 -9999 -9999 -9999 -9999 -9999 -9999 -9999 -9999 -9999 -9999 -9999 -9999 -9999 631.2095 629.876 627.8683 625.2986 622.3119 619.0941 615.8516 612.7785 610.167 608.3381 607.3925 607.0286 607.1013 607.0803 607.0576 607.0475 607.0321 607.0005 606.9998 606.9686 606.9999 606.9996 606.9988 606.9999 607.0352 606.9993 606.9199 606.8566 606.8381 606.8649 606.9272 607.0004 607.0948 607.1787 607.2515 607.3502 607.4974 607.6796 608.3827 610.1307 612.746 615.0196 615.7744 615.2122 613.6219 611.9333 610.851 610.6954 610.7043 610.1901 609.6005 609.5514 610.0766 611.0106 612.1088 613.155 613.8694 614.0344 -9999 -9999 -9999 -9999 -9999 -9999 -9999 -9999 -9999 -9999 -9999 -9999 -9999 -9999 -9999 -9999 -9999 -9999 -9999 -9999 -9999 -9999 -9999 -9999 -9999
-9999 -9999 -9999 -9999 -9999 -9999 -9999 -9999 -9999 -9999 -9999 -9999 -9999 -9999 -9999 -9999 -9999 -9999 -9999 -9999 -9999 -9999 -9999 -9999 -9999 -9999 -9999 -9999 -9999 -9999 -9999 -9999 -9999 -9999 -9999 -9999 -9999 -9999 -9999 -9999 -9999 -9999 -9999 -9999 -9999 -9999 -9999 -9999 -9999 -9999 -9999 -9999 -9999 -9999 -9999 -9999 -9999 -9999 -9999 -9999 -9999 -9999 -9999 -9999 -9999 -9999 -9999 -9999 -9999 -9999 -9999 -9999 -9999 -9999 -9999 -9999 -9999 -9999 -9999 -9999 -9999 -9999 -9999 -9999 -9999 -9999 630.7488 629.6373 627.8146 625.3353 622.3528 619.0909 615.8249 612.8242 610.261 608.3602 607.2451 606.8975 606.8055 606.989 607.0001 607 607 607 607 607 606.9999 607.0033 607.0192 607.0382 607.0453 607.0511 607.0304 606.9998 606.9414 606.9188 606.941 606.9995 607.0423 607.1035 607.1658 607.2355 607.3389 607.4973 607.7229 608.4763 610.2383 612.8275 614.9861 615.5179 614.7083 612.8565 610.97 609.9807 609.741 609.9813 609.6831 608.9962 609.031 609.7302 610.9922 612.4984 613.6637 614.0884 613.8074 613.0371 -9999 -9999 -9999 -9999 -9999 -9999 -9999 -9999 -9999 -9999 -9999 -9999 -9999 -9999 -9999 -9999 -9999 -9999 -9999 -9999 -9999 -9999 -9999 -9999
-9999 -9999 -9999 -9999 -9999 -9999 -9999 -9999 -9999 -9999 -9999 -9999 -9999 -9999 -9999 -9999 -9999 -9999 -9999 -9999 -9999 -9999 -9999 -9999 -9999 -9999 -9999 -9999 -9999 -9999 -9999 -9999 -9999 -9999 -9999 -9999 -9999 -9999 -9999 -9999 -9999 -9999 -9999 -9999 -9999 -9999 -9999 -9999 -9999 -9999 -9999 -9999 -9999 -9999 -9999 -9999 -9999 -9999 -9999 -9999 -9999 -9999 -9999 -9999 -9999 -9999 -9999 -9999 -9999 -9999 -9999 -9999 -9999 -9999 -9999 -9999 -9999 -9999 -9999 -9999 -9999 -9999 -9999 -9999 -9999 629.8164 629.0596 627.5631 625.3182 622.4493 619.1801 615.8141 612.7335 610.2177 608.3413 607.1333 606.5425 606.4915 606.5883 606.8254 606.9513 606.9999 607.0001 607.0003 607.0217 607.0197 606.9974 606.9895 607.0104 607.0444 607.0531 607.035 607.0001 606.9849 606.9608 606.9557 606.9731 607.0002 607.058 607.1095 607.1527 607.2046 607.3012 607.4833 607.7339 608.5559 610.2341 612.7311 614.6483 614.9519 613.8187 611.7946 609.9718 609.1942 609.2943 609.5563 609.1649 608.6202 608.5333 609.1129 610.5049 612.3648 613.6353 613.9906 613.2557 612.3652 -9999 -9999 -9999 -9999 -9999 -9999 -9999 -9999 -9999 -9999 -9999 -9999 -9999 -9999 -9999 -9999 -9999 -9999 -9999 -9999 -9999 -9999 -9999 -9999
-9999 -9999 -9999 -9999 -9999 -9999 -9999 -9999 -9999 -9999 -9999 -9999 -9999 -9999 -9999 -9999 -9999 -9999 -9999 -9999 -9999 -9999 -9999 -9999 -9999 -9999 -9999 -9999 -9999 -9999 -9999 -9999 -9999 -9999 -9999 -9999 -9999 -9999 -9999 -9999 -9999 -9999 -9999 -9999 -9999 -9999 -9999 -9999 -9999 -9999 -9999 -9999 -9999 -9999 -9999 -9999 -9999 -9999 -9999 -9999 -9999 -9999 -9999 -9999 -9999 -9999 -9999 -9999 -9999 -9999 -9999 -9999 -9999 -9999 -9999 -9999 -9999 -9999 -9999 -9999 -9999 -9999 -9999 -9999 628.8041 628.1714 626.9874 625.0891 622.4882 619.3663 616.0137 612.8183 610.202 608.3156 607.1151 606.4746 606.2495 606.3386 606.5143 606.8124 606.9993 607.0813 607.1067 607.1146 607.1188 607.0973 607.0479 606.9935 606.9971 607.0427 607.0424 607.0001 606.9554 606.9339 606.9307 606.9563 607.0001 607.0397 607.0835 607.1121 607.1265 607.141 607.1862 607.3064 607.5817 608.4161 609.9866 612.3256 614.1663 614.1473 612.5917 610.5406 609.0111 608.3252 608.6033 609.234 608.6901 608.2965 608.2344 608.7626 610.0502 612.0157 613.5063 613.9584 613.0133 612.1813 -9999 -9999 -9999 -9999 -9999 -9999 -9999 -9999 -9999 -9999 -9999 -9999 -9999 -9999 -9999 -9999 -9999 -9999 -9999 -9999 -9999 -9999 -9999 -9999
-9999 -9999 -9999 -9999 -9999 -9999 -9999 -9999 -9999 -9999 -9999 -9999 -9999 -9999 -9999 -9999 -9999 -9999 -9999 -9999 -9999 -9999 -9999 -9999 -9999 -9999 -9999 -9999 -9999 -9999 -9999 -9999 -9999 -9999 -9999 -9999 -9999 -9999 -9999 -9999 -9999 -9999 -9999 -9999 -9999 -9999 -9999 -9999 -9999 -9999 -9999 -9999 -9999 -9999 -9999 -9999 -9999 -9999 -9999 -9999 -9999 -9999 -9999 -9999 -9999 -9999 -9999 -9999 -9999 -9999 -9999 -9999 -9999 -9999 -9999 -9999 -9999 -9999 -9999 -9999 -9999 -9999 627.5074 627.5121 627.1658 626.2106 624.5897 622.2847 619.4165 616.2269 613.0712 610.348 608.3567 607.118 606.4739 606.2303 606.2764 606.4921 606.7295 606.9906 607.1389 607.22 607.2571 607.2672 607.2554 607.2137 607.1424 607.0552 606.9893 607.0358 606.9993 606.9213 606.8613 606.8341 606.8445 606.9076 606.9991 607.0553 607.0951 607.1028 607.0939 607.0767 607.0816 607.1687 607.4497 608.0919 609.3865 611.3561 613.0088 612.8138 611.1783 609.4124 608.2498 607.8422 608.0177 608.312 608.0855 607.9724 607.9938 608.5302 609.8484 611.8848 613.4628 613.9241 613.0535 612.1776 -9999 -9999 -9999 -9999 -9999 -9999 -9999 -9999 -9999 -9999 -9999 -9999 -9999 -9999 -9999 -9999 -9999 -9999 -9999 -9999 -9999 -9999 -9999 -9999
-9999 -9999 -9999 -9999 -9999 -9999 -9999 -9999 -9999 -9999 -9999 -9999 -9999 -9999 -9999 -9999 -9999 -9999 -9999 -9999 -9999 -9999 -9999 -9999 -9999 -9999 -9999 -9999 -9999 -9999 -9999 -9999 -9999 -9999 -9999 -9999 -9999 -9999 -9999 -9999 -9999 -9999 -9999 -9999 -9999 -9999 -9999 -9999 -9999 -9999 -9999 -9999 -9999 -9999 -9999 -9999 -9999 -9999 -9999 -9999 -9999 -9999 -9999 -9999 -9999 -9999 -9999 -9999 -9999 -9999 -9999 -9999 -9999 -9999 -9999 -9999 -9999 -9999 -9999 -9999 -9999 625.5092 625.7032 625.7177 625.2112 623.9427 621.8901 619.2145 616.2109 613.1559 610.4894 608.4543 607.1523 606.4808 606.2374 606.2804 606.4928 606.748 606.9892 607.1655 607.2829 607.3592 607.4003 607.4072 607.3782 607.3123 607.2141 607.0955 606.9858 606.9685 606.8431 606.7537 606.7019 606.6789 606.6913 606.7793 606.8882 606.9992 607.0691 607.0692 607.0593 607.0295 607.0034 607.0375 607.2197 607.6776 608.7128 610.3031 611.5563 611.2421 609.8601 608.5407 607.8184 607.5876 607.6567 607.7634 607.7023 607.6587 607.7617 608.3562 609.8685 611.9878 613.4037 613.5541 613.0034 612.3651 -9999 -9999 -9999 -9999 -9999 -9999 -9999 -9999 -9999 -9999 -9999 -9999 -9999 -9999 -9999 -9999 -9999 -9999 -9999 -9999 -9999 -9999 -9999 -9999
-9999 -9999 -9999 -9999 -9999 -9999 -9999 -9999 -9999 -9999 -9999 -9999 -9999 -9999 -9999 -9999 -9999 -9999 -9999 -9999 -9999 -9999 -9999 -9999 -9999 -9999 -9999 -9999 -9999 -9999 -9999 -9999 -9999 -9999 -9999 -9999 -9999 -9999 -9999 -9999 -9999 -9999 -9999 -9999 -9999 -9999 -9999 -9999 -9999 -9999 -9999 -9999 -9999 -9999 -9999 -9999 -9999 -9999 -9999 -9999 -9999 -9999 -9999 -9999 -9999 -9999 -9999 -9999 -9999 -9999 -9999 -9999 -9999 -9999 -9999 -9999 -9999 -9999 -9999 -9999 -9999 623.4852 623.8103 623.8204 623.0758 621.4218 618.9611 616.025 613.0927 610.5018 608.5053 607.1898 606.4929 606.2444 606.2875 606.4943 606.76 606.9937 607.165 607.2924 607.3875 607.4575 607.497 607.4927 607.4347 607.3233 607.1602 606.9317 606.5826 606.5234 606.5047 606.5002 606.4996 606.4991 606.5045 606.6171 606.7114 606.8601 606.9959 607.0007 607.027 607.0123 606.9803 606.9911 607.131 607.5088 608.2799 609.4828 610.4492 610.0768 608.9709 608.0647 607.6241 607.4976 607.4973 607.5038 607.5251 607.5155 607.6536 608.2843 609.8057 611.7535 612.9257 613.0515 612.8906 612.5627 -9999 -9999 -9999 -9999 -9999 -9999 -9999 -9999 -9999 -9999 -9999 -9999 -9999 -9999 -9999 -9999 -9999 -9999 -9999 -9999 -9999 -9999 -9999 -9999
-9999 -9999 -9999 -9999 -9999 -9999 -9999 -9999 -9999 -9999 -9999 -9999 -9999 -9999 -9999 -9999 -9999 -9999 -9999 -9999 -9999 -9999 -9999 -9999 -9999 -9999 -9999 -9999 -9999 -9999 -9999 -9999 -9999 -9999 -9999 -9999 -9999 -9999 -9999 -9999 -9999 -9999 -9999 -9999 -9999 -9999 -9999 -9999 -9999 -9999 -9999 -9999 -9999 -9999 -9999 -9999 -9999 -9999 -9999 -9999 -9999 -9999 -9999 -9999 -9999 -9999 -9999 -9999 -9999 -9999 -9999 -9999 -9999 -9999 -9999 -9999 -9999 -9999 -9999 -9999 621.5052 621.8491 622.1652 621.9651 620.7945 618.6997 615.9648 613.0926 610.4976 608.5087 607.2023 606.5023 606.2529 606.2958 606.4909 606.7288 606.9843 607.137 607.2598 607.3568 607.4324 607.4909 607.5212 607.4952 607.389 607.2041 606.9398 606.5617 606.3171 606.248 606.2526 606.281 606.3133 606.3473 606.3971 606.4954 606.508 606.6616 606.8201 606.9148 606.9995 607.0177 607.001 607.0145 607.1484 607.4842 608.0413 608.7858 609.539 609.0876 608.2778 607.7399 607.4883 607.3726 607.3558 607.3934 607.4969 607.5101 607.6488 608.2949 609.8224 611.7597 612.806 613.0004 612.9304 612.7317 -9999 -9999 -9999 -9999 -9999 -9999 -9999 -9999 -9999 -9999 -9999 -9999 -9999 -9999 -9999 -9999 -9999 -9999 -9999 -9999 -9999 -9999 -9999 -9999
-9999 -9999 -9999 -9999 -9999 -9999 -9999 -9999 -9999 -9999 -9999 -9999 -9999 -9999 -9999 -9999 -9999 -9999 -9999 -9999 -9999 -9999 -9999 -9999 -9999 -9999 -9999 -9999 -9999 -9999 -9999 -9999 -9999 -9999 -9999 -9999 -9999 -9999 -9999 -9999 -9999 -9999 -9999 -9999 -9999 -9999 -9999 -9999 -9999 -9999 -9999 -9999 -9999 -9999 -9999 -9999 -9999 -9999 -9999 -9999 -9999 -9999 -9999 -9999 -9999 -9999 -9999 -9999 -9999 -9999 -9999 -9999 -9999 -9999 -9999 -9999 -9999 -9999 -9999 -9999 620.8289 621.0743 620.9088 620.1014 618.3442 615.8473 613.1007 610.5329 608.5245 607.2065 606.5065 606.2612 606.3056 606.4898 606.6836 606.875 607.0048 607.1514 607.2728 607.3567 607.4074 607.4429 607.4579 607.403 607.2274 606.9448 606.561 606.2921 606.1302 606.0769 606.0862 606.1225 606.1676 606.2174 606.2764 606.3461 606.3885 606.5011 606.6496 606.7867 606.9128 606.9995 607.0218 607.0494 607.1863 607.4987 607.9906 608.5317 608.9083 608.4984 607.877 607.4603 607.2677 607.1982 607.1873 607.2244 607.3531 607.4879 607.6436 608.3167 609.8188 611.7466 612.8501 613.0594 612.972 612.7942 -9999 -9999 -9999 -9999 -9999 -9999 -9999 -9999 -9999 -9999 -9999 -9999 -9999 -9999 -9999 -9999 -9999 -9999 -9999 -9999 -9999 -9999 -9999 -9999
-9999 -9999 -9999 -9999 -9999 -9999 -9999 -9999 -9999 -9999 -9999 -9999 -9999 -9999 -9999 -9999 -9999 -9999 -9999 -9999 -9999 -9999 -9999 -9999 -9999 -9999 -9999 -9999 -9999 -9999 -9999 -9999 -9999 -9999 -9999 -9999 -9999 -9999 -9999 -9999 -9999 -9999 -9999 -9999 -9999 -9999 -9999 -9999 -9999 -9999 -9999 -9999 -9999 -9999 -9999 -9999 -9999 -9999 -9999 -9999 -9999 -9999 -9999 -9999 -9999 -9999 -9999 -9999 -9999 -9999 -9999 -9999 -9999 -9999 -9999 -9999 -9999 -9999 620.3788 620.2759 620.9547 620.6397 619.6945 618.1081 615.7731 613.1163 610.5795 608.5617 607.221 606.5103 606.2673 606.3148 606.4903 606.6551 606.8284 606.9974 607.0613 607.1283 607.2373 607.2997 607.3006 607.2915 607.2913 607.2153 606.9511 606.5586 606.2882 606.1128 606.0135 605.9803 605.9904 606.0231 606.067 606.1177 606.1742 606.2335 606.2903 606.3807 606.5009 606.6409 606.7839 606.9088 606.999 607.0508 607.2043 607.5185 608.0429 608.5342 608.6271 608.0507 607.4651 607.059 606.9949 606.9966 606.9974 607.0063 607.1416 607.2886 607.5466 608.3227 609.7784 611.6895 612.79 613.0007 612.8732 612.697 -9999 -9999 -9999 -9999 -9999 -9999 -9999 -9999 -9999 -9999 -9999 -9999 -9999 -9999 -9999 -9999 -9999 -9999 -9999 -9999 -9999 -9999 -9999 -9999
-9999 -9999 -9999 -9999 -9999 -9999 -9999 -9999 -9999 -9999 -9999 -9999 -9999 -9999 -9999 -9999 -9999 -9999 -9999 -9999 -9999 -9999 -9999 -9999 -9999 -9999 -9999 -9999 -9999 -9999 -9999 -9999 -9999 -9999 -9999 -9999 -9999 -9999 -9999 -9999 -9999 -9999 -9999 -9999 -9999 -9999 -9999 -9999 -9999 -9999 -9999 -9999 -9999 -9999 -9999 -9999 -9999 -9999 -9999 -9999 -9999 -9999 -9999 -9999 -9999 -9999 -9999 -9999 -9999 -9999 -9999 -9999 -9999 -9999 -9999 -9999 -9999 621.5964 620.6441 620.9305 620.7626 619.8545 618.1714 615.9009 613.2452 610.6787 608.6257 607.2507 606.5192 606.2713 606.3203 606.4909 606.6206 606.7377 606.8513 606.9489 606.997 607.0062 607.1404 607.1774 607.0869 606.9974 606.9897 606.9271 606.5607 606.2545 606.1022 606.0119 605.9595 605.941 605.9481 605.972 606.0073 606.0515 606.1019 606.1553 606.2124 606.2874 606.3839 606.5007 606.6378 606.7759 606.8976 607.0032 607.1967 607.5339 608.0834 608.6381 608.1757 607.5451 607.0471 606.7947 606.7562 606.7771 606.8031 606.8593 606.9952 607.1404 607.4668 608.2421 609.7162 611.6376 612.8121 612.9995 612.6433 612.4623 -9999 -9999 -9999 -9999 -9999 -9999 -9999 -9999 -9999 -9999 -9999 -9999 -9999 -9999 -9999 -9999 -9999 -9999 -9999 -9999 -9999 -9999 -9999 -9999
-9999 -9999 -9999 -9999 -9999 -9999 -9999 -9999 -9999 -9999 -9999 -9999 -9999 -9999 -9999 -9999 -9999 -9999 -9999 -9999 -9999 -9999 -9999 -9999 -9999 -9999 -9999 -9999 -9999 -9999 -9999 -9999 -9999 -9999 -9999 -9999 -9999 -9999 -9999 -9999 -9999 -9999 -9999 -9999 -9999 -9999 -9999 -9999 -9999 -9999 -9999 -9999 -9999 -9999 -9999 -9999 -9999 -9999 -9999 -9999 -9999 -9999 -9999 -9999 -9999 -9999 -9999 -9999 -9999 -9999 -9999 -9999 -9999 -9999 -9999 -9999 623.2018 621.9017 621.0697 620.674 619.8426 618.2473 615.9852 613.3489 610.7858 608.7078 607.2932 606.5303 606.2795 606.324 606.4916 606.606 606.6819 606.7396 606.7825 606.7959 606.7868 606.8306 606.9692 606.9608 606.739 606.5231 606.4925 606.4582 606.2277 606.0104 605.9996 605.9811 605.956 605.9424 605.9426 605.9556 605.9801 606.015 606.0575 606.1042 606.155 606.2158 606.2914 606.3851 606.5007 606.6423 606.8015 606.9894 607.1697 607.5135 607.8829 608.015 607.5643 607.0635 606.7627 606.6146 606.5966 606.6125 606.6375 606.718 606.8488 607.0057 607.3024 608.0458 609.6401 611.5969 612.6829 612.8799 612.2258 612.1398 -9999 -9999 -9999 -9999 -9999 -9999 -9999 -9999 -9999 -9999 -9999 -9999 -9999 -9999 -9999 -9999 -9999 -9999 -9999 -9999 -9999 -9999 -9999 -9999
-9999 -9999 -9999 -9999 -9999 -9999 -9999 -9999 -9999 -9999 -9999 -9999 -9999 -9999 -9999 -9999 -9999 -9999 -9999 -9999 -9999 -9999 -9999 -9999 -9999 -9999 -9999 -9999 -9999 -9999 -9999 -9999 -9999 -9999 -9999 -9999 -9999 -9999 -9999 -9999 -9999 -9999 -9999 -9999 -9999 -9999 -9999 -9999 -9999 -9999 -9999 -9999 -9999 -9999 -9999 -9999 -9999 -9999 -9999 -9999 -9999 -9999 -9999 -9999 -9999 -9999 -9999 -9999 -9999 -9999 -9999 -9999 -9999 -9999 -9999 624.4691 623.1188 621.9335 620.906 619.7103 618.0871 615.9009 613.3232 610.7973 608.7185 607.3091 606.5219 606.2534 606.3286 606.4933 606.6058 606.665 606.6861 606.6885 606.6766 606.6138 606.5094 606.5035 606.5245 606.4927 606.2766 606.0394 606.0134 606.0162 605.999 605.9482 605.9796 606 605.9805 605.9637 605.9566 605.9597 605.9741 605.9999 606.0344 606.0734 606.1151 606.1619 606.2181 606.2893 606.3816 606.5001 606.6459 606.8225 607.044 607.4725 607.6548 607.4868 607.0627 606.741 606.5918 606.5005 606.4992 606.4992 606.5017 606.605 606.76 606.973 607.197 607.9392 609.5744 611.5244 612.5009 612.5322 612.1396 612.0037 -9999 -9999 -9999 -9999 -9999 -9999 -9999 -9999 -9999 -9999 -9999 -9999 -9999 -9999 -9999 -9999 -9999 -9999 -9999 -9999 -9999 -9999 -9999 -9999
-9999 -9999 -9999 -9999 -9999 -9999 -9999 -9999 -9999 -9999 -9999 -9999 -9999 -9999 -9999 -9999 -9999 -9999 -9999 -9999 -9999 -9999 -9999 -9999 -9999 -9999 -9999 -9999 -9999 -9999 -9999 -9999 -9999 -9999 -9999 -9999 -9999 -9999 -9999 -9999 -9999 -9999 -9999 -9999 -9999 -9999 -9999 -9999 -9999 -9999 -9999 -9999 -9999 -9999 -9999 -9999 -9999 -9999 -9999 -9999 -9999 -9999 -9999 -9999 -9999 -9999 -9999 -9999 -9999 -9999 -9999 -9999 -9999 -9999 625.34 624.1008 622.8091 621.3736 619.7598 617.8571 615.6411 613.1335 610.679 608.6238 607.1866 606.4517 606.1524 606.2139 606.4833 606.6106 606.6694 606.6763 606.6468 606.6085 606.5852 606.4988 606.3665 606.2874 606.2325 606.1534 606.0049 605.9123 605.919 605.9237 605.9376 605.9536 605.9999 606.0101 605.998 605.984 605.9745 605.972 605.9794 605.9977 606.0246 606.0557 606.0879 606.1213 606.1602 606.2102 606.2783 606.3712 606.4992 606.6862 607.0084 607.347 607.4349 607.0704 606.7326 606.5095 606.4948 606.4188 606.3914 606.3854 606.4064 606.4989 606.6202 606.7714 607.0463 607.8547 609.5009 611.4791 612.6261 612.907 612.3346 612.1158 -9999 -9999 -9999 -9999 -9999 -9999 -9999 -9999 -9999 -9999 -9999 -9999 -9999 -9999 -9999 -9999 -9999 -9999 -9999 -9999 -9999 -9999 -9999 -9999
-9999 -9999 -9999 -9999 -9999 -9999 -9999 -9999 -9999 -9999 -9999 -9999 -9999 -9999 -9999 -9999 -9999 -9999 -9999 -9999 -9999 -9999 -9999 -9999 -9999 -9999 -9999 -9999 -9999 -9999 -9999 -9999 -9999 -9999 -9999 -9999 -9999 -9999 -9999 -9999 -9999 -9999 -9999 -9999 -9999 -9999 -9999 -9999 -9999 -9999 -9999 -9999 -9999 -9999 -9999 -9999 -9999 -9999 -9999 -9999 -9999 -9999 -9999 -9999 -9999 -9999 -9999 -9999 -9999 -9999 -9999 -9999 -9999 625.6357 624.6813 623.3698 621.8752 620.0534 617.8337 615.3677 612.8602 610.486 608.4942 607.0508 606.2313 606.0164 606.0214 606.2189 606.4987 606.6329 606.6691 606.6449 606.5751 606.5016 606.4976 606.3884 606.2534 606.1479 606.0699 606.0005 605.9514 605.9528 605.9995 605.9707 605.9631 605.9768 606 606.0098 606.0054 605.9966 605.989 605.9852 605.9886 606.0015 606.0219 606.0452 606.0681 606.0904 606.1149 606.1476 606.1962 606.2661 606.3689 606.5406 606.9604 607.1556 607.0347 606.752 606.5018 606.3582 606.3325 606.2967 606.2753 606.2704 606.2938 606.3699 606.4938 606.6328 606.9878 607.7805 609.3508 611.3013 612.6552 613.0974 612.8671 612.3542 -9999 -9999 -9999 -9999 -9999 -9999 -9999 -9999 -9999 -9999 -9999 -9999 -9999 -9999 -9999 -9999 -9999 -9999 -9999 -9999 -9999 -9999 -9999 -9999
-9999 -9999 -9999 -9999 -9999 -9999 -9999 -9999 -9999 -9999 -9999 -9999 -9999 -9999 -9999 -9999 -9999 -9999 -9999 -9999 -9999 -9999 -9999 -9999 -9999 -9999 -9999 -9999 -9999 -9999 -9999 -9999 -9999 -9999 -9999 -9999 -9999 -9999 -9999 -9999 -9999 -9999 -9999 -9999 -9999 -9999 -9999 -9999 -9999 -9999 -9999 -9999 -9999 -9999 -9999 -9999 -9999 -9999 -9999 -9999 -9999 -9999 -9999 -9999 -9999 -9999 -9999 -9999 -9999 -9999 -9999 -9999 624.8055 624.66 623.7261 622.2082 620.2554 617.9576 615.3082 612.6755 610.2941 608.3661 606.9794 606.1769 605.9465 605.9989 606.0623 606.2532 606.4956 606.6019 606.6166 606.5872 606.5004 606.42 606.3661 606.2657 606.1505 606.0579 606.0001 605.9723 605.9729 605.9999 606.0171 606 605.9915 606 606.0056 606.009 606.0072 606.0028 605.9984 605.9959 605.9982 606.0069 606.0212 606.037 606.0505 606.0642 606.0784 606.0991 606.139 606.2026 606.3105 606.4961 606.7817 606.9741 606.7742 606.51 606.3329 606.2335 606.2026 606.183 606.1685 606.1615 606.1719 606.2191 606.3239 606.5144 606.9493 607.694 609.1127 610.975 612.3893 612.9935 612.8423 612.3152 -9999 -9999 -9999 -9999 -9999 -9999 -9999 -9999 -9999 -9999 -9999 -9999 -9999 -9999 -9999 -9999 -9999 -9999 -9999 -9999 -9999 -9999 -9999 -9999
-9999 -9999 -9999 -9999 -9999 -9999 -9999 -9999 -9999 -9999 -9999 -9999 -9999 -9999 -9999 -9999 -9999 -9999 -9999 -9999 -9999 -9999 -9999 -9999 -9999 -9999 -9999 -9999 -9999 -9999 -9999 -9999 -9999 -9999 -9999 -9999 -9999 -9999 -9999 -9999 -9999 -9999 -9999 -9999 -9999 -9999 -9999 -9999 -9999 -9999 -9999 -9999 -9999 -9999 -9999 -9999 -9999 -9999 -9999 -9999 -9999 -9999 -9999 -9999 -9999 -9999 -9999 -9999 -9999 -9999 623.5656 623.5316 623.6903 623.4044 622.2383 620.3588 617.9735 615.3217 612.5917 610.1678 608.2562 606.9175 606.1535 605.9424 605.9988 606.0248 606.0856 606.2284 606.3988 606.4983 606.5014 606.4977 606.4103 606.3221 606.2454 606.1541 606.0636 606.0001 605.9789 605.9837 606 606.0125 606.0138 606 605.9974 606 606.003 606.0052 606.0055 606.0045 606.0034 606.0033 606.0055 606.0109 606.0193 606.0276 606.0299 606.0369 606.0435 606.0542 606.0928 606.146 606.2375 606.3685 606.5142 606.6545 606.5104 606.3461 606.2162 606.1391 606.1113 606.0984 606.0875 606.0768 606.0727 606.0951 606.2047 606.4791 606.928 607.6893 609.0677 610.8617 612.2554 612.8737 612.6962 612.0955 -9999 -9999 -9999 -9999 -9999 -9999 -9999 -9999 -9999 -9999 -9999 -9999 -9999 -9999 -9999 -9999 -9999 -9999 -9999 -9999 -9999 -9999 -9999 -9999
-9999 -9999 -9999 -9999 -9999 -9999 -9999 -9999 -9999 -9999 -9999 -9999 -9999 -9999 -9999 -9999 -9999 -9999 -9999 -9999 -9999 -9999 -9999 -9999 -9999 -9999 -9999 -9999 -9999 -9999 -9999 -9999 -9999 -9999 -9999 -9999 -9999 -9999 -9999 -9999 -9999 -9999 -9999 -9999 -9999 -9999 -9999 -9999 -9999 -9999 -9999 -9999 -9999 -9999 -9999 -9999 -9999 -9999 -9999 -9999 -9999 -9999 -9999 -9999 -9999 -9999 -9999 -9999 623.5451 623.1827 622.9839 622.7992 622.5419 621.7689 620.1545 617.8453 615.134 612.4404 610.0491 608.1672 606.864 606.1313 605.9375 605.9988 606.0172 606.0228 606.0575 606.152 606.2573 606.323 606.334 606.3243 606.2697 606.2034 606.1368 606.0628 606.0001 605.9733 605.9778 606 606.0095 606.012 606.0078 606.0015 606 605.9998 606 606.0012 606.0027 606.0042 606.0058 606.0076 606.0098 606.0117 606.0134 606.0154 606.0001 605.9999 605.9999 606.0002 606.0487 606.0847 606.1674 606.2789 606.3964 606.4947 606.3831 606.2476 606.1351 606.0668 606.0491 606.0426 606.0356 606.0255 606.0126 605.9999 606.0851 606.395 606.8657 607.7765 609.2234 611.0179 612.3981 612.9868 612.7589 612.1409 -9999 -9999 -9999 -9999 -9999 -9999 -9999 -9999 -9999 -9999 -9999 -9999 -9999 -9999 -9999 -9999 -9999 -9999 -9999 -9999 -9999 -9999 -9999 -9999
-9999 -9999 -9999 -9999 -9999 -9999 -9999 -9999 -9999 -9999 -9999 -9999 -9999 -9999 -9999 -9999 -9999 -9999 -9999 -9999 -9999 -9999 -9999 -9999 -9999 -9999 -9999 -9999 -9999 -9999 -9999 -9999 -9999 -9999 -9999 -9999 -9999 -9999 -9999 -9999 -9999 -9999 -9999 -9999 -9999 -9999 -9999 -9999 -9999 -9999 -9999 -9999 -9999 -9999 -9999 -9999 -9999 -9999 -9999 -9999 -9999 -9999 -9999 -9999 -9999 -9999 624.0745 623.8339 623.1864 622.8292 622.3688 621.7939 620.9886 619.58 617.4926 614.9277 612.2508 609.9146 608.0878 606.8235 606.1146 605.9324 605.9987 606.0185 606.0114 606 606.0002 606.0611 606.1132 606.1437 606.1505 606.1443 606.1202 606.0883 606.0511 606.0001 605.969 605.9624 605.9768 606 606.0071 606.0056 606 606 605.9998 605.9998 606 605.9997 606.0006 606.0033 606.0065 606.0092 606.0104 606.0078 606 605.9999 605.9625 605.9349 605.9235 605.939 605.998 606.0012 606.0878 606.1886 606.269 606.317 606.2526 606.1586 606.0636 606.0002 605.9999 605.9999 606 606 605.9999 605.9568 606.0195 606.4348 606.9701 607.9346 609.4921 611.3574 612.71 613.1782 613.0038 612.5248 -9999 -9999 -9999 -9999 -9999 -9999 -9999 -9999 -9999 -9999 -9999 -9999 -9999 -9999 -9999 -9999 -9999 -9999 -9999 -9999 -9999 -9999 -9999 -9999
-9999 -9999 -9999 -9999 -9999 -9999 -9999 -9999 -9999 -9999 -9999 -9999 -9999 -9999 -9999 -9999 -9999 -9999 -9999 -9999 -9999 -9999 -9999 -9999 -9999 -9999 -9999 -9999 -9999 -9999 -9999 -9999 -9999 -9999 -9999 -9999 -9999 -9999 -9999 -9999 -9999 -9999 -9999 -9999 -9999 -9999 -9999 -9999 -9999 -9999 -9999 -9999 -9999 -9999 -9999 -9999 631.235 629.7759 -9999 625.9547 624.5143 623.8862 623.6609 623.7429 623.9072 623.7388 623.2896 623.184 622.581 621.9623 621.1164 620.0238 618.5905 616.7036 614.4054 612.0156 609.7604 608.0049 606.79 606.1056 605.9303 605.9985 606.0222 606.0159 606 605.9969 605.9743 605.9998 606.0001 606.0003 606.0003 606.0003 606.0002 606.0001 605.9999 605.9734 605.9578 605.9592 605.974 605.9919 606 606 605.998 605.9985 605.9991 605.9996 606 605.9995 606 606.0024 606.006 606.0083 606.0077 606 605.9777 605.9475 605.8935 605.8402 605.8051 605.8046 605.8452 605.8969 605.9996 606.0963 606.1378 606.1686 606.125 606.0757 606.0001 605.9489 605.938 605.9404 605.9498 605.9647 605.9836 605.9999 606.1194 606.4807 607.0596 608.0739 609.6815 611.5605 612.8636 613.2914 613.1785 612.8606 -9999 -9999 -9999 -9999 -9999 -9999 -9999 -9999 -9999 -9999 -9999 -9999 -9999 -9999 -9999 -9999 -9999 -9999 -9999 -9999 -9999 -9999 -9999 -9999
-9999 -9999 -9999 -9999 -9999 -9999 -9999 -9999 -9999 -9999 -9999 -9999 -9999 -9999 -9999 -9999 -9999 -9999 -9999 -9999 -9999 -9999 -9999 -9999 -9999 -9999 -9999 -9999 -9999 -9999 -9999 -9999 -9999 -9999 -9999 -9999 -9999 -9999 -9999 -9999 -9999 -9999 -9999 -9999 -9999 -9999 -9999 -9999 -9999 -9999 -9999 -9999 630.4813 630.4719 630.4846 630.2045 629.407 628.0557 626.342 624.6353 623.3836 622.8487 622.769 622.9319 623.0648 622.9465 622.4236 621.7831 620.9594 619.9155 618.6344 617.1223 615.3414 613.3481 611.2789 609.3824 607.8163 606.7285 606.0884 605.9336 605.9985 606.0248 606.0198 605.9999 605.9919 606.0439 605.9666 605.9519 605.9344 605.9348 605.936 605.9399 605.9467 605.9554 605.9626 605.957 605.9542 605.9603 605.9734 605.9873 605.9951 605.9973 605.9976 605.9982 605.9991 606 606.0007 606.0004 606.0001 606.0017 606.004 606.0044 606 605.9834 605.9487 605.8948 605.8184 605.7355 605.6682 605.641 605.666 605.7513 605.8781 605.9962 606.0028 606.0559 606.002 605.9986 605.9344 605.8867 605.8708 605.8763 605.8979 605.9366 605.9997 606.0865 606.2686 606.5977 607.2397 608.2578 609.8284 611.6487 612.8546 613.2096 613.0244 612.6868 -9999 -9999 -9999 -9999 -9999 -9999 -9999 -9999 -9999 -9999 -9999 -9999 -9999 -9999 -9999 -9999 -9999 -9999 -9999 -9999 -9999 -9999 -9999 -9999
-9999 -9999 -9999 -9999 -9999 -9999 -9999 -9999 -9999 -9999 -9999 -9999 -9999 -9999 -9999 -9999 -9999 -9999 -9999 -9999 -9999 -9999 -9999 -9999 -9999 -9999 -9999 -9999 -9999 -9999 -9999 -9999 -9999 -9999 -9999 -9999 -9999 -9999 -9999 -9999 -9999 -9999 -9999 -9999 -9999 -9999 635.9338 634.4919 633.0344 631.6581 630.4297 629.4746 628.9321 628.6205 628.3478 627.9063 627.1169 625.909 624.4583 623.0166 621.8743 621.2768 621.1172 621.2275 621.231 620.933 620.236 619.259 618.08 616.7024 615.1756 613.5435 611.8432 610.1942 608.7084 607.4729 606.5891 606.0464 605.8881 605.9977 606.0283 606.0236 605.9998 605.9697 606.0406 606.2263 606.0502 605.9999 605.9365 605.9381 605.9332 605.9343 605.9374 605.9438 605.9509 605.9537 605.9576 605.9656 605.9769 605.9877 605.9939 605.9967 605.9983 605.9989 606 606.0013 606.0023 606.0021 606.0013 606.0015 606.002 606 605.9926 605.9714 605.9297 605.861 605.7637 605.652 605.5519 605.5002 605.5016 605.5964 605.7206 605.8312 605.9012 605.9913 605.9126 605.8735 605.8297 605.8005 605.7947 605.8106 605.8463 605.9048 606.0008 606.1807 606.4816 606.9097 607.4839 608.4506 609.9613 611.6492 612.6657 612.9914 612.7708 612.3671 -9999 -9999 -9999 -9999 -9999 -9999 -9999 -9999 -9999 -9999 -9999 -9999 -9999 -9999 -9999 -9999 -9999 -9999 -9999 -9999 -9999 -9999 -9999 -9999
-9999 -9999 -9999 -9999 -9999 -9999 -9999 -9999 -9999 -9999 -9999 -9999 -9999 -9999 -9999 -9999 -9999 -9999 -9999 -9999 -9999 -9999 -9999 -9999 -9999 -9999 -9999 -9999 -9999 -9999 -9999 -9999 -9999 -9999 -9999 -9999 -9999 -9999 -9999 -9999 -9999 -9999 -9999 -9999 637.011 635.3808 633.8166 632.2789 630.814 629.5192 628.4217 627.5658 626.9122 626.2972 625.6847 625.0054 624.16 623.1056 621.923 620.7101 619.5962 618.8151 618.4258 618.3073 618.183 617.7526 616.9279 615.7882 614.4255 612.9507 611.5441 610.2264 608.9894 607.8834 607.0297 606.4099 606.0063 605.8458 605.8904 605.9997 606.0178 605.9998 605.9727 606.0717 606.4226 606.491 606.4579 606.2056 606.0048 605.9995 605.9681 605.9617 605.9546 605.9548 605.9587 605.963 605.968 605.9753 605.9841 605.9926 605.9961 605.9979 606 606 606.0013 606.0027 606.0037 606.0035 606.0024 606.0017 606.0015 606 605.9913 605.9717 605.9324 605.8598 605.7505 605.6206 605.5006 605.4592 605.4525 605.5002 605.5824 605.6476 605.6953 605.7354 605.7087 605.7074 605.7001 605.7002 605.7151 605.7489 605.803 605.8819 606.0005 606.2007 606.5052 606.9548 607.5471 608.4956 609.9672 611.5127 612.3313 612.5929 612.3663 611.9136 611.6483 -9999 -9999 -9999 -9999 -9999 -9999 -9999 -9999 -9999 -9999 -9999 -9999 -9999 -9999 -9999 -9999 -9999 -9999 -9999 -9999 -9999 -9999 -9999
-9999 -9999 -9999 -9999 -9999 -9999 -9999 -9999 -9999 -9999 -9999 -9999 -9999 -9999 -9999 -9999 -9999 -9999 -9999 -9999 -9999 -9999 -9999 -9999 -9999 -9999 -9999 -9999 -9999 -9999 -9999 -9999 -9999 -9999 -9999 -9999 -9999 -9999 -9999 -9999 -9999 -9999 637.9268 636.32 634.7056 633.0588 631.3401 629.6204 628.0351 626.7227 625.6962 624.8675 624.0855 623.2185 622.3006 621.3761 620.4534 619.5417 618.5944 617.5438 616.4397 615.4933 614.9155 614.5933 614.3597 613.9141 613.1346 612.0853 610.9089 609.7618 608.7697 607.9426 607.2219 606.6196 606.2344 605.9902 605.8656 605.899 605.9982 606.0138 605.9999 605.9677 606.0666 606.4227 606.5541 606.5005 606.4642 606.2892 606.1193 606.0499 606.0002 605.9999 605.9806 605.9764 605.9775 605.9801 605.9833 605.9875 605.9929 606 606 606 606.002 606.0026 606.0029 606.0038 606.0042 606.0037 606.0026 606.0011 606 605.9988 605.9939 605.9832 605.9591 605.8948 605.7842 605.6558 605.5483 605.4998 605.4691 605.4744 605.4999 605.5004 605.5008 605.5018 605.5027 605.5589 605.58 605.6066 605.6427 605.6968 605.7717 605.8702 605.9999 606.1812 606.4413 606.8266 607.4742 608.3232 609.6371 611.0422 611.7278 612.0432 611.8173 611.2737 611.2314 611.4806 -9999 -9999 -9999 -9999 -9999 -9999 -9999 -9999 -9999 -9999 -9999 -9999 -9999 -9999 -9999 -9999 -9999 -9999 -9999 -9999 -9999 -9999
-9999 -9999 -9999 -9999 -9999 -9999 -9999 -9999 -9999 -9999 -9999 -9999 -9999 -9999 -9999 -9999 -9999 -9999 -9999 -9999 -9999 -9999 -9999 -9999 -9999 -9999 -9999 -9999 -9999 -9999 -9999 -9999 -9999 -9999 -9999 -9999 -9999 -9999 -9999 -9999 637.9998 636.592 635.0894 633.5183 631.9282 630.224 628.3398 626.4041 624.6257 623.206 622.1673 621.3124 620.4319 619.4085 618.298 617.2133 616.2393 615.4484 614.7432 613.8746 612.8835 611.9556 611.3627 611.0091 610.7101 610.3479 609.8112 609.096 608.3596 607.7027 607.1966 606.8259 606.4492 606.1437 605.9919 605.8918 605.9007 605.9987 606.02 606.0018 605.9996 606.0654 606.4203 606.599 606.6046 606.5005 606.4351 606.3182 606.1939 606.1104 606.053 606.026 606.0001 606 606 606 606 606 606 606.0044 606.0052 606.0054 606.0052 606.0049 606.0033 606.0034 606.0034 606.0027 606.0016 606 605.9989 606 606 606 605.9999 605.9518 605.8378 605.7083 605.6017 605.538 605.5 605.4794 605.468 605.447 605.4296 605.425 605.4446 605.4996 605.5002 605.538 605.5851 605.6559 605.7512 605.8668 605.9999 606.1567 606.3812 606.7407 607.3103 607.9697 608.9223 610.0804 610.7576 611.3271 611.1931 610.9491 610.9862 611.2793 611.9879 613.0776 -9999 -9999 -9999 -9999 -9999 -9999 -9999 -9999 -9999 -9999 -9999 -9999 -9999 -9999 -9999 -9999 -9999 -9999 -9999 -9999
-9999 -9999 -9999 -9999 -9999 -9999 -9999 -9999 -9999 -9999 -9999 -9999 -9999 -9999 -9999 -9999 -9999 -9999 -9999 -9999 -9999 -9999 -9999 -9999 -9999 -9999 -9999 -9999 -9999 -9999 -9999 -9999 -9999 -9999 -9999 -9999 -9999 -9999 637.3688 636.1638 634.8565 633.3831 631.8271 630.2301 628.6022 626.8392 624.8434 622.728 620.7381 619.1724 618.0899 617.2403 616.3961 615.4258 614.4249 613.4102 612.5134 611.8105 611.2259 610.5731 609.8667 609.2048 608.7894 608.5282 608.2655 608.0234 607.754 607.36 607.0256 606.7639 606.6053 606.4845 606.1637 605.9954 605.9111 605.8973 605.9446 606 606.0034 605.9998 606.066 606.4196 606.628 606.6902 606.6259 606.5002 606.4247 606.341 606.2485 606.1689 606.1072 606.0656 606.0361 606.0251 606.0198 606.0162 606.0134 606.0111 606.0096 606.0103 606.0096 606.0092 606.0062 606.0049 606 606 606 606 606 605.9992 606 606.0068 606.0139 606.0225 606.0251 605.9993 605.8767 605.7468 605.6417 605.5713 605.5269 605.5 605.4759 605.4479 605.424 605.4135 605.424 605.4519 605.465 605.4999 605.5411 605.6239 605.7368 605.8674 606 606.1144 606.2628 606.4926 606.8471 607.4147 608.1335 608.9269 609.6934 610.2819 610.6138 610.5725 610.6989 611.0871 611.8544 612.7061 613.817 -9999 -9999 -9999 -9999 -9999 -9999 -9999 -9999 -9999 -9999 -9999 -9999 -9999 -9999 -9999 -9999 -9999 -9999 -9999
-9999 -9999 -9999 -9999 -9999 -9999 -9999 -9999 -9999 -9999 -9999 -9999 -9999 -9999 -9999 -9999 -9999 -9999 -9999 -9999 -9999 -9999 -9999 -9999 -9999 -9999 -9999 -9999 -9999 -9999 -9999 -9999 -9999 -9999 -9999 -9999 -9999 635.4144 634.2422 632.9196 631.467 629.8648 628.179 626.4965 624.8262 623.0942 621.1558 619.0395 616.9866 615.3422 614.2333 613.5048 612.95 612.3519 611.8386 610.9918 610.161 609.5148 609.0441 608.5599 608.1195 607.6976 607.4859 607.3564 607.1322 607.0535 606.9927 606.7898 606.6119 606.5148 606.4994 606.4566 606.0317 605.9091 605.8997 605.9418 605.9997 606.0032 605.9999 606.0306 606.4072 606.6307 606.7415 606.738 606.64 606.5015 606.4402 606.3789 606.3024 606.2253 606.1588 606.1079 606.0718 606.0505 606.038 606.0297 606.0236 606.0193 606.0164 606.0132 606.0094 606.0084 606 606 605.9926 605.9907 605.9921 605.9946 605.9973 606 606.007 606.0126 606.0157 606.0198 606 605.9591 605.8653 605.759 605.6689 605.6028 605.5537 605.5211 605.5 605.4735 605.4476 605.4302 605.426 605.4331 605.442 605.4636 605.5003 605.5969 605.7222 605.8627 605.9987 606.0652 606.1445 606.2711 606.4858 606.856 607.4499 608.0345 608.5739 609.1906 609.671 609.9582 610.3765 611.048 611.9023 612.6907 613.5856 614.9464 -9999 -9999 -9999 -9999 -9999 -9999 -9999 -9999 -9999 -9999 -9999 -9999 -9999 -9999 -9999 -9999 -9999 -9999
-9999 -9999 -9999 -9999 -9999 -9999 -9999 -9999 -9999 -9999 -9999 -9999 -9999 -9999 -9999 -9999 -9999 -9999 -9999 -9999 -9999 -9999 -9999 -9999 -9999 -9999 -9999 -9999 -9999 -9999 -9999 -9999 -9999 -9999 -9999 -9999 633.1364 632.191 630.9418 629.4689 627.8213 626.0611 624.2649 622.5298 620.8901 619.3927 617.8636 616.1321 614.2806 612.6707 611.5925 610.9731 610.6396 610.5328 610.3918 609.5652 608.7852 608.233 607.9686 607.7177 607.4498 607.1641 607.0413 606.9963 606.9451 606.9998 606.9974 606.8312 606.6699 606.5682 606.4979 606.3214 606.004 605.911 605.9408 605.9998 606.0377 606.0286 606.0117 606.2104 606.5054 606.7057 606.7875 606.768 606.6786 606.5692 606.5 606.4404 606.3605 606.2776 606.204 606.1451 606.1016 606.0719 606.0524 606.0387 606.0287 606.0224 606.0183 606.0104 606 606 605.9834 605.9742 605.969 605.9706 605.9767 605.9845 605.9924 606 606.0128 606.0111 606 605.9999 605.9601 605.9135 605.85 605.7749 605.7092 605.6543 605.5938 605.5447 605.516 605.5 605.4779 605.4573 605.4423 605.4364 605.4395 605.4575 605.4999 605.5866 605.7035 605.8293 605.9388 606 606.0517 606.1199 606.2501 606.5077 606.9539 607.4412 607.8843 608.307 608.6589 609.2229 610.0259 611.1525 612.2645 613.2507 614.2039 615.2808 -9999 -9999 -9999 -9999 -9999 -9999 -9999 -9999 -9999 -9999 -9999 -9999 -9999 -9999 -9999 -9999 -9999 -9999
-9999 -9999 -9999 -9999 -9999 -9999 -9999 -9999 -9999 -9999 -9999 -9999 -9999 -9999 -9999 -9999 -9999 -9999 -9999 -9999 -9999 -9999 -9999 -9999 -9999 -9999 -9999 -9999 -9999 -9999 634.1161 632.7994 631.8716 631.2864 630.9071 630.5311 629.9033 628.8886 627.4911 625.7992 623.9467 622.0863 620.3109 618.6924 617.2679 616.2319 615.1694 613.9009 612.3137 610.7939 609.806 609.3729 609.3898 609.3888 609.1768 608.5872 608.0363 607.7086 607.5903 607.48 607.2441 607.0546 606.9996 606.9706 606.9997 607.0272 607.0464 606.9962 606.8541 606.6995 606.4984 606.2502 606.0014 605.9397 605.9995 606.0643 606.1351 606.196 606.2813 606.4844 606.6501 606.7692 606.8131 606.7854 606.71 606.6228 606.556 606.4995 606.4077 606.3165 606.2363 606.1713 606.1218 606.0859 606.0602 606.0411 606.0266 606.017 606.0142 606 605.9792 605.9628 605.9433 605.9319 605.9307 605.9385 605.9515 605.9666 605.9828 606 606.016 606 605.967 605.9404 605.9075 605.8879 605.8766 605.841 605.8066 605.7674 605.6731 605.5853 605.5314 605.509 605.5 605.4832 605.4633 605.4517 605.4523 605.4673 605.5002 605.5842 605.6903 605.7997 605.8929 605.9553 605.9999 606.0339 606.0995 606.2523 606.5342 606.9628 607.4229 607.7715 608.085 608.6505 609.6924 611.2811 612.9422 614.3917 615.5281 616.4167 -9999 -9999 -9999 -9999 -9999 -9999 -9999 -9999 -9999 -9999 -9999 -9999 -9999 -9999 -9999 -9999 -9999 -9999
-9999 -9999 -9999 -9999 -9999 -9999 -9999 -9999 -9999 -9999 -9999 -9999 -9999 -9999 -9999 -9999 -9999 -9999 -9999 -9999 -9999 -9999 -9999 -9999 -9999 -9999 -9999 635.801 634.2723 632.7662 631.2425 629.8281 628.7752 628.1132 627.7009 627.2855 626.5798 625.4312 623.8467 621.9301 619.9398 618.1554 616.6512 615.4046 614.4189 613.7004 613.0223 612.2123 610.8679 609.5306 608.685 608.5819 608.7734 608.7971 608.5388 608.0743 607.7262 607.5439 607.4954 607.3571 607.1765 607.0453 606.9999 606.9802 607 607.0264 607.0626 607.0699 606.9997 606.8368 606.507 606.2201 606.0006 605.9449 606.0001 606.108 606.243 606.3738 606.4979 606.6356 606.7414 606.8066 606.8197 606.7835 606.715 606.6379 606.5688 606.5002 606.4192 606.3313 606.2502 606.1825 606.1298 606.0902 606.0598 606.0358 606.016 606 605.9999 605.9744 605.9427 605.9138 605.8903 605.8789 605.8818 605.8958 605.915 605.9354 605.9568 605.9802 605.9998 605.9619 605.9175 605.8864 605.8765 605.9132 605.9998 606.0256 606.0272 606.0056 605.8243 605.6644 605.5643 605.5182 605.5045 605.5 605.4802 605.4703 605.4763 605.4999 605.535 605.6046 605.6947 605.7891 605.8719 605.9337 605.9755 606 606.0219 606.1024 606.2806 606.5746 607.0426 607.4461 607.743 608.3134 609.4523 611.4764 613.7791 615.8004 617.2626 618.1343 618.6811 -9999 -9999 -9999 -9999 -9999 -9999 -9999 -9999 -9999 -9999 -9999 -9999 -9999 -9999 -9999 -9999 -9999
-9999 -9999 -9999 -9999 -9999 -9999 -9999 -9999 -9999 -9999 -9999 -9999 -9999 -9999 -9999 -9999 -9999 -9999 -9999 -9999 -9999 -9999 -9999 -9999 -9999 635.0576 633.6711 632.3276 631.0146 629.6271 628.0928 626.6037 625.4859 624.7971 624.3565 623.8539 623.0212 621.7366 620.0289 617.9914 616.0305 614.5353 613.4071 612.5825 612.0042 611.5794 611.1677 610.668 609.6653 608.6902 608.0837 608.1171 608.4055 608.5127 608.3242 607.9922 607.6706 607.5005 607.4018 607.2756 607.1432 607.0466 607 606.985 606.9879 607.0001 607.0416 607.0869 607.0736 606.963 606.5271 606.214 606.0005 605.9446 606.0004 606.132 606.3263 606.496 606.6128 606.7134 606.7816 606.8123 606.8026 606.7574 606.6901 606.6182 606.5547 606.4996 606.4137 606.3256 606.245 606.177 606.1237 606.0836 606.0502 606.0228 606 605.9772 605.9627 605.9333 605.896 605.8599 605.8328 605.8214 605.8274 605.8455 605.8674 605.8876 605.9039 605.9158 605.918 605.8921 605.8668 605.863 605.8975 606.0154 606.2637 606.4608 606.4866 606.4301 606.0736 605.8094 605.6406 605.5508 605.5116 605.5 605.4862 605.4851 605.5 605.5316 605.5751 605.6381 605.7159 605.7982 605.8741 605.9347 605.9774 606 605.9954 606.0405 606.1893 606.4827 606.8987 607.2003 607.5229 608.1121 609.3233 611.6345 614.4629 617.0333 618.9176 620.0291 620.6235 -9999 -9999 -9999 -9999 -9999 -9999 -9999 -9999 -9999 -9999 -9999 -9999 -9999 -9999 -9999 -9999 -9999
-9999 -9999 -9999 -9999 -9999 -9999 -9999 -9999 -9999 -9999 -9999 -9999 -9999 -9999 -9999 -9999 -9999 -9999 -9999 -9999 -9999 -9999 -9999 -9999 632.562 631.4207 630.1882 628.9346 627.6337 626.1835 624.552 622.9824 621.8453 621.1699 620.7305 620.1661 619.2517 617.9586 616.3562 614.437 612.7866 611.5704 610.798 610.3415 610.0748 609.866 609.6047 609.278 608.7152 608.2236 607.8604 607.83 608.12 608.3135 608.2406 607.9931 607.6508 607.494 607.3422 607.2176 607.119 607.0521 607.0159 607 606.9891 606.99 607.0001 607.0431 607.0005 606.8508 606.5082 606.2142 606.0008 605.9392 605.9986 606.1162 606.3726 606.506 606.6514 606.7407 606.7834 606.7893 606.7625 606.7083 606.6381 606.5656 606.5002 606.4468 606.375 606.2964 606.2206 606.1541 606.1021 606.0659 606.0303 606 605.9738 605.9505 605.9309 605.8954 605.8516 605.8092 605.778 605.7656 605.7726 605.7922 605.8135 605.8289 605.8358 605.8352 605.8297 605.8234 605.8395 605.9002 606.0167 606.255 606.4911 606.6242 606.6949 606.6929 606.4774 606.0708 605.7966 605.6332 605.54 605.5 605.4897 605.5 605.5279 605.5701 605.6216 605.6827 605.7518 605.8236 605.892 605.949 605.9871 606 605.9802 605.9963 606.0944 606.2909 606.567 607.0059 607.4594 607.9968 609.1653 611.5414 614.6725 617.663 619.9865 621.5139 622.4391 -9999 -9999 -9999 -9999 -9999 -9999 -9999 -9999 -9999 -9999 -9999 -9999 -9999 -9999 -9999 -9999 -9999
-9999 -9999 -9999 -9999 -9999 -9999 -9999 -9999 -9999 -9999 -9999 -9999 -9999 -9999 -9999 -9999 -9999 -9999 -9999 -9999 -9999 -9999 -9999 629.8887 629.1701 628.1674 626.95 625.5795 624.0673 622.3986 620.616 618.9828 617.8941 617.2882 616.9064 616.3795 615.5675 614.6066 613.6531 612.1802 610.7512 609.6882 609.1321 608.9144 608.8487 608.7725 608.6284 608.5236 608.3455 608.1705 607.9653 607.881 607.9914 608.1488 608.1646 607.9798 607.5372 607.3683 607.244 607.1504 607.09 607.052 607.0298 607.0151 607 607.0013 606.9976 606.9991 606.9071 606.7498 606.5013 606.2251 606.0006 605.9013 605.9115 606.0343 606.468 606.6198 606.7095 606.7519 606.7605 606.7443 606.7045 606.6431 606.5708 606.5001 606.4404 606.3854 606.3217 606.2516 606.1805 606.1145 606.0626 606.0382 605.9999 605.9702 605.9603 605.9453 605.9307 605.881 605.824 605.7715 605.7339 605.7178 605.723 605.741 605.7588 605.7676 605.765 605.7553 605.7494 605.7651 605.8346 605.9987 606.2743 606.491 606.5675 606.616 606.7527 606.9038 606.9208 606.514 606.0662 605.7845 605.6014 605.515 605.5 605.5188 605.563 605.6186 605.6775 605.7385 605.8003 605.8606 605.9187 605.9685 605.9982 606 605.9669 605.9677 606.0431 606.2159 606.5083 606.9889 607.4601 607.8734 608.8663 611.0632 614.2303 617.4768 620.215 622.2311 623.537 -9999 -9999 -9999 -9999 -9999 -9999 -9999 -9999 -9999 -9999 -9999 -9999 -9999 -9999 -9999 -9999 -9999
-9999 -9999 -9999 -9999 -9999 -9999 -9999 -9999 -9999 -9999 -9999 -9999 -9999 -9999 -9999 -9999 -9999 -9999 -9999 -9999 -9999 -9999 627.0906 626.7732 626.2154 625.2185 623.8203 622.1265 620.2732 618.3611 616.528 614.9658 613.9938 613.4942 613.2473 612.9343 612.548 612.4326 613.0703 612.165 610.8281 609.6028 608.7386 608.503 608.4999 608.5007 608.537 608.5247 608.4534 608.3948 608.2964 608.1381 608.0817 608.1135 608.0946 607.9655 607.5237 607.3008 607.1631 607.0813 607.0537 607.0403 607.0326 607.0278 607.0221 606.9999 606.9473 606.8813 606.7715 606.644 606.491 606.2295 606.0008 605.8783 605.8685 606.0105 606.4236 606.6238 606.7067 606.7192 606.7053 606.6783 606.6355 606.5705 606.5001 606.4369 606.379 606.3229 606.2629 606.1984 606.1301 606.0607 606.0003 605.9993 605.9578 605.957 605.9998 606.0015 605.9991 605.9114 605.829 605.7573 605.7077 605.6843 605.6839 605.6968 605.7089 605.7102 605.6996 605.6839 605.679 605.7089 605.8077 606.0266 606.4651 606.569 606.532 606.5034 606.7319 607.0291 607.1695 606.9371 606.4548 605.9835 605.6775 605.5372 605.5103 605.545 605.6105 605.6819 605.7452 605.8044 605.8595 605.9043 605.9478 605.9865 606 605.9789 605.9471 605.9507 606.027 606.205 606.5132 606.9998 607.434 607.7092 608.4793 610.372 613.3573 616.6763 619.6539 621.9969 623.5825 -9999 -9999 -9999 -9999 -9999 -9999 -9999 -9999 -9999 -9999 -9999 -9999 -9999 -9999 -9999 -9999 -9999
-9999 -9999 -9999 -9999 -9999 -9999 -9999 -9999 -9999 -9999 -9999 -9999 -9999 -9999 -9999 -9999 -9999 -9999 -9999 -9999 -9999 624.5674 624.29 624.1193 623.5664 622.393 620.6354 618.534 616.4338 614.5002 612.9165 611.6733 610.8561 610.4291 610.3461 610.444 610.5957 611.1265 612.1176 612.3691 611.4905 610.3833 609.4935 609.0632 608.9198 608.9058 608.9584 608.9434 608.838 608.7432 608.6177 608.4488 608.2622 608.1332 608.0047 607.8364 607.5081 607.2574 607.0901 607.0006 606.9996 606.9999 606.9999 607 606.9996 606.9423 606.8542 606.7437 606.6127 606.5019 606.3903 606.1954 605.9988 605.8702 605.8304 605.8921 606.0778 606.4713 606.6172 606.6284 606.6133 606.594 606.5642 606.5002 606.4381 606.3774 606.3184 606.2599 606.2006 606.1392 606.0721 605.9992 605.9234 605.9089 605.9255 606.0043 606.1556 606.1995 606.1688 606.0082 605.8822 605.7753 605.7056 605.6704 605.6604 605.6642 605.6678 605.6616 605.6447 605.6255 605.6234 605.6664 605.7866 606.0264 606.4839 606.5519 606.4998 606.5111 606.8403 607.3799 607.5104 607.2485 606.7022 606.0699 605.7229 605.5681 605.5451 605.5962 605.6804 605.7654 605.8254 605.877 605.9272 605.951 605.9742 606 605.99 605.9611 605.9355 605.948 606.0318 606.2144 606.5156 606.9545 607.2258 607.5115 608.1447 609.6946 612.3514 615.5495 618.5241 620.9655 622.7272 -9999 -9999 -9999 -9999 -9999 -9999 -9999 -9999 -9999 -9999 -9999 -9999 -9999 -9999 -9999 -9999 -9999
-9999 -9999 -9999 -9999 -9999 -9999 -9999 -9999 -9999 -9999 -9999 -9999 -9999 -9999 -9999 -9999 -9999 -9999 -9999 -9999 -9999 622.2585 622.0057 621.7849 621.0434 619.5623 617.4271 615.1309 613.167 611.559 610.4526 609.5958 608.9606 608.5974 608.6064 608.9407 609.3968 610.1317 611.1345 611.8092 611.7825 611.1051 610.389 609.91 609.6552 609.5541 609.5112 609.4135 609.2396 609.0511 608.8169 608.5862 608.3691 608.1691 607.9882 607.7426 607.4788 607.187 607.0002 606.9093 606.8949 606.8992 606.9042 606.9041 606.8918 606.84 606.7526 606.6344 606.5019 606.4489 606.3572 606.1924 606.0032 605.8994 605.8577 605.8981 606.0071 606.3099 606.4962 606.5012 606.5002 606.5002 606.4995 606.4436 606.3816 606.32 606.2584 606.1962 606.1338 606.0722 605.9991 605.9095 605.8597 605.8969 606.0249 606.2334 606.4907 606.5327 606.4836 606.2466 605.9939 605.8231 605.7292 605.6807 605.6579 605.6483 605.6398 605.6246 605.6025 605.5818 605.5839 605.6455 605.7993 606.054 606.4824 606.5001 606.4493 606.5831 607.1495 607.7436 608.0354 607.7119 607.0174 606.2761 605.8352 605.6509 605.6309 605.6886 605.7792 605.8727 605.9132 605.9471 605.9996 606.0001 606.0001 606.0065 605.9926 605.9677 605.9512 605.9704 606.0541 606.2281 606.4976 606.8004 607.0311 607.4048 607.9046 609.1512 611.4518 614.3896 617.1383 619.4504 621.2611 622.5085 -9999 -9999 -9999 -9999 -9999 -9999 -9999 -9999 -9999 -9999 -9999 -9999 -9999 -9999 -9999 -9999
-9999 -9999 -9999 -9999 -9999 -9999 -9999 -9999 -9999 -9999 -9999 -9999 -9999 -9999 -9999 -9999 -9999 -9999 -9999 -9999 621.2814 620.5386 620.1323 619.6251 618.5392 616.752 614.4754 612.3617 610.7025 609.6185 608.946 608.4363 607.9805 607.6681 607.6611 608.1067 608.7416 609.4945 610.3586 611.0797 611.4126 611.3201 610.9474 610.5592 610.288 610.104 609.8906 609.6407 609.389 609.1139 608.8093 608.5132 608.2451 608.0024 607.7708 607.5057 607.2516 607.0054 606.8591 606.7822 606.7655 606.7697 606.7747 606.7731 606.7617 606.734 606.6782 606.6011 606.5288 606.4996 606.4172 606.2778 606.1172 605.9996 605.9413 605.9985 606.064 606.2329 606.3651 606.4005 606.4109 606.4148 606.4093 606.3707 606.3185 606.2611 606.1996 606.1332 606.0636 605.9993 605.9122 605.8535 605.8834 606.0544 606.405 606.5909 606.9376 606.976 606.7917 606.4533 606.0359 605.8701 605.7776 605.7195 605.681 605.6533 605.6268 605.5994 605.5726 605.549 605.5494 605.6306 605.8513 606.1989 606.481 606.4999 606.522 606.9169 607.54 608.2996 608.9587 608.605 607.5543 606.5786 606.0136 605.7965 605.7809 605.826 605.8974 605.9978 606.0002 606.0004 606.044 606.0703 606.0717 606.0651 606.0496 606.031 606.022 606.04 606.1078 606.2532 606.4935 606.75 606.989 607.2228 607.6197 608.7285 610.7776 613.3614 615.7377 617.7603 619.475 620.8889 -9999 -9999 -9999 -9999 -9999 -9999 -9999 -9999 -9999 -9999 -9999 -9999 -9999 -9999 -9999 -9999
-9999 -9999 -9999 -9999 -9999 -9999 -9999 -9999 -9999 -9999 -9999 -9999 -9999 -9999 -9999 -9999 -9999 -9999 -9999 621.0037 619.9465 619.1228 618.4475 617.5107 616.0251 614.0358 611.9335 610.2371 609.1334 608.4729 608.159 607.9451 607.6547 607.3866 607.3586 607.6674 608.3263 609.0496 609.762 610.3948 610.8109 610.9807 610.9669 610.7352 610.5038 610.2414 609.6717 609.4426 609.2203 608.9428 608.6212 608.2968 608.0066 607.7545 607.5013 607.2432 607.0051 606.8223 606.7107 606.6399 606.6287 606.6326 606.6353 606.6328 606.6283 606.6378 606.6208 606.5852 606.5524 606.5367 606.4995 606.3964 606.2568 606.1109 606.0018 606.0358 606.0944 606.1922 606.2764 606.3146 606.3289 606.3314 606.3224 606.2936 606.2521 606.2028 606.1461 606.0798 606.0005 605.9272 605.8691 605.8891 606.056 606.4292 606.7429 606.9876 607.1946 607.1964 606.9816 606.5517 606.1964 605.9987 605.8774 605.7947 605.7328 605.6827 605.6306 605.5837 605.5524 605.5222 605.4999 605.5646 605.7933 606.0743 606.4772 606.5072 606.7294 607.2271 607.9944 609.0259 610.0477 609.5735 608.1887 606.938 606.2662 606.0052 605.9955 605.9984 606.0021 606.0717 606.0991 606.1055 606.147 606.2156 606.2249 606.2147 606.2028 606.1926 606.1891 606.1982 606.2318 606.3174 606.5072 606.7786 607.0042 607.2233 607.5528 608.4829 610.2172 612.4559 614.4627 616.1357 617.6326 619.0885 -9999 -9999 -9999 -9999 -9999 -9999 -9999 -9999 -9999 -9999 -9999 -9999 -9999 -9999 -9999 -9999
-9999 -9999 -9999 -9999 -9999 -9999 -9999 -9999 -9999 -9999 -9999 -9999 -9999 -9999 -9999 -9999 -9999 -9999 620.9111 619.723 618.5928 617.6727 616.6961 615.3943 613.6478 611.7169 610.1694 609.0187 608.3892 607.9901 607.9038 607.9124 607.7439 607.5246 607.4736 607.6722 608.0409 608.4975 609.048 609.6146 610.0236 610.2478 610.3416 610.319 610.206 609.9573 609.5114 609.1851 608.9344 608.6473 608.3271 608.013 607.7479 607.4974 607.2419 607.0027 606.8016 606.655 606.5829 606.5017 606.4995 606.4999 606.4999 606.4998 606.5013 606.5581 606.5677 606.5573 606.5449 606.54 606.5425 606.4998 606.4002 606.2523 606.1329 606.1064 606.1259 606.1732 606.2193 606.2451 606.2545 606.2532 606.2423 606.2191 606.1863 606.1474 606.1016 606.0514 605.9991 605.9138 605.9097 606.0623 606.4289 606.7428 607.0172 607.2589 607.369 607.3329 607.124 606.7578 606.38 606.1404 605.999 605.8935 605.8075 605.739 605.65 605.5688 605.5351 605.4995 605.4431 605.5078 605.8574 606.2424 606.5192 606.6458 606.95 607.4858 608.3858 609.651 610.7189 610.1669 608.5786 607.2043 606.5121 606.2571 606.2288 606.1862 606.165 606.2021 606.2562 606.2667 606.322 606.489 606.5139 606.5081 606.5047 606.5036 606.5035 606.5012 606.5015 606.5243 606.6999 606.981 607.222 607.4623 607.7264 608.4713 609.9345 611.823 613.4533 614.7737 615.9604 617.3392 -9999 -9999 -9999 -9999 -9999 -9999 -9999 -9999 -9999 -9999 -9999 -9999 -9999 -9999 -9999 -9999
-9999 -9999 -9999 -9999 -9999 -9999 -9999 -9999 -9999 -9999 -9999 -9999 -9999 -9999 -9999 -9999 -9999 620.8181 619.605 618.2707 617.0338 616.0319 614.8335 613.3652 611.7466 610.2094 609.2381 608.6858 608.3997 608.0455 608.035 608.1846 608.0184 607.8192 607.7863 607.876 607.9955 608.0146 608.2128 608.6669 609.0007 609.2106 609.3669 609.5164 609.5706 609.4621 609.1904 608.901 608.6255 608.3199 608.0158 607.7494 607.4979 607.2446 607.0002 606.8029 606.6312 606.5035 606.496 606.4113 606.3767 606.3669 606.3698 606.3853 606.4227 606.498 606.5001 606.4999 606.4999 606.5002 606.5452 606.5482 606.4984 606.3508 606.2258 606.1641 606.1493 606.1611 606.1786 606.1885 606.1887 606.1818 606.1696 606.1494 606.1219 606.0923 606.0508 605.9998 605.9407 605.9048 606.0091 606.4103 606.702 606.9874 607.2861 607.4931 607.5019 607.4366 607.2512 606.9557 606.5073 606.2523 606.1034 605.9988 605.8978 605.8333 605.6908 605.5404 605.4992 605.4333 605.4025 605.5132 605.9776 606.4536 606.6211 606.7402 607.0435 607.7297 608.9047 610.454 611.5226 610.3175 608.6071 607.3224 606.7369 606.5042 606.4871 606.3766 606.335 606.3641 606.4878 606.5145 606.5768 606.9191 607.0207 607.0284 607.0282 607.0229 607.0138 606.9847 606.9742 606.974 607.025 607.215 607.4717 607.6859 608.008 608.7153 610.0309 611.6729 612.9217 613.9144 614.6693 615.8144 -9999 -9999 -9999 -9999 -9999 -9999 -9999 -9999 -9999 -9999 -9999 -9999 -9999 -9999 -9999 -9999
-9999 -9999 -9999 -9999 -9999 -9999 -9999 -9999 -9999 -9999 -9999 -9999 -9999 -9999 -9999 -9999 620.8089 619.6094 618.1307 616.61 615.2936 614.2388 613.0546 611.6812 610.5223 609.6408 609.0966 608.9219 608.6697 608.4161 608.4196 608.6792 608.2693 608.0001 608 607.9953 607.848 607.7155 607.7508 607.9607 608.0691 608.1339 608.2801 608.5814 608.7479 608.776 608.6787 608.5142 608.2977 607.9915 607.7491 607.5027 607.2468 606.9947 606.7628 606.6351 606.4996 606.3857 606.3351 606.2727 606.2407 606.2317 606.2367 606.2546 606.2894 606.3403 606.3696 606.392 606.4141 606.4448 606.4992 606.4998 606.4479 606.3411 606.2407 606.1774 606.1491 606.1422 606.1421 606.1392 606.1302 606.1169 606.1047 606.0866 606.0597 606.0414 605.9999 605.9437 605.8982 605.9017 606.0345 606.4713 606.812 607.0941 607.4814 607.6414 607.6171 607.4991 607.288 606.9827 606.5389 606.3427 606.2098 606.1078 606.0079 605.9902 605.7838 605.514 605.4337 605.3834 605.4049 605.5269 605.9941 606.4805 606.668 606.8492 607.2672 608.1553 609.5095 611.0751 611.7708 610.2501 608.5527 607.4713 606.9586 606.7015 606.605 606.5044 606.4982 606.5143 606.7262 606.935 607.0726 607.4844 607.7063 607.7532 607.7745 607.744 607.6946 607.5657 607.5253 607.522 607.5166 607.5252 607.6948 607.994 608.4507 609.2415 610.5395 611.969 612.7776 613.5186 613.8542 614.6646 -9999 -9999 -9999 -9999 -9999 -9999 -9999 -9999 -9999 -9999 -9999 -9999 -9999 -9999 -9999 -9999
-9999 -9999 -9999 -9999 -9999 -9999 -9999 -9999 -9999 -9999 -9999 -9999 -9999 -9999 -9999 -9999 619.9724 618.3828 616.5798 614.8712 613.4735 612.3694 611.3439 610.6656 610.0932 609.9606 609.9094 609.8634 609.5853 609.2525 609.0385 609.2682 608.3568 607.9248 607.7939 607.7305 607.6166 607.5098 607.489 607.5491 607.5753 607.5229 607.594 607.9161 608.0122 608.0351 608.0341 608.0173 607.9286 607.5908 607.4534 607.244 606.9659 606.7249 606.5148 606.4942 606.3774 606.262 606.1812 606.1248 606.1064 606.1036 606.1078 606.118 606.1351 606.1625 606.2132 606.2528 606.2847 606.3175 606.3522 606.3541 606.3193 606.2549 606.1902 606.1446 606.1202 606.1094 606.1027 606.0931 606.0776 606.0569 606.0487 606.0348 606.0002 605.9998 605.9565 605.9199 605.9205 606.0032 606.2172 606.5366 606.9766 607.4221 607.6862 607.7651 607.6827 607.502 607.2771 606.9973 606.6741 606.4957 606.3619 606.2942 606.2383 606.1606 605.9914 605.7181 605.4966 605.4015 605.4952 605.6456 606.011 606.474 606.6935 606.9696 607.541 608.6508 610.1852 611.594 611.7187 610.0881 608.4445 607.4816 607.012 606.836 606.7502 606.7102 606.7395 606.7773 606.9857 607.2515 607.6072 608.1492 608.424 608.5009 608.5784 608.4877 608.4152 608.2873 608.2465 608.2443 608.2007 608.0189 608.0414 608.4151 609.0074 609.9877 611.3527 612.5084 612.8818 613.0313 613.2149 -9999 -9999 -9999 -9999 -9999 -9999 -9999 -9999 -9999 -9999 -9999 -9999 -9999 -9999 -9999 -9999 -9999
-9999 -9999 -9999 -9999 -9999 -9999 -9999 -9999 -9999 -9999 -9999 -9999 -9999 -9999 -9999 620.8486 619.3572 617.3475 615.2119 613.3278 611.8678 610.8401 610.3323 610.3478 610.7154 611.1633 611.5244 611.6473 611.4805 611.0193 610.2715 609.6022 608.7036 608.08 607.7904 607.6622 607.6039 607.5602 607.5212 607.4939 607.4994 607.4055 607.3869 607.4968 607.5099 607.4942 607.4803 607.4922 607.4687 607.2537 607.0238 606.9068 606.5712 606.4924 606.3823 606.3425 606.257 606.1509 606.0559 606.0003 605.9999 605.9999 605.9999 605.9999 605.9998 606.002 606.075 606.1136 606.1371 606.1561 606.1718 606.173 606.1576 606.1298 606.101 606.0796 606.0676 606.0615 606.0565 606.0481 606.0323 606.0001 605.9999 605.9996 605.9613 605.9498 605.928 605.9366 606.002 606.1855 606.4634 606.7039 607.054 607.5207 607.8184 607.8601 607.7263 607.5013 607.2574 606.9995 606.7522 606.5951 606.502 606.5001 606.4887 606.3556 606.2201 605.96 605.5592 605.3945 605.5042 605.7507 606.0748 606.4847 606.739 607.0962 607.9365 609.3928 611.1501 612.4167 611.8972 610.0696 608.4027 607.4945 607.1131 606.9948 606.9056 606.9045 606.9891 607.0045 607.2188 607.6083 608.2041 608.772 609.076 609.1544 609.2104 609.1034 609.0338 609.0219 609.0502 608.9429 608.8592 608.5599 608.5071 608.8827 609.6821 610.9809 612.265 612.9065 612.9987 612.9326 613.1329 -9999 -9999 -9999 -9999 -9999 -9999 -9999 -9999 -9999 -9999 -9999 -9999 -9999 -9999 -9999 -9999 -9999
-9999 -9999 -9999 -9999 -9999 -9999 -9999 -9999 -9999 -9999 -9999 -9999 -9999 -9999 -9999 620.6464 618.9763 616.6674 614.2797 612.2534 610.7885 610.0353 610.0941 610.8901 611.9824 613.0629 613.8555 614.2117 614.1788 613.6968 612.6599 611.3578 610.0595 609.0687 608.4836 608.1989 608.1322 608.0913 607.9557 607.7295 607.6071 607.4946 607.3832 607.329 607.2349 607.122 607.0219 607.0131 607.0024 606.9024 606.5727 606.5027 606.3737 606.3378 606.2969 606.2638 606.1983 606.103 606.0004 605.9484 605.9474 605.9297 605.9238 605.9163 605.9186 605.9385 605.9991 606.0002 606.0001 606.0001 606.0004 606.0004 606.0003 606.0001 606 605.9999 605.9999 605.9999 605.9999 606 605.9998 605.9648 605.9413 605.9269 605.9158 605.9347 605.9366 606.0001 606.126 606.3197 606.5208 606.8492 607.2695 607.7447 607.9957 607.9544 607.7601 607.5007 607.2415 606.9983 606.8046 606.6973 606.6676 606.7095 606.6854 606.545 606.4821 606.235 605.8887 605.5266 605.6882 606.0117 606.4122 606.6382 606.9421 607.5 608.6799 610.4966 612.4391 613.4346 612.3788 610.259 608.4868 607.5706 607.2415 607.0889 607.0002 606.9998 607.0814 607.2134 607.5471 608.1769 608.9705 609.6354 609.9761 610.059 610.0062 609.8289 609.6632 609.6785 609.75 609.2711 609.0552 608.9695 608.9454 609.4323 610.4977 611.8314 612.7773 612.9541 612.7437 612.7468 613.1429 -9999 -9999 -9999 -9999 -9999 -9999 -9999 -9999 -9999 -9999 -9999 -9999 -9999 -9999 -9999 -9999 -9999
-9999 -9999 -9999 -9999 -9999 -9999 -9999 -9999 -9999 -9999 -9999 -9999 -9999 -9999 -9999 620.4625 618.7964 616.3595 613.8652 611.7952 610.3641 610.0775 610.7881 612.1318 613.7738 615.3458 616.5098 617.0894 617.2107 616.8268 615.7606 614.1935 612.5035 611.1299 610.2316 609.7327 609.5596 609.3791 608.9249 608.3242 607.9604 607.6774 607.4967 607.3521 607.1759 607.0025 606.9005 606.7924 606.6455 606.5128 606.376 606.3425 606.3097 606.304 606.2946 606.2758 606.2319 606.1614 606.0754 606.0032 605.999 605.9288 605.9129 605.8842 605.8793 605.8862 605.9092 605.9031 605.8922 605.8838 605.8796 605.8807 605.8872 605.8982 605.9113 605.9215 605.9231 605.9211 605.9237 605.9344 605.9407 605.9415 605.9186 605.9041 605.9183 605.998 606.0041 606.1104 606.2654 606.4858 606.6655 606.9969 607.4828 607.9668 608.1008 608 607.7698 607.4979 607.2433 607.0045 606.8661 606.8177 606.8469 606.9866 607.0264 606.9577 606.7628 606.4753 606.065 605.8073 605.9795 606.2545 606.5032 606.727 607.1055 607.9968 609.6026 611.7274 613.6446 614.3525 612.8903 610.5287 608.6953 607.7944 607.4594 607.2242 607.1088 607.1006 607.2295 607.5076 608.0295 608.8842 609.9858 610.8779 611.2813 611.1994 610.8979 610.3798 610.1302 610.0427 609.9968 609.6635 609.0527 608.987 609.2701 610.1349 611.2686 612.2499 612.8464 612.3691 612.1276 612.3726 -9999 -9999 -9999 -9999 -9999 -9999 -9999 -9999 -9999 -9999 -9999 -9999 -9999 -9999 -9999 -9999 -9999 -9999
-9999 -9999 -9999 -9999 -9999 -9999 -9999 -9999 -9999 -9999 -9999 -9999 -9999 -9999 620.7595 620.2274 618.5542 616.2119 613.8738 612.0189 610.8977 611.0282 612.1328 613.8672 615.847 617.6935 619.1 619.8671 620.1385 619.8964 618.9406 617.3803 615.6192 614.0679 612.9573 612.2404 611.8483 611.4203 610.6047 609.5004 608.6198 608.0156 607.6865 607.4843 607.2675 607.1014 606.9952 606.8038 606.5139 606.4008 606.3649 606.3652 606.3668 606.3719 606.373 606.3664 606.3467 606.3127 606.2692 606.2249 606.1723 606.0132 605.9974 605.9146 605.8966 605.8709 605.8646 605.8439 605.8254 605.814 605.8094 605.8117 605.8206 605.8361 605.8572 605.877 605.8765 605.8691 605.8766 605.9122 605.9327 605.9985 606.0019 606.0169 606.0317 606.1577 606.2144 606.2813 606.3643 606.5042 606.7072 607.0126 607.5081 607.9895 608.1073 607.9988 607.7697 607.5078 607.3202 607.1246 607.0032 606.9965 607.0413 607.2628 607.462 607.2845 607.0375 606.7485 606.4215 606.0706 606.1992 606.4731 606.6318 606.9355 607.5389 608.8155 610.7894 612.9847 614.5228 614.6046 613.0409 610.6624 608.9106 607.954 607.5109 607.3287 607.2546 607.272 607.5071 607.9668 608.7062 609.844 611.192 612.2363 612.6231 612.414 611.9244 611.2426 610.8374 610.4489 609.9561 609.2799 608.9188 609.075 609.799 610.8311 611.748 612.1533 612.1674 611.918 611.7908 612.0101 -9999 -9999 -9999 -9999 -9999 -9999 -9999 -9999 -9999 -9999 -9999 -9999 -9999 -9999 -9999 -9999 -9999 -9999
-9999 -9999 -9999 -9999 -9999 -9999 -9999 -9999 -9999 -9999 -9999 -9999 -9999 -9999 -9999 619.5302 618.046 616.0835 614.2498 612.8981 612.2732 612.6555 613.9775 615.8931 617.995 619.9276 621.4179 622.2766 622.6559 622.5471 621.7417 620.3423 618.7236 617.1999 615.9954 615.1109 614.4788 613.8375 612.7842 611.1956 609.5977 608.5179 607.9159 607.5251 607.3538 607.2072 607.1047 606.9794 606.677 606.5038 606.4979 606.4992 606.4995 606.4996 606.4997 606.4997 606.4996 606.4993 606.499 606.4991 606.4797 606.2932 606.1907 606.0144 605.9969 605.9119 605.8872 605.8397 605.8127 605.8015 605.7981 605.8007 605.809 605.8251 605.8544 605.8959 605.8938 605.8824 605.8995 605.9955 606.0287 606.1597 606.2665 606.4451 606.4744 606.4948 606.4956 606.4965 606.5023 606.6155 606.7929 607.0366 607.5032 607.9796 608.095 608.0026 607.831 607.6295 607.4905 607.3201 607.2435 607.2776 607.4436 607.5927 607.8959 607.6027 607.4271 607.0603 606.736 606.4692 606.3876 606.5007 606.7027 607.1263 608.1194 609.8695 612.1314 614.1912 615.1932 614.7811 612.9986 610.6139 608.9374 608.002 607.6038 607.497 607.488 607.5458 607.9489 608.6022 609.6028 610.9672 612.4019 613.3765 613.5662 613.27 612.734 611.9405 611.2326 610.7223 610.0264 609.4733 609.0734 609.4034 610.2364 611.3015 611.8895 612.0009 611.8715 611.6857 611.6169 -9999 -9999 -9999 -9999 -9999 -9999 -9999 -9999 -9999 -9999 -9999 -9999 -9999 -9999 -9999 -9999 -9999 -9999 -9999
-9999 -9999 -9999 -9999 -9999 -9999 -9999 -9999 -9999 -9999 -9999 -9999 -9999 -9999 -9999 618.7773 617.5025 616.1003 615.0042 614.3317 614.1659 614.7548 616.1603 618.0676 620.0968 621.9418 -9999 -9999 624.5786 624.533 623.8583 622.688 621.2773 619.8593 618.598 617.5668 616.7651 615.9938 614.9563 613.0818 610.8743 609.1448 608.152 607.7018 607.4868 607.27 607.1262 607.0002 606.8134 606.6837 606.6494 606.6385 606.6329 606.6295 606.6285 606.6309 606.639 606.6529 606.6692 606.6711 606.6238 606.5057 606.4788 606.2899 606.1884 606.014 605.996 605.8969 605.8656 605.8586 605.8576 605.8594 605.8643 605.8747 605.9069 605.9977 606.0002 605.9986 606.0302 606.2164 606.4449 606.5066 606.5367 606.6801 606.7372 606.7416 606.6888 606.6593 606.6774 606.8013 606.9927 607.2313 607.5831 607.9946 608.1567 608.1583 608.0198 607.7886 607.6078 607.5 607.4926 607.536 607.7335 607.9928 608.1755 608.0085 607.7565 607.4168 606.9825 606.6589 606.5008 606.5806 606.9119 607.5994 609.0545 611.2695 613.6467 615.4149 615.8912 614.9633 612.9147 610.4783 608.8648 608.0289 607.7363 607.688 607.7335 607.9795 608.5422 609.4694 610.7669 612.2318 613.3952 613.9137 613.9861 613.6114 612.9973 612.1827 611.2078 610.5148 610.0253 609.8945 609.6064 609.9141 610.7502 611.716 611.9981 611.9122 611.743 611.6496 -9999 -9999 -9999 -9999 -9999 -9999 -9999 -9999 -9999 -9999 -9999 -9999 -9999 -9999 -9999 -9999 -9999 -9999 -9999 -9999
-9999 -9999 -9999 -9999 -9999 -9999 -9999 -9999 -9999 -9999 -9999 -9999 -9999 -9999 -9999 618.3921 617.3107 616.473 616.0801 616.0311 616.2693 617.0273 618.4224 620.1998 622.0389 -9999 -9999 -9999 -9999 625.6945 625.1863 624.2007 622.9723 621.6546 620.3217 619.1342 618.2017 617.3559 616.7422 614.882 612.2986 609.9742 608.5734 607.9118 607.5053 607.2395 607.0869 606.9999 606.917 606.8501 606.818 606.8013 606.7918 606.7867 606.7848 606.7861 606.7959 606.8064 606.8228 606.8197 606.7455 606.6626 606.6178 606.5092 606.477 606.2852 606.1846 606.0124 605.9992 606.0004 606.0009 606.0008 606.0002 605.9989 606.0093 606.1567 606.2031 606.2606 606.4474 606.5815 606.9266 606.9954 606.9935 607.0159 607.0226 606.9878 606.8568 606.8125 606.8429 606.9965 607.187 607.4849 607.9172 608.1671 608.3524 608.5175 608.4894 608.0956 607.7971 607.7084 607.761 607.9369 608.0862 608.4603 608.6085 608.4739 608.0544 607.5668 607.082 606.7836 606.6226 606.7059 607.1213 608.2029 610.1948 612.8243 615.206 616.5887 616.516 615.1699 612.7966 610.3333 608.8364 608.1921 608.0082 607.9797 608.0115 608.4169 609.2254 610.4991 612.0103 613.3104 613.9314 614.0007 613.952 613.6278 613.059 612.2814 611.3492 610.4943 610.0749 609.9171 609.9595 610.4072 611.2695 612.0123 612.001 611.8324 611.7195 611.8174 -9999 -9999 -9999 -9999 -9999 -9999 -9999 -9999 -9999 -9999 -9999 -9999 -9999 -9999 -9999 -9999 -9999 -9999 -9999 -9999
-9999 -9999 -9999 -9999 -9999 -9999 -9999 -9999 -9999 -9999 -9999 -9999 -9999 -9999 -9999 -9999 618.0814 617.5984 617.5134 617.7948 618.307 619.208 620.546 622.1486 -9999 -9999 -9999 -9999 -9999 -9999 625.761 624.8557 623.6708 622.3842 621.02 619.8333 619.1307 618.9039 618.1638 616.2775 613.4741 610.7266 608.8978 607.9741 607.4839 607.1713 607.0227 606.9843 606.9995 606.9987 606.9981 606.9995 606.9991 606.9992 606.9993 607.0019 607.0245 607.0046 607.0015 606.9938 606.8714 606.8068 606.7814 606.7293 606.6415 606.5088 606.4755 606.2896 606.2417 606.2373 606.2377 606.2349 606.2275 606.2257 606.2764 606.4674 606.5137 606.5763 606.9136 607.0694 607.4306 607.5031 607.5021 607.4995 607.4638 607.2418 607.0374 606.9957 607.0103 607.1845 607.3153 607.5392 607.973 608.2954 608.6224 609.0904 609.2324 608.6677 608.1146 608.0006 608.0275 608.2239 608.5559 609.0671 609.329 609.0988 608.5288 607.9352 607.4136 606.9866 606.7905 606.9438 607.5364 609.0339 611.5271 614.4457 616.7021 617.65 617.08 615.3669 612.7897 610.3542 609.1067 608.5872 608.4522 608.2521 608.2552 608.7383 609.8431 611.3586 612.9606 614.0594 614.3052 614.0151 613.8721 -9999 613.4006 612.9802 612.296 611.412 610.6808 610.2897 610.5051 611.2904 612.161 612.6536 612.1615 611.8718 611.819 -9999 -9999 -9999 -9999 -9999 -9999 -9999 -9999 -9999 -9999 -9999 -9999 -9999 -9999 -9999 -9999 -9999 -9999 -9999 -9999 -9999
-9999 -9999 -9999 -9999 -9999 -9999 -9999 -9999 -9999 -9999 -9999 -9999 -9999 -9999 -9999 -9999 -9999 -9999 618.9431 619.385 620.1199 621.152 -9999 -9999 -9999 -9999 -9999 -9999 -9999 -9999 -9999 -9999 623.2086 621.897 620.5329 619.4159 619.0247 619.0383 618.7281 616.9023 614.155 611.3027 609.2038 608.0355 607.4598 607.1205 606.99 606.9868 607.0485 607.1106 607.184 607.2628 607.2902 607.3008 607.2996 607.3099 607.4432 607.3076 607.2346 607.1703 607.0355 607.0205 607.0239 606.9844 606.8284 606.7353 606.679 606.5103 606.4935 606.4954 606.4957 606.495 606.4933 606.4965 606.5358 606.7347 606.9557 607.0602 607.4149 607.5688 607.9251 608.0127 608.0337 608.0082 607.9348 607.585 607.4387 607.2791 607.2885 607.4712 607.5103 607.7121 608.0284 608.4813 609.0814 609.7685 609.8351 609.1553 608.6114 608.4661 608.4584 608.5737 609.0471 609.627 609.8306 609.7162 608.9463 608.123 607.489 607.0153 606.8663 607.0475 607.9267 609.9179 612.8889 615.9221 617.9946 618.4838 617.5872 615.6226 612.9321 610.5455 609.5939 609.2148 608.9528 608.5174 608.4673 609.0894 610.3044 611.9564 613.6157 614.697 614.664 614.0692 -9999 -9999 -9999 613.9729 613.584 612.7325 611.8791 611.4045 611.6462 612.3672 613.0857 613.1924 612.6044 612.114 612.0217 -9999 -9999 -9999 -9999 -9999 -9999 -9999 -9999 -9999 -9999 -9999 -9999 -9999 -9999 -9999 -9999 -9999 -9999 -9999 -9999 -9999
-9999 -9999 -9999 -9999 -9999 -9999 -9999 -9999 -9999 -9999 -9999 -9999 -9999 -9999 -9999 -9999 -9999 -9999 -9999 -9999 -9999 -9999 -9999 -9999 -9999 -9999 -9999 -9999 -9999 -9999 -9999 -9999 -9999 -9999 -9999 -9999 618.1967 618.3067 618.0582 616.5201 614.2407 611.7305 609.6072 608.2469 607.5349 607.1959 607.101 607.1327 607.2491 607.371 607.5396 607.7321 607.7767 607.7828 607.7125 607.5449 607.5941 607.5284 607.5174 607.4936 607.4724 607.4759 607.4504 607.2446 607.045 607.0197 606.9881 606.7719 606.7058 606.6929 606.6857 606.6895 606.7213 606.8253 606.9582 607.0652 607.3954 607.5483 607.9021 608.0616 608.4243 608.5891 608.6739 608.5453 608.4047 608.0131 607.7139 607.5311 607.5256 607.6628 607.7534 607.9705 608.2207 608.6583 609.4043 610.0306 610.0669 609.5672 609.1573 608.856 608.7518 608.9685 609.5076 609.9814 610.0423 609.8865 609.2544 608.2914 607.5247 607.066 606.9962 607.2491 608.3436 610.714 613.9634 617.0453 618.9803 619.1888 618.1002 615.9894 613.2319 610.8901 610.173 609.7262 609.1255 608.7052 608.6053 609.3399 610.7307 612.4722 614.0521 614.9504 614.8749 614.1182 -9999 -9999 -9999 -9999 614.8166 613.9871 613.1429 612.7363 612.9084 613.3809 613.7988 613.8268 613.2212 612.5167 -9999 -9999 -9999 -9999 -9999 -9999 -9999 -9999 -9999 -9999 -9999 -9999 -9999 -9999 -9999 -9999 -9999 -9999 -9999 -9999 -9999 -9999
-9999 -9999 -9999 -9999 -9999 -9999 -9999 -9999 -9999 -9999 -9999 -9999 -9999 -9999 -9999 -9999 -9999 -9999 -9999 -9999 -9999 -9999 -9999 -9999 -9999 -9999 -9999 -9999 -9999 -9999 -9999 -9999 -9999 -9999 -9999 -9999 617.1691 617.1606 616.8095 615.7431 614.1082 612.1298 610.2391 608.8258 607.9938 607.5807 607.4866 607.5316 607.7357 607.9313 608.2505 608.5481 608.6105 608.6234 608.4113 608.065 607.9845 607.9715 607.94 607.7806 607.7264 607.7178 607.6771 607.537 607.4977 607.5005 607.4088 607.0651 607.0179 607.0143 606.9969 607.0087 607.0562 607.2467 607.4258 607.5025 607.751 608.0129 608.3867 608.6223 609.0521 609.3701 609.4297 609.1364 608.7591 608.4034 608.0578 608.0078 607.981 607.9986 608.0187 608.1796 608.486 609.005 609.7189 610.3529 610.3394 609.932 609.6476 609.1777 608.9471 609.2497 609.9875 610.4321 610.4429 610.0712 609.3585 608.3287 607.5067 607.0144 606.9371 607.371 608.6976 611.296 614.6481 617.693 619.5133 619.8066 618.6097 616.4376 613.6744 611.3114 610.5952 609.6354 609.0516 608.9719 609.061 609.8497 611.2603 612.8871 614.1613 614.8901 614.599 614.022 -9999 -9999 -9999 -9999 -9999 614.8972 614.1675 613.8898 613.9301 614.1343 614.3417 614.342 -9999 -9999 -9999 -9999 -9999 -9999 -9999 -9999 -9999 -9999 -9999 -9999 -9999 -9999 -9999 -9999 -9999 -9999 -9999 -9999 -9999 -9999 -9999 -9999
-9999 -9999 -9999 -9999 -9999 -9999 -9999 -9999 -9999 -9999 -9999 -9999 -9999 -9999 -9999 -9999 -9999 -9999 -9999 -9999 -9999 -9999 -9999 -9999 -9999 -9999 -9999 -9999 -9999 -9999 -9999 -9999 -9999 -9999 -9999 -9999 -9999 616.1194 615.9104 615.2286 614.1634 612.6869 611.0511 609.6918 608.8066 608.368 608.1734 608.2249 608.5595 608.9249 609.3428 609.7022 609.853 609.8926 609.4955 608.8889 608.5657 608.421 608.2096 608.0226 607.9921 607.9948 607.9866 607.9635 607.9636 607.9359 607.7053 607.5144 607.6081 607.6453 607.5961 607.6561 607.7235 607.8771 607.9827 608.0762 608.3484 608.7002 609.1216 609.5197 610.0671 610.4233 610.4619 609.9913 609.1948 608.7318 608.532 608.6184 608.4841 608.451 608.4485 608.5172 608.84 609.4739 610.2859 610.8668 610.6295 610.0665 609.9153 609.441 609.1799 609.7753 610.6109 610.9832 610.9556 610.4243 609.4662 608.3355 607.4778 606.9612 606.8964 607.4632 608.969 611.6652 614.9772 617.909 619.6563 619.9231 618.8975 616.8597 614.1487 611.539 610.0414 609.1837 609.0923 609.2955 609.5751 610.372 611.813 613.2601 614.0966 614.376 614.0847 613.8058 -9999 -9999 -9999 -9999 -9999 -9999 614.7515 614.6078 614.5685 614.6211 614.7438 -9999 -9999 -9999 -9999 -9999 -9999 -9999 -9999 -9999 -9999 -9999 -9999 -9999 -9999 -9999 -9999 -9999 -9999 -9999 -9999 -9999 -9999 -9999 -9999 -9999
-9999 -9999 -9999 -9999 -9999 -9999 -9999 -9999 -9999 -9999 -9999 -9999 -9999 -9999 -9999 -9999 -9999 -9999 -9999 -9999 -9999 -9999 -9999 -9999 -9999 -9999 -9999 -9999 -9999 -9999 -9999 -9999 -9999 -9999 -9999 -9999 -9999 615.7969 615.7856 615.5328 614.9449 613.8645 612.3998 610.9638 609.9401 609.3411 608.9596 608.9904 609.472 610.1091 610.8918 611.6967 612.0731 611.9148 611.1899 610.2365 609.548 609.1332 608.7834 608.6047 608.5495 608.4979 608.3895 608.2878 608.2106 608.1373 608.0294 608.0704 608.3342 608.5572 608.6157 608.6761 608.7217 608.8011 608.9091 609.0972 609.5086 610.0062 610.5138 611.0651 611.6792 612.0415 611.904 611.0704 609.9528 609.3426 609.1547 609.0679 608.9042 608.8846 608.9756 609.1088 609.424 610.0742 610.8608 611.1132 610.7963 610.1029 610.0001 609.9231 609.7494 610.1367 610.8649 611.3419 611.418 610.8785 609.6682 608.389 607.4832 606.9741 606.916 607.5366 609.159 611.9058 615.0851 617.8096 619.3983 619.7315 618.9282 617.0806 614.5227 611.9136 610.1709 609.3694 609.47 609.8297 610.1033 610.8727 612.2692 613.5775 614.03 614.0131 613.8231 -9999 -9999 -9999 -9999 -9999 -9999 -9999 -9999 -9999 -9999 -9999 -9999 -9999 -9999 -9999 -9999 -9999 -9999 -9999 -9999 -9999 -9999 -9999 -9999 -9999 -9999 -9999 -9999 -9999 -9999 -9999 -9999 -9999 -9999 -9999 -9999 -9999
-9999 -9999 -9999 -9999 -9999 -9999 -9999 -9999 -9999 -9999 -9999 -9999 -9999 -9999 -9999 -9999 -9999 -9999 -9999 -9999 -9999 -9999 -9999 -9999 -9999 -9999 -9999 -9999 -9999 -9999 -9999 -9999 -9999 -9999 -9999 -9999 -9999 -9999 616.4094 616.5739 616.4352 615.7097 614.4246 612.8919 611.4951 610.509 609.98 609.9625 610.537 611.6627 613.0466 614.2974 614.823 614.4308 613.3472 612.0203 610.9695 610.4162 610.0902 609.9023 609.7942 609.6302 609.348 609.1089 608.9279 608.8444 608.8961 609.1721 609.6464 610.1205 610.347 610.3912 610.3857 610.3973 610.4351 610.6882 611.1826 611.8286 612.4733 613.108 613.724 614.0169 613.6683 612.6204 611.3724 610.6767 610.4578 610.1256 609.787 609.8208 610.0897 610.3273 610.7216 611.257 611.6774 611.3933 610.6876 610.1434 609.9985 609.9852 610.1251 610.5282 611.1468 611.7017 611.9673 611.5012 610.052 608.5738 607.6004 607.126 607.0415 607.6522 609.3455 612.0928 615.1479 617.6426 619.0618 619.3932 618.7766 617.0325 614.5834 612.0774 610.3373 609.5884 609.8817 610.2175 610.5881 611.3022 612.5353 613.7197 614.0016 613.9136 613.7963 -9999 -9999 -9999 -9999 -9999 -9999 -9999 -9999 -9999 -9999 -9999 -9999 -9999 -9999 -9999 -9999 -9999 -9999 -9999 -9999 -9999 -9999 -9999 -9999 -9999 -9999 -9999 -9999 -9999 -9999 -9999 -9999 -9999 -9999 -9999 -9999 -9999
-9999 -9999 -9999 -9999 -9999 -9999 -9999 -9999 -9999 -9999 -9999 -9999 -9999 -9999 -9999 -9999 -9999 -9999 -9999 -9999 -9999 -9999 -9999 -9999 -9999 -9999 -9999 -9999 -9999 -9999 -9999 -9999 -9999 -9999 -9999 -9999 -9999 -9999 617.8577 618.374 618.4925 618.0131 616.917 615.4277 613.8697 612.6099 611.8232 611.6945 612.3935 613.8227 615.5158 616.9244 617.4348 616.8497 615.5016 613.9398 612.7306 612.2034 612.0341 611.9755 611.912 611.7147 611.3401 610.999 610.6996 610.5714 610.7086 611.1685 611.8094 612.4271 612.7421 612.754 612.5981 612.4869 612.4356 612.6245 613.1204 613.8434 614.584 615.2682 615.826 615.9693 615.439 614.3443 613.2054 612.5343 612.3169 611.9058 611.5606 611.7296 612.1635 612.438 612.6697 612.834 612.7114 611.991 610.9857 610.3103 610.0099 610.0872 610.6482 610.9174 611.4634 612.0943 612.5903 612.2422 610.6323 608.9318 607.9014 607.4296 607.2755 607.8591 609.6134 612.3717 615.3234 617.6335 618.8667 619.0415 618.5316 616.7566 614.3382 611.9913 610.4221 609.7982 610.1224 610.5616 611.0108 611.6968 612.7142 613.8011 614.1154 614.0219 -9999 -9999 -9999 -9999 -9999 -9999 -9999 -9999 -9999 -9999 -9999 -9999 -9999 -9999 -9999 -9999 -9999 -9999 -9999 -9999 -9999 -9999 -9999 -9999 -9999 -9999 -9999 -9999 -9999 -9999 -9999 -9999 -9999 -9999 -9999 -9999 -9999 -9999
-9999 -9999 -9999 -9999 -9999 -9999 -9999 -9999 -9999 -9999 -9999 -9999 -9999 -9999 -9999 -9999 -9999 -9999 -9999 -9999 -9999 -9999 -9999 -9999 -9999 -9999 -9999 -9999 -9999 -9999 -9999 -9999 -9999 -9999 -9999 -9999 -9999 -9999 -9999 620.3041 620.5713 620.2616 619.4064 618.0798 616.58 615.1998 614.1537 613.7799 614.4201 615.9014 617.6095 618.8558 619.2025 618.5416 617.1127 615.4838 614.2356 613.7438 613.7169 613.9435 614.0817 614.0168 613.7651 613.4762 613.1933 613.0435 613.1726 613.6375 614.2922 614.9406 615.2729 615.2025 614.8527 614.5738 614.4035 614.4888 614.9246 615.6592 616.4354 617.0757 617.5012 617.4935 616.8877 615.8972 614.9623 614.5356 614.3853 614.0444 613.8057 613.9998 614.4385 614.6422 614.5891 614.3705 613.8245 612.9041 611.8206 610.8965 610.3944 610.4445 610.748 611.1249 611.8505 612.6768 613.3978 613.0377 611.2316 609.2581 608.0353 607.4966 607.4709 608.1568 610.0098 612.8102 615.6724 617.8276 618.9559 619.0735 618.3187 616.3646 613.8768 611.6588 610.3672 610.0004 610.4445 610.9316 611.3907 612.0405 612.9537 613.9802 614.4426 614.4623 -9999 -9999 -9999 -9999 -9999 -9999 -9999 -9999 -9999 -9999 -9999 -9999 -9999 -9999 -9999 -9999 -9999 -9999 -9999 -9999 -9999 -9999 -9999 -9999 -9999 -9999 -9999 -9999 -9999 -9999 -9999 -9999 -9999 -9999 -9999 -9999 -9999 -9999
-9999 -9999 -9999 -9999 -9999 -9999 -9999 -9999 -9999 -9999 -9999 -9999 -9999 -9999 -9999 -9999 -9999 -9999 -9999 -9999 -9999 -9999 -9999 -9999 -9999 -9999 -9999 -9999 -9999 -9999 -9999 -9999 -9999 -9999 -9999 -9999 -9999 -9999 -9999 -9999 621.8544 621.7296 621.2432 620.176 618.9324 617.5613 616.2786 615.4835 615.7797 617.1218 618.6681 619.7435 619.8413 618.9607 617.6524 616.1637 615.019 614.6232 614.8026 615.2549 615.7093 615.9036 615.89 615.7441 615.549 615.3989 615.45 615.8314 616.4697 617.0936 617.3871 617.2328 616.78 616.3829 616.0227 615.9314 616.2132 616.8573 617.6102 618.0322 618.2693 618.2258 617.8121 617.0696 616.431 616.334 616.3052 616.062 615.9091 616.1307 616.4844 616.489 616.0819 615.4996 614.7859 613.8818 612.9139 612.0892 611.5504 611.311 611.2355 611.71 612.6332 613.751 614.4593 613.7554 611.7702 609.6252 608.22 607.6041 607.5864 608.3994 610.4054 613.2792 616.0853 618.1016 619.0558 619.0392 617.9901 615.8726 613.3521 611.2303 610.1852 610.0286 610.6973 611.121 611.6825 612.4293 613.4757 614.4258 -9999 -9999 -9999 -9999 -9999 -9999 -9999 -9999 -9999 -9999 -9999 -9999 -9999 -9999 -9999 -9999 -9999 -9999 -9999 -9999 -9999 -9999 -9999 -9999 -9999 -9999 -9999 -9999 -9999 -9999 -9999 -9999 -9999 -9999 -9999 -9999 -9999 -9999 -9999 -9999
-9999 -9999 -9999 -9999 -9999 -9999 -9999 -9999 -9999 -9999 -9999 -9999 -9999 -9999 -9999 -9999 -9999 -9999 -9999 -9999 -9999 -9999 -9999 -9999 -9999 -9999 -9999 -9999 -9999 -9999 -9999 -9999 -9999 -9999 -9999 -9999 -9999 -9999 -9999 -9999 -9999 -9999 -9999 -9999 620.4575 619.2561 617.8252 616.5126 615.9033 617.0764 -9999 -9999 -9999 -9999 616.9577 615.8451 615.0525 614.9324 615.3397 616.1557 616.9546 617.4341 617.6465 617.6039 617.4686 617.3211 617.239 617.4574 618.006 618.4467 618.6876 618.4865 618.1321 617.7109 617.1414 616.8022 616.9149 617.2615 617.9012 618.2286 618.4036 618.4318 618.2427 617.8906 617.5935 617.8633 617.996 617.9182 617.8889 618.1138 618.289 618.0382 617.3243 616.4126 615.5675 614.7889 614.0616 613.5076 613.0137 612.5382 612.2505 612.752 613.9366 615.2103 615.8148 614.8516 612.5977 610.2803 608.6593 607.8958 607.7905 608.6945 610.8546 613.7614 616.4437 618.3657 619.1765 618.9088 617.553 615.336 612.8648 610.9141 610.02 609.9508 610.4473 611.0118 611.9061 612.9749 -9999 -9999 -9999 -9999 -9999 -9999 -9999 -9999 -9999 -9999 -9999 -9999 -9999 -9999 -9999 -9999 -9999 -9999 -9999 -9999 -9999 -9999 -9999 -9999 -9999 -9999 -9999 -9999 -9999 -9999 -9999 -9999 -9999 -9999 -9999 -9999 -9999 -9999 -9999 -9999 -9999 -9999
