ncols         243
nrows         51
xllcorner     651950
yllcorner     6059300
cellsize      50
NODATA_value  -9999
-9999 -9999 -9999 -9999 -9999 -9999 -9999 -9999 -9999 -9999 -9999 -9999 -9999 -9999 -9999 609.9222 608.9633 607.9439 607.051 606.4985 606.1474 605.9435 605.8336 605.7325 605.4796 605.1993 605.0083 604.9232 604.8698 604.8022 604.725 604.6163 604.4523 604.2617 604.1118 604.0524 604.0891 604.2013 604.375 604.6263 604.9938 605.5223 606.2571 607.2186 608.5178 610.1304 611.8059 612.9462 613.4164 613.6089 614.2136 615.1106 616.144 616.6268 617.0361 617.5054 617.9628 617.9205 617.3083 616.7914 616.4873 616.1699 615.5413 -9999 -9999 -9999 -9999 -9999 -9999 -9999 -9999 -9999 -9999 -9999 -9999 615.6924 615.6375 615.2469 614.0115 612.0772 609.8837 607.911 606.607 606.3461 606.7913 607.3796 607.7128 607.7693 607.9055 608.2815 608.9039 609.7427 610.9835 -9999 -9999 -9999 -9999 -9999 -9999 -9999 -9999 -9999 -9999 -9999 -9999 -9999 -9999 -9999 -9999 -9999 -9999 -9999 -9999 -9999 -9999 -9999 -9999 -9999 -9999 -9999 -9999 -9999 -9999 -9999 -9999 -9999 -9999 -9999 -9999 -9999 -9999 -9999 -9999 -9999 -9999 -9999 -9999 -9999 -9999 -9999 -9999 -9999 -9999 -9999 -9999 -9999 -9999 -9999 -9999 -9999 -9999 -9999 -9999 -9999 -9999 -9999 -9999 -9999 -9999 -9999 -9999 -9999 -9999 -9999 -9999 -9999 -9999 -9999 -9999 -9999 -9999 -9999 -9999 -9999 -9999 -9999 -9999 -9999 -9999 -9999 -9999 -9999 -9999 -9999 -9999 -9999 -9999 -9999 -9999 -9999 -9999 -9999 -9999 -9999 -9999 -9999 -9999 -9999 -9999 -9999 -9999 -9999 -9999 -9999 -9999 -9999 -9999 -9999 -9999 -9999 -9999 -9999 -9999 -9999 -9999 -9999 -9999 -9999 -9999 -9999 -9999 -9999 -9999 -9999 -9999 -9999 -9999 -9999 -9999 -9999 -9999 -9999 -9999 -9999 -9999 -9999 -9999 -9999 -9999 -9999 -9999 -9999 -9999
-9999 -9999 -9999 -9999 -9999 -9999 -9999 -9999 -9999 -9999 -9999 -9999 -9999 -9999 -9999 609.0614 608.7312 608.1926 607.6495 607.1314 606.7208 606.5037 606.4436 606.3521 605.9276 605.4858 605.228 605.1772 605.1641 605.0933 605.0305 604.9435 604.7854 604.588 604.415 604.3223 604.3353 604.4457 604.673 605.038 605.5582 606.2334 606.9999 607.892 608.8569 609.9334 611.0934 611.9667 612.2491 612.5094 613.2847 614.2971 615.4111 616.3248 617.0791 617.8643 618.3542 618.4155 617.9647 617.2703 -9999 -9999 -9999 -9999 -9999 -9999 -9999 -9999 -9999 -9999 -9999 -9999 -9999 -9999 -9999 -9999 615.9975 615.9637 615.3865 613.8424 611.5548 609.0151 606.7587 605.3234 605.9149 606.7263 607.0002 606.7665 606.9946 607.7164 608.543 609.61 611.14 613.0758 615.2332 -9999 -9999 -9999 -9999 -9999 -9999 -9999 -9999 -9999 -9999 -9999 -9999 -9999 -9999 -9999 -9999 -9999 -9999 -9999 -9999 -9999 -9999 -9999 -9999 -9999 -9999 -9999 -9999 -9999 -9999 -9999 -9999 -9999 -9999 -9999 -9999 -9999 -9999 -9999 -9999 -9999 -9999 -9999 -9999 -9999 -9999 -9999 -9999 -9999 -9999 -9999 -9999 -9999 -9999 -9999 -9999 -9999 -9999 -9999 -9999 -9999 -9999 -9999 -9999 -9999 -9999 -9999 -9999 -9999 -9999 -9999 -9999 -9999 -9999 -9999 -9999 -9999 -9999 -9999 -9999 -9999 -9999 -9999 -9999 -9999 -9999 -9999 -9999 -9999 -9999 -9999 -9999 -9999 -9999 -9999 -9999 -9999 -9999 -9999 -9999 -9999 -9999 -9999 -9999 -9999 -9999 -9999 -9999 -9999 -9999 -9999 -9999 -9999 -9999 -9999 -9999 -9999 -9999 -9999 -9999 -9999 -9999 -9999 -9999 -9999 -9999 -9999 -9999 -9999 -9999 -9999 -9999 -9999 -9999 -9999 -9999 -9999 -9999 -9999 -9999 -9999 -9999 -9999 -9999 -9999 -9999 -9999 -9999
-9999 -9999 -9999 -9999 -9999 -9999 -9999 -9999 -9999 -9999 -9999 -9999 -9999 -9999 -9999 -9999 609.6188 609.589 609.2573 608.7299 608.1324 607.6384 607.4843 607.338 606.5656 605.901 605.5135 605.4727 605.4698 605.3529 605.2982 605.2429 605.0947 604.9172 604.7552 604.6478 604.6519 604.7667 605.071 605.5988 606.3347 607.049 607.6663 608.2068 608.5474 608.9771 609.7074 610.3018 610.6072 610.9363 611.6495 612.649 613.7957 614.9391 615.9984 617.0302 617.9271 618.413 618.3499 617.8492 617.0066 -9999 -9999 -9999 -9999 -9999 -9999 -9999 -9999 -9999 -9999 -9999 -9999 -9999 -9999 -9999 -9999 616.0298 616.2114 615.4945 613.6191 611.0222 608.3671 606.4231 606.0123 606.3363 606.8206 606.8134 606.2573 606.8624 607.7749 608.8972 610.5323 612.6644 615.021 617.3062 619.3668 621.113 -9999 -9999 -9999 -9999 -9999 -9999 -9999 -9999 -9999 -9999 -9999 -9999 -9999 -9999 -9999 -9999 -9999 -9999 -9999 -9999 -9999 -9999 -9999 -9999 -9999 -9999 -9999 -9999 -9999 -9999 -9999 -9999 -9999 -9999 -9999 -9999 -9999 -9999 -9999 -9999 -9999 -9999 -9999 -9999 -9999 -9999 -9999 -9999 -9999 -9999 -9999 -9999 -9999 -9999 -9999 -9999 -9999 -9999 -9999 -9999 -9999 -9999 -9999 -9999 -9999 -9999 -9999 -9999 -9999 -9999 -9999 -9999 -9999 -9999 -9999 -9999 -9999 -9999 -9999 -9999 -9999 -9999 -9999 -9999 -9999 -9999 -9999 -9999 -9999 -9999 -9999 -9999 -9999 -9999 -9999 -9999 -9999 -9999 -9999 -9999 -9999 -9999 -9999 -9999 -9999 -9999 -9999 -9999 -9999 -9999 -9999 -9999 -9999 -9999 -9999 -9999 -9999 -9999 -9999 -9999 -9999 -9999 -9999 -9999 -9999 -9999 -9999 -9999 -9999 -9999 -9999 -9999 -9999 -9999 -9999 -9999 -9999 -9999 -9999 -9999 -9999 -9999 -9999 -9999 -9999
-9999 -9999 -9999 -9999 -9999 -9999 -9999 -9999 -9999 -9999 -9999 -9999 -9999 -9999 -9999 -9999 611.5932 611.9001 611.7526 611.235 610.5001 609.6655 608.8991 608.1797 607.2168 606.4414 605.9883 605.7259 605.5807 605.4805 605.4792 605.4756 605.3352 605.218 605.113 605.0073 605.0354 605.1556 605.5886 606.3704 607.2643 607.9792 608.4288 608.4459 607.9795 607.6713 608.0452 608.4684 608.8433 609.2284 609.7161 610.5302 611.5192 612.6461 613.916 615.3112 616.7307 617.8337 618.2678 618.009 617.2255 -9999 -9999 614.7333 613.4813 612.4071 612.0272 612.4913 612.9488 -9999 -9999 -9999 -9999 -9999 -9999 -9999 614.9807 615.9189 616.6663 616.7065 615.4452 613.1316 610.3859 607.9844 606.5979 606.0203 606.0835 606.2103 605.9957 606.1516 606.7965 607.6719 609.2816 611.5245 614.0786 616.5922 618.8337 620.6558 621.9793 -9999 -9999 -9999 -9999 -9999 -9999 -9999 -9999 -9999 -9999 -9999 -9999 -9999 -9999 -9999 -9999 -9999 -9999 -9999 -9999 -9999 -9999 -9999 -9999 -9999 -9999 -9999 -9999 -9999 -9999 -9999 -9999 -9999 -9999 -9999 -9999 -9999 -9999 -9999 -9999 -9999 -9999 -9999 -9999 -9999 -9999 -9999 -9999 -9999 -9999 -9999 -9999 -9999 -9999 -9999 -9999 -9999 -9999 -9999 -9999 -9999 -9999 -9999 -9999 -9999 -9999 -9999 -9999 -9999 -9999 -9999 -9999 -9999 -9999 -9999 -9999 -9999 -9999 -9999 -9999 -9999 -9999 -9999 -9999 -9999 -9999 -9999 -9999 -9999 -9999 -9999 -9999 -9999 -9999 -9999 -9999 -9999 -9999 -9999 -9999 -9999 -9999 -9999 -9999 -9999 -9999 -9999 -9999 -9999 -9999 -9999 -9999 -9999 -9999 -9999 -9999 -9999 -9999 -9999 -9999 618.7844 620.5596 -9999 -9999 -9999 -9999 -9999 -9999 -9999 -9999 -9999 -9999 -9999 -9999 -9999 -9999 -9999 -9999 -9999 -9999 -9999 -9999 -9999 -9999
-9999 -9999 -9999 -9999 -9999 -9999 -9999 -9999 -9999 -9999 -9999 -9999 -9999 -9999 -9999 -9999 -9999 614.45 614.4659 614.0155 613.2763 612.2476 610.9988 609.6332 608.3014 607.3115 606.7116 606.1097 605.7518 605.603 605.577 605.569 605.4856 605.4816 605.4626 605.334 605.4461 605.5699 606.2119 607.1185 608.1028 608.633 608.7646 608.5094 607.4416 606.826 606.7473 606.9785 607.1997 607.6113 607.8385 608.4113 609.1841 610.1129 611.3585 612.9963 614.8674 616.5997 617.7173 617.9362 617.4769 617.0153 616.467 615.6876 614.5604 613.3591 612.5931 612.9517 613.1895 613.1464 612.7532 612.0267 611.8617 612.0962 612.7478 613.2839 614.129 615.2193 616.296 616.7388 616.1492 614.2774 611.715 609.1564 607.2256 606.1535 605.9949 605.9542 605.8981 605.9986 606.0377 606.1694 607.6361 609.8718 612.4941 615.1602 617.6046 619.6382 621.1341 622.142 -9999 -9999 -9999 -9999 -9999 -9999 -9999 -9999 -9999 -9999 -9999 -9999 -9999 -9999 -9999 -9999 -9999 -9999 -9999 -9999 -9999 -9999 -9999 -9999 -9999 612.0168 612.001 612.8938 614.4598 616.461 618.7701 621.3575 624.1077 -9999 -9999 -9999 -9999 -9999 -9999 -9999 -9999 -9999 -9999 -9999 -9999 -9999 -9999 -9999 -9999 -9999 -9999 -9999 -9999 -9999 -9999 -9999 -9999 -9999 -9999 -9999 -9999 -9999 -9999 -9999 -9999 -9999 -9999 -9999 -9999 -9999 -9999 -9999 -9999 -9999 -9999 -9999 -9999 -9999 -9999 -9999 -9999 -9999 -9999 -9999 -9999 -9999 -9999 -9999 -9999 -9999 -9999 -9999 -9999 -9999 -9999 -9999 -9999 -9999 -9999 -9999 -9999 -9999 -9999 -9999 -9999 -9999 -9999 -9999 -9999 621.644 621.028 622.8271 624.0046 625.011 625.6443 625.0007 623.526 621.7348 620.4443 620.8286 622.5584 624.6351 626.2361 626.9789 -9999 -9999 -9999 -9999 -9999 -9999 -9999 -9999 -9999 -9999 -9999 -9999 -9999 -9999 -9999 -9999 -9999 -9999 -9999
-9999 -9999 -9999 -9999 -9999 -9999 -9999 -9999 -9999 -9999 -9999 -9999 -9999 -9999 -9999 -9999 -9999 -9999 616.7297 616.406 615.7919 614.7705 613.4315 611.9147 610.332 608.9396 607.7529 606.7216 606.1055 605.864 605.7821 605.7987 605.7725 605.7969 605.7257 605.5218 605.6743 605.9912 606.7078 607.5396 608.6379 608.7715 608.397 607.7078 606.8365 606.0802 605.6499 605.6321 605.7969 606.2068 606.4448 606.802 607.3778 608.241 609.1512 610.4893 612.562 614.7456 616.3931 617.0758 617.085 616.9579 616.5848 616.0297 615.2182 614.0072 613.135 612.9775 612.9752 612.8302 612.2327 611.9774 612.0573 612.498 612.9711 613.0983 613.3026 614.0585 614.9387 615.4307 614.9711 613.525 611.4272 609.2415 607.4166 606.3151 605.8832 605.7776 605.815 606.0755 606.3956 605.0612 606.2891 608.3365 610.8102 613.4914 616.1411 618.4941 620.3171 621.4445 -9999 -9999 -9999 -9999 -9999 -9999 -9999 -9999 -9999 -9999 -9999 -9999 -9999 -9999 -9999 -9999 -9999 -9999 -9999 -9999 -9999 -9999 -9999 -9999 612.8881 612.0349 611.7689 612.169 613.3291 615.0331 617.1566 619.6696 622.4476 625.2755 627.9944 -9999 -9999 -9999 -9999 -9999 -9999 -9999 -9999 -9999 -9999 -9999 -9999 -9999 -9999 -9999 -9999 -9999 -9999 -9999 -9999 -9999 -9999 -9999 -9999 -9999 -9999 -9999 -9999 -9999 -9999 -9999 -9999 -9999 -9999 -9999 -9999 -9999 -9999 -9999 -9999 -9999 -9999 -9999 -9999 -9999 -9999 -9999 -9999 -9999 -9999 -9999 -9999 -9999 -9999 -9999 -9999 -9999 -9999 -9999 -9999 -9999 -9999 -9999 -9999 -9999 -9999 -9999 -9999 -9999 -9999 -9999 -9999 623.7501 622.1749 620.8594 622.1597 623.9168 624.2013 625.575 626.8277 626.148 624.7195 623.0676 622.021 622.3317 623.6851 625.1726 626.0376 626.5113 627.2411 -9999 -9999 -9999 -9999 -9999 -9999 -9999 -9999 -9999 -9999 -9999 -9999 -9999 -9999 -9999 -9999 -9999 -9999
-9999 -9999 -9999 -9999 -9999 -9999 -9999 -9999 -9999 -9999 -9999 -9999 -9999 -9999 -9999 -9999 -9999 -9999 618.2328 618.0676 617.6502 616.7589 615.5817 614.2325 612.6492 610.968 609.3348 607.852 606.8134 606.395 606.167 606.2266 606.191 606.3042 606.2573 606.0272 605.9644 606.186 606.8984 607.2243 607.9654 608.1444 607.488 606.7441 606.0755 605.4561 605.0231 604.9183 605.0556 605.3585 605.4602 605.5801 605.8884 606.5129 607.1955 608.2899 610.1366 612.5217 614.5509 615.7021 616.0761 616.0631 615.8015 615.3546 614.7397 613.5934 612.7026 612.2639 612.098 612.0327 611.8782 612.0311 612.5486 612.9841 613.0925 612.8114 612.3251 612.4095 612.7264 612.8784 612.419 611.2778 609.6589 608.0724 606.703 605.74 605.4708 605.4563 605.4724 605.6373 606.2535 606.4116 606.2945 607.6496 609.6194 611.9268 614.5619 617.2021 619.4078 620.7908 621.6195 -9999 -9999 -9999 -9999 -9999 -9999 -9999 -9999 -9999 -9999 -9999 -9999 -9999 -9999 -9999 -9999 -9999 -9999 -9999 -9999 -9999 -9999 613.1976 612.7551 612.0352 611.5441 611.4933 612.0999 613.3928 615.2729 617.7044 620.5508 623.5794 626.5635 629.2629 -9999 -9999 -9999 -9999 -9999 -9999 -9999 -9999 -9999 -9999 -9999 -9999 -9999 -9999 -9999 -9999 -9999 -9999 -9999 -9999 -9999 -9999 -9999 -9999 -9999 -9999 -9999 -9999 -9999 -9999 -9999 -9999 -9999 -9999 -9999 -9999 -9999 -9999 -9999 -9999 -9999 -9999 -9999 -9999 -9999 -9999 -9999 -9999 -9999 -9999 -9999 -9999 -9999 -9999 -9999 -9999 -9999 -9999 -9999 -9999 -9999 -9999 -9999 -9999 -9999 -9999 -9999 -9999 -9999 624.2139 622.7887 621.5718 620.7055 620.6381 621.4286 622.2767 621.9438 623.9553 625.2875 625.2386 624.1744 622.7853 621.8342 621.8718 622.7466 623.8586 624.6489 625.2239 626.4263 628.4795 -9999 -9999 -9999 -9999 -9999 -9999 -9999 -9999 -9999 -9999 -9999 -9999 -9999 -9999 -9999 -9999 -9999
-9999 -9999 -9999 -9999 -9999 -9999 -9999 -9999 -9999 -9999 -9999 -9999 -9999 -9999 -9999 -9999 -9999 -9999 -9999 619.0151 618.8102 618.0837 617.153 616.1734 614.8273 613.0904 611.2202 609.4745 608.0881 607.1801 606.6861 606.8196 606.7021 607.0005 606.9541 606.5658 606.197 606.0643 606.8387 607.0101 607.152 607.1447 606.78 606.0701 605.4739 604.9524 604.5911 604.4839 604.5793 604.7537 604.8205 604.8726 605.0228 605.3395 605.6797 606.468 608.0494 610.1943 612.3235 613.7585 614.3755 614.3271 613.9271 613.3812 612.7135 611.6938 610.9448 610.5668 610.6467 610.8759 611.1477 611.7714 612.532 612.7562 612.5456 611.7537 610.8077 610.253 609.993 609.7718 609.3268 608.4854 607.3414 606.3505 605.6357 605.1077 604.9363 604.9536 605.0336 605.1895 605.6102 606.0927 606.4625 607.6687 608.9918 610.465 612.7978 615.5046 618.026 619.87 620.9589 -9999 -9999 -9999 -9999 -9999 -9999 -9999 -9999 -9999 -9999 -9999 -9999 -9999 -9999 -9999 -9999 -9999 -9999 -9999 -9999 -9999 613.4035 613.1172 612.9203 612.1451 611.2732 610.6883 610.7684 611.5947 613.1525 615.4673 618.3947 621.6725 625.0203 628.072 630.4659 -9999 -9999 -9999 -9999 -9999 -9999 -9999 -9999 -9999 -9999 -9999 -9999 -9999 -9999 -9999 -9999 -9999 -9999 -9999 -9999 -9999 -9999 -9999 -9999 -9999 -9999 -9999 -9999 -9999 -9999 -9999 -9999 -9999 -9999 -9999 -9999 -9999 -9999 -9999 -9999 -9999 -9999 -9999 -9999 -9999 -9999 -9999 -9999 -9999 -9999 -9999 -9999 -9999 -9999 -9999 -9999 -9999 -9999 -9999 -9999 -9999 -9999 -9999 -9999 -9999 -9999 625.7836 623.7328 621.9229 620.3486 619.0913 618.3672 618.4573 619.0521 619.6489 620.0264 621.2767 622.129 622.0873 621.3087 620.2507 619.497 619.4603 620.1279 621.1794 622.2426 623.3528 625.1202 627.7062 630.905 -9999 -9999 -9999 -9999 -9999 -9999 -9999 -9999 -9999 -9999 -9999 -9999 -9999 -9999 -9999 -9999
-9999 -9999 -9999 -9999 -9999 -9999 -9999 -9999 -9999 -9999 -9999 -9999 -9999 -9999 -9999 -9999 -9999 -9999 -9999 -9999 -9999 618.9591 618.2764 617.7229 616.7239 615.1427 613.2089 611.2916 609.6814 608.4247 607.5334 607.0989 607.439 607.8289 607.5883 606.9955 606.4456 606.0029 606.5178 606.9192 606.8573 606.4524 606.0612 605.5025 605.0038 604.5752 604.283 604.1987 604.2921 604.4377 604.5031 604.5219 604.5421 604.6187 604.7729 605.2717 606.3192 607.9712 609.861 611.2797 611.9464 611.856 611.2914 610.681 610.0712 609.2965 608.6053 608.3822 608.7059 609.1926 609.6243 610.3203 611.028 611.3074 610.8647 609.8485 608.6857 607.8628 607.4216 607.0172 606.6895 606.3101 605.7246 605.1765 604.7933 604.5304 604.4388 604.4822 604.6075 604.8026 605.0946 605.5175 606.0249 606.8406 607.6898 608.7047 610.6905 613.3158 616.0007 618.2539 619.8287 -9999 -9999 -9999 -9999 -9999 -9999 -9999 -9999 -9999 -9999 -9999 -9999 -9999 -9999 -9999 -9999 -9999 -9999 -9999 -9999 614.2574 613.0944 613.0234 612.9023 612.1786 610.7726 609.5187 609.3992 609.8059 611.0096 613.1265 616.0911 619.5884 623.3027 626.7648 629.4755 -9999 -9999 -9999 -9999 -9999 -9999 -9999 -9999 -9999 -9999 -9999 -9999 -9999 -9999 -9999 -9999 -9999 -9999 -9999 -9999 -9999 -9999 -9999 -9999 -9999 -9999 -9999 -9999 -9999 -9999 -9999 -9999 -9999 -9999 -9999 -9999 -9999 -9999 -9999 -9999 -9999 -9999 -9999 -9999 -9999 -9999 -9999 -9999 -9999 -9999 -9999 -9999 -9999 -9999 -9999 -9999 -9999 -9999 -9999 -9999 -9999 -9999 -9999 -9999 -9999 626.4288 624.0453 621.8132 619.8187 618.0078 616.4485 615.4655 615.1592 615.3392 615.7598 616.3274 617.1563 617.5356 617.4116 616.8843 616.1638 615.6581 615.726 616.4213 617.6602 619.2756 621.13 623.4315 626.3314 629.6688 -9999 -9999 -9999 -9999 -9999 -9999 -9999 -9999 -9999 -9999 -9999 -9999 -9999 -9999 -9999 -9999
-9999 -9999 -9999 -9999 -9999 -9999 -9999 -9999 -9999 -9999 -9999 -9999 -9999 -9999 -9999 -9999 -9999 -9999 -9999 -9999 -9999 -9999 -9999 -9999 -9999 616.9747 615.1212 613.1153 611.3193 609.8929 608.8767 608.3238 608.2413 608.1404 607.8052 607.0436 606.4363 605.9025 606.0852 606.2711 606.0934 605.6569 605.4293 605.031 604.6368 604.2966 604.066 604.0089 604.1276 604.3138 604.4363 604.4501 604.4018 604.3347 604.3401 604.5833 605.1891 606.1791 607.4662 608.543 609.0342 608.8743 608.379 607.981 607.5979 607.1682 606.804 606.7047 606.9109 607.2465 607.6545 608.1625 608.5044 608.7269 608.3412 607.5005 606.5406 605.8946 605.5588 605.3042 605.1174 604.944 604.6854 604.4148 604.2181 604.1035 604.0605 604.1139 604.2523 604.4685 604.72 605.0649 605.4884 606.0199 606.5886 607.2969 608.7272 610.9942 613.6171 616.1257 618.2105 619.8217 -9999 -9999 -9999 -9999 -9999 -9999 -9999 -9999 -9999 -9999 -9999 -9999 -9999 -9999 -9999 -9999 -9999 619.3523 617.0833 614.5701 612.849 612.8088 612.4532 611.3465 609.8505 608.8928 608.7133 608.8339 609.5879 611.1548 613.9752 617.4957 621.4343 625.261 628.3636 630.3749 -9999 -9999 -9999 -9999 -9999 -9999 -9999 -9999 -9999 -9999 -9999 -9999 -9999 -9999 -9999 -9999 -9999 -9999 -9999 -9999 -9999 -9999 -9999 -9999 -9999 -9999 -9999 -9999 -9999 -9999 -9999 -9999 -9999 -9999 -9999 -9999 -9999 -9999 -9999 -9999 -9999 -9999 -9999 -9999 -9999 -9999 -9999 -9999 -9999 -9999 -9999 -9999 -9999 -9999 -9999 -9999 -9999 -9999 -9999 -9999 -9999 -9999 -9999 627.5416 625.1548 622.54 620.0864 617.8491 615.6992 613.8083 612.4231 611.5788 611.2698 611.4806 612.004 612.6096 612.5514 612.3799 612.0673 611.623 611.3975 611.8111 612.6796 614.0444 616.2969 618.903 621.6718 624.6592 627.8368 -9999 -9999 -9999 -9999 -9999 -9999 -9999 -9999 -9999 -9999 -9999 -9999 -9999 -9999 -9999 -9999
-9999 -9999 -9999 -9999 -9999 -9999 -9999 -9999 -9999 -9999 -9999 -9999 -9999 -9999 -9999 -9999 -9999 -9999 -9999 -9999 -9999 -9999 -9999 -9999 -9999 -9999 616.7964 614.8282 612.9056 611.2768 610.0839 609.3109 608.7897 607.9878 607.2447 606.6702 606.1805 605.7919 605.7571 605.7432 605.509 605.2058 604.9648 604.6597 604.352 604.0851 603.9084 603.8772 604.0203 604.2698 604.4818 604.5663 604.5145 604.3811 604.2663 604.3059 604.5787 605.0773 605.7028 606.2217 606.4523 606.3475 606.0814 605.8756 605.7148 605.5747 605.4758 605.4576 605.5192 605.6358 605.8146 606.0465 606.2082 606.2939 606.0905 605.6537 605.123 604.7123 604.4807 604.3409 604.255 604.1941 604.1028 603.9838 603.8809 603.8365 603.8273 603.8711 604.0063 604.2081 604.4586 604.7407 605.0914 605.4835 605.9509 606.5825 607.3408 609.0039 611.2661 613.7599 616.1892 618.2976 619.9171 -9999 -9999 -9999 -9999 -9999 -9999 -9999 -9999 621.0247 621.1908 621.2853 621.1768 620.9655 620.6931 620.985 621.0446 620.0358 617.6855 614.9338 612.9304 612.0148 611.2318 610.0195 608.9567 608.3154 608.1948 608.2832 608.8591 610.1276 612.3575 615.5429 619.4936 623.57 627.0175 629.3399 -9999 -9999 -9999 -9999 -9999 -9999 -9999 -9999 -9999 -9999 -9999 -9999 -9999 -9999 -9999 -9999 -9999 -9999 -9999 -9999 -9999 -9999 -9999 -9999 -9999 -9999 -9999 -9999 -9999 -9999 -9999 -9999 -9999 -9999 -9999 -9999 -9999 -9999 -9999 -9999 -9999 -9999 -9999 -9999 -9999 -9999 -9999 -9999 -9999 -9999 -9999 -9999 -9999 -9999 -9999 -9999 -9999 -9999 -9999 -9999 -9999 -9999 -9999 626.5244 623.9807 621.1555 618.3967 615.8203 613.4248 611.2324 609.6144 608.4191 607.7422 607.7251 608.0844 608.5039 608.6769 608.7714 608.4328 608.0493 608.0694 608.6615 609.7673 611.4656 614.0341 617.1348 620.203 623.1342 625.9693 -9999 -9999 -9999 -9999 -9999 -9999 -9999 -9999 -9999 -9999 -9999 -9999 -9999 -9999 -9999 -9999
-9999 -9999 -9999 -9999 -9999 -9999 -9999 -9999 -9999 -9999 -9999 -9999 -9999 -9999 -9999 -9999 -9999 -9999 -9999 -9999 -9999 -9999 -9999 -9999 -9999 -9999 -9999 -9999 614.2545 612.503 611.0645 609.9238 608.8745 607.6541 606.8718 606.342 605.9481 605.6693 605.5698 605.4758 605.2369 604.9568 604.6923 604.4171 604.1567 603.9381 603.795 603.7817 603.9337 604.2246 604.5316 604.7152 604.7297 604.608 604.4387 604.3365 604.3837 604.5802 604.8545 605.0865 605.1804 605.1136 604.9716 604.86 604.7894 604.743 604.7143 604.7041 604.7073 604.7243 604.7714 604.8521 604.9153 604.9309 604.8176 604.595 604.3248 604.0992 603.9625 603.8929 603.8627 603.8586 603.8505 603.808 603.7449 603.7018 603.7182 603.7561 603.8744 604.0686 604.2971 604.5243 604.8217 605.1241 605.4806 605.9766 606.6382 607.6312 609.2636 611.4405 613.9465 616.4534 618.6233 620.1191 -9999 -9999 -9999 623.1614 622.9536 622.0475 621.1204 620.8782 620.9852 621.0425 620.8334 620.3553 620.2085 620.5071 620.5672 619.6573 617.4962 614.8217 612.532 610.9672 609.821 608.9086 608.1484 607.7405 607.7294 607.925 608.5007 609.5901 611.3007 613.7838 617.5757 621.764 625.4501 628.0284 629.4197 -9999 -9999 -9999 -9999 -9999 -9999 -9999 -9999 -9999 -9999 -9999 -9999 -9999 -9999 -9999 -9999 -9999 -9999 -9999 -9999 -9999 -9999 -9999 -9999 -9999 -9999 -9999 -9999 -9999 -9999 -9999 -9999 -9999 -9999 -9999 -9999 -9999 -9999 -9999 -9999 -9999 -9999 -9999 -9999 -9999 -9999 -9999 -9999 -9999 -9999 -9999 -9999 -9999 -9999 -9999 -9999 -9999 -9999 -9999 -9999 -9999 627.5466 625.4467 622.7332 619.6827 616.626 613.8016 611.3075 609.0269 607.3898 606.1982 605.5442 605.5118 605.8193 606.249 606.8057 607.4711 606.9269 606.2294 605.9953 606.5913 607.8788 609.8519 612.8373 616.1821 619.3038 621.9963 624.354 -9999 -9999 -9999 -9999 -9999 -9999 -9999 -9999 -9999 -9999 -9999 -9999 -9999 -9999 -9999 -9999
-9999 -9999 -9999 -9999 -9999 -9999 -9999 -9999 -9999 -9999 -9999 -9999 -9999 -9999 -9999 -9999 -9999 -9999 -9999 -9999 -9999 -9999 -9999 -9999 -9999 -9999 -9999 -9999 -9999 613.4514 611.8131 610.3466 608.97 607.5563 606.6996 606.1667 605.8217 605.6062 605.4801 605.3301 605.0942 604.8221 604.5475 604.2828 604.0475 603.8601 603.7369 603.7234 603.8645 604.1602 604.5222 604.8088 604.9179 604.8551 604.6936 604.5356 604.46 604.491 604.5933 604.6984 604.7437 604.7089 604.6312 604.5635 604.5199 604.4891 604.4575 604.4199 604.3789 604.3397 604.3138 604.3052 604.3042 604.2867 604.2169 604.1014 603.975 603.8708 603.8064 603.7759 603.7656 603.7715 603.7927 603.7911 603.7484 603.6936 603.6788 603.7345 603.8468 604.0334 604.2512 604.4674 604.646 604.8878 605.1383 605.4821 605.9855 606.7181 607.7551 609.4315 611.7299 614.3712 616.9576 619.0816 620.5336 621.7685 622.5559 622.9449 622.6652 621.763 620.8492 620.368 620.2236 620.0969 619.5928 618.986 618.729 618.7662 618.5981 617.7546 616.0082 613.762 611.5842 609.8251 608.7264 608.0213 607.4741 607.2273 607.3167 607.6621 608.3342 609.3835 610.7397 612.4376 615.9107 620.0302 623.8112 626.5846 628.205 -9999 -9999 -9999 -9999 -9999 -9999 -9999 -9999 -9999 -9999 -9999 -9999 -9999 -9999 -9999 -9999 -9999 -9999 -9999 -9999 -9999 -9999 -9999 -9999 -9999 -9999 -9999 -9999 -9999 -9999 -9999 -9999 -9999 -9999 -9999 -9999 -9999 -9999 -9999 -9999 -9999 -9999 -9999 -9999 -9999 -9999 -9999 -9999 -9999 -9999 -9999 -9999 -9999 -9999 -9999 -9999 -9999 -9999 -9999 -9999 628.0913 626.5076 624.2071 621.3076 618.0512 614.7997 611.983 609.7928 607.511 605.9598 604.9727 604.3613 604.3337 604.6323 604.9683 605.4177 605.9282 605.892 605.2292 605.0137 605.6083 607.0958 609.3832 612.5031 615.8624 618.847 621.1881 623.0529 -9999 -9999 -9999 -9999 -9999 -9999 -9999 -9999 -9999 -9999 -9999 -9999 -9999 -9999 -9999 -9999
-9999 -9999 -9999 -9999 -9999 -9999 -9999 -9999 -9999 -9999 -9999 -9999 -9999 -9999 -9999 -9999 -9999 -9999 -9999 -9999 -9999 -9999 -9999 -9999 -9999 -9999 -9999 -9999 -9999 613.8456 612.3031 610.7889 609.2193 607.6393 606.6893 606.1217 605.7902 605.6033 605.4786 605.2813 605.0314 604.754 604.4756 604.2188 604.0059 603.8472 603.7487 603.7281 603.838 604.0988 604.464 604.8079 605.0107 605.0292 604.9132 604.755 604.639 604.6033 604.6374 604.7019 604.7514 604.7557 604.7208 604.6729 604.6304 604.59 604.5386 604.4692 604.3904 604.3116 604.24 604.1793 604.1303 604.0874 604.0337 603.9673 603.9068 603.867 603.8463 603.8345 603.8221 603.8147 603.8264 603.8373 603.8117 603.7557 603.7147 603.7504 603.8743 604.0754 604.2981 604.494 604.6537 604.7759 604.929 605.1414 605.4763 605.9907 606.7502 607.8918 609.7592 612.2064 614.8898 617.4326 619.4958 620.9243 621.6893 621.8077 621.2299 620.2841 619.3681 618.7608 618.333 617.8283 617.0817 616.3538 615.9128 615.6611 615.2734 614.478 613.132 611.4807 609.8563 608.5549 607.7001 607.1786 606.8776 606.7883 606.9566 607.4215 608.241 609.3671 610.6529 611.701 614.6517 618.5142 622.2581 625.1602 627.0385 -9999 -9999 -9999 -9999 -9999 -9999 -9999 -9999 -9999 -9999 -9999 -9999 -9999 -9999 -9999 -9999 -9999 -9999 -9999 -9999 -9999 -9999 -9999 -9999 -9999 -9999 -9999 -9999 -9999 -9999 -9999 -9999 -9999 -9999 -9999 -9999 -9999 -9999 -9999 -9999 -9999 -9999 -9999 -9999 -9999 -9999 -9999 -9999 -9999 -9999 -9999 -9999 -9999 -9999 -9999 -9999 -9999 -9999 -9999 628.1527 626.9958 625.1854 622.691 619.6459 616.3077 613.0352 610.2958 608.0254 606.1585 605.1088 604.4607 603.9139 603.7821 604.0708 604.3091 604.5028 604.7074 604.7103 604.5045 604.6443 605.4824 607.1979 609.6575 612.7822 615.9937 618.6878 620.5922 621.9734 -9999 -9999 -9999 -9999 -9999 -9999 -9999 -9999 -9999 -9999 -9999 -9999 -9999 -9999 -9999 -9999
-9999 -9999 -9999 -9999 -9999 -9999 -9999 -9999 -9999 -9999 -9999 -9999 -9999 -9999 -9999 -9999 -9999 -9999 -9999 -9999 -9999 -9999 -9999 -9999 -9999 -9999 -9999 -9999 614.5052 613.3952 612.1449 610.8636 609.3387 607.7559 606.745 606.1383 605.7985 605.6147 605.4792 605.2675 605.006 604.7272 604.453 604.2063 604.0146 603.8917 603.8287 603.8217 603.8928 604.0898 604.4035 604.7499 605.0031 605.0935 605.0352 604.9048 604.7891 604.7407 604.7657 604.8373 604.9169 604.9701 604.9778 604.9478 604.8983 604.8414 604.7729 604.683 604.5774 604.4713 604.3735 604.2845 604.2052 604.1385 604.0823 604.0298 603.9871 603.9655 603.9602 603.9541 603.9315 603.9014 603.8843 603.8915 603.8736 603.8296 603.7905 603.8103 603.9307 604.1437 604.3894 604.5909 604.7195 604.7955 604.8544 604.952 605.1367 605.4673 605.9896 606.8265 608.1608 610.1495 612.6187 615.2324 617.5352 619.0862 619.617 619.3707 618.5848 617.5871 616.5999 615.8195 615.1491 614.3974 613.4718 612.6243 612.0577 611.6632 611.1983 610.5319 609.576 608.6143 607.7756 607.1571 606.7139 606.4286 606.3068 606.4178 606.6951 607.1599 608.0057 609.045 609.8954 610.8325 613.5449 617.1667 620.7836 623.7349 625.8088 -9999 -9999 -9999 -9999 -9999 -9999 -9999 -9999 -9999 -9999 -9999 -9999 -9999 -9999 -9999 -9999 -9999 -9999 -9999 -9999 -9999 -9999 -9999 -9999 -9999 -9999 -9999 -9999 -9999 -9999 -9999 -9999 -9999 -9999 -9999 -9999 -9999 -9999 -9999 -9999 -9999 -9999 -9999 -9999 -9999 -9999 -9999 -9999 -9999 -9999 -9999 -9999 -9999 -9999 -9999 -9999 -9999 -9999 -9999 626.8028 625.4437 623.4411 620.8218 617.7567 614.5289 611.4687 608.9613 606.7275 605.2942 604.6506 604.353 603.9843 603.6648 603.8281 604.0724 604.1686 604.2097 604.251 604.3945 604.9049 606.0377 608.0034 610.5874 613.5592 616.4299 618.6363 620.0045 -9999 -9999 -9999 -9999 -9999 -9999 -9999 -9999 -9999 -9999 -9999 -9999 -9999 -9999 -9999 -9999 -9999
-9999 -9999 -9999 -9999 -9999 -9999 -9999 -9999 -9999 -9999 -9999 -9999 -9999 -9999 -9999 -9999 -9999 -9999 -9999 -9999 -9999 -9999 -9999 -9999 -9999 -9999 -9999 -9999 613.3821 612.4902 611.6554 610.6524 609.2645 607.7762 606.7592 606.1414 605.8024 605.621 605.4796 605.2627 604.9945 604.7194 604.4634 604.2387 604.0728 603.988 603.9738 603.9993 604.0602 604.1871 604.4116 604.696 604.9475 605.075 605.0596 604.9558 604.8477 604.7992 604.8308 604.9235 605.041 605.1436 605.2014 605.2022 605.1575 605.0886 605.0079 604.9126 604.7986 604.6779 604.5654 604.4648 604.3727 604.2914 604.2245 604.1703 604.1244 604.0923 604.075 604.0616 604.0302 603.9792 603.9388 603.9216 603.9177 603.8817 603.8566 603.8884 604.0168 604.2246 604.485 604.7032 604.8269 604.8646 604.8625 604.874 604.9486 605.1245 605.4656 606.0309 606.9808 608.4121 610.4229 612.7569 614.9163 616.308 616.5065 616.0091 615.0903 614.1017 613.0216 612.0695 611.2591 610.4603 609.5504 608.7958 608.2907 607.9416 607.6072 607.2232 606.7913 606.4556 606.0781 606.0252 605.9382 605.8411 605.8345 606.0627 606.4479 606.8716 607.6289 608.553 609.4358 610.4544 612.7509 615.9437 619.3164 622.2548 624.4961 626.1152 -9999 -9999 -9999 -9999 -9999 -9999 -9999 -9999 -9999 -9999 -9999 -9999 -9999 -9999 -9999 -9999 -9999 -9999 -9999 -9999 -9999 -9999 -9999 -9999 -9999 -9999 -9999 -9999 -9999 -9999 -9999 -9999 -9999 -9999 -9999 -9999 -9999 -9999 -9999 -9999 -9999 -9999 -9999 -9999 -9999 -9999 -9999 -9999 -9999 -9999 -9999 -9999 -9999 -9999 -9999 -9999 -9999 625.7897 624.9343 623.4136 621.2112 618.5018 615.5994 612.8799 610.5865 608.3062 606.1407 604.8574 604.4281 604.4363 604.3251 604.0204 603.8523 604.0978 604.3077 604.4661 604.6839 605.1409 605.9788 607.403 609.4515 611.9907 614.6793 617.06 618.673 619.4629 -9999 -9999 -9999 -9999 -9999 -9999 -9999 -9999 -9999 -9999 -9999 -9999 -9999 -9999 -9999 -9999 -9999
-9999 -9999 -9999 -9999 -9999 -9999 -9999 -9999 -9999 -9999 -9999 -9999 -9999 -9999 -9999 -9999 -9999 -9999 -9999 -9999 -9999 -9999 -9999 -9999 -9999 -9999 -9999 -9999 612.3406 611.8251 611.1212 610.1497 608.8886 607.5556 606.6294 606.0693 605.7676 605.6096 605.4801 605.2574 604.9822 604.7167 604.4921 604.3104 604.1841 604.1406 604.1754 604.2476 604.3221 604.4132 604.5502 604.7334 604.915 605.0295 605.0305 604.938 604.8239 604.7614 604.7848 604.8853 605.0265 605.1677 605.2699 605.3116 605.2921 605.2302 605.1479 605.0555 604.9521 604.8365 604.7212 604.6172 604.5249 604.441 604.3683 604.3085 604.2563 604.2086 604.1707 604.1362 604.094 604.0303 603.9696 603.9391 603.9286 603.9141 603.8974 603.9438 604.0865 604.3209 604.5701 604.7952 604.9271 604.952 604.913 604.87 604.8749 604.9565 605.1689 605.5417 606.2064 607.1924 608.625 610.454 612.1429 613.1201 613.045 612.4448 611.4164 610.6433 609.5509 608.5502 607.8112 607.207 606.6594 606.2869 606.0031 605.7939 605.6203 605.4747 605.3861 605.3882 605.3252 605.4487 605.4763 605.4749 605.4858 605.7429 606.1671 606.577 607.2288 608.1467 609.2899 610.6028 612.0867 614.6664 617.739 620.6594 623.0726 624.9039 626.306 -9999 -9999 -9999 -9999 -9999 -9999 -9999 -9999 -9999 -9999 -9999 -9999 -9999 -9999 -9999 -9999 -9999 -9999 -9999 -9999 -9999 -9999 -9999 -9999 -9999 -9999 -9999 -9999 -9999 -9999 -9999 -9999 -9999 -9999 -9999 -9999 -9999 -9999 -9999 -9999 -9999 -9999 -9999 -9999 -9999 -9999 -9999 -9999 -9999 -9999 -9999 -9999 -9999 -9999 -9999 624.6912 623.8655 622.7769 621.0311 618.6068 615.8378 613.2246 611.3276 609.8671 607.9056 605.8832 604.7087 604.3773 604.6172 604.8475 604.7616 604.5361 604.5158 604.8633 605.3464 605.9523 606.8134 607.9496 609.4575 611.4812 613.8106 616.0662 617.8035 618.7141 -9999 -9999 -9999 -9999 -9999 -9999 -9999 -9999 -9999 -9999 -9999 -9999 -9999 -9999 -9999 -9999 -9999 -9999
-9999 -9999 -9999 -9999 -9999 -9999 -9999 -9999 -9999 -9999 -9999 -9999 -9999 -9999 -9999 -9999 -9999 -9999 -9999 -9999 -9999 -9999 -9999 -9999 -9999 -9999 -9999 611.913 611.6984 611.3771 610.7361 609.6638 608.3387 607.1177 606.3498 605.9102 605.6846 605.5693 605.4762 605.2328 604.9542 604.7095 604.5341 604.4169 604.353 604.3574 604.4291 604.5375 604.6406 604.7286 604.8218 604.9095 604.9844 605.0318 605.0071 604.9026 604.7666 604.6696 604.6591 604.7383 604.8782 605.0351 605.1681 605.2467 605.262 605.2252 605.1575 605.0775 604.9915 604.8972 604.7958 604.6985 604.6116 604.5353 604.4678 604.4092 604.3557 604.2999 604.2452 604.1927 604.1342 604.0629 603.9876 603.9426 603.9293 603.9238 603.9196 603.9685 604.1224 604.3646 604.6372 604.8531 604.9862 605.0154 604.9647 604.8981 604.8741 604.923 605.1057 605.4446 605.8146 606.45 607.394 608.6501 609.6978 610.0794 609.8407 609.4464 608.3295 607.5202 606.7858 606.2414 605.8132 605.4756 605.2062 605.032 604.9064 604.8207 604.7646 604.7505 604.7941 604.8972 604.9767 605.1068 605.1847 605.2324 605.2899 605.4772 605.8292 606.192 606.7893 607.4424 608.3839 609.5536 610.9245 612.9883 615.7725 618.6757 621.265 623.3557 624.9783 626.3129 -9999 -9999 -9999 -9999 -9999 -9999 -9999 -9999 -9999 -9999 -9999 -9999 -9999 -9999 -9999 -9999 -9999 -9999 -9999 -9999 -9999 -9999 -9999 -9999 -9999 -9999 -9999 -9999 -9999 -9999 -9999 -9999 -9999 -9999 -9999 -9999 -9999 -9999 -9999 -9999 -9999 -9999 -9999 -9999 -9999 -9999 -9999 -9999 -9999 -9999 -9999 -9999 -9999 -9999 623.3208 622.2236 620.742 618.6142 615.9275 613.1488 610.884 609.4512 608.2088 606.7747 605.4443 604.6648 604.5477 604.9933 605.5823 605.9527 605.8632 605.8547 606.2037 606.9902 608.0933 609.4205 610.6042 612.0108 613.7773 615.7502 617.5056 618.6678 619.0107 -9999 -9999 -9999 -9999 -9999 -9999 -9999 -9999 -9999 -9999 -9999 -9999 -9999 -9999 -9999 -9999 -9999 -9999
-9999 -9999 -9999 -9999 -9999 -9999 -9999 -9999 -9999 -9999 -9999 -9999 -9999 -9999 -9999 -9999 -9999 -9999 -9999 -9999 -9999 -9999 -9999 -9999 -9999 -9999 -9999 610.9665 610.9692 610.7613 609.958 608.7949 607.521 606.5586 605.998 605.7064 605.5721 605.4808 605.3665 605.1476 604.9015 604.7048 604.5972 604.5623 604.5804 604.6479 604.7354 604.8461 604.9587 605.0638 605.1632 605.191 605.1594 605.129 605.0511 604.906 604.7295 604.5834 604.5185 604.5503 604.6583 604.8049 604.9478 605.0524 605.1011 605.0959 605.0537 604.9929 604.9268 604.8571 604.7804 604.7014 604.6278 604.563 604.5077 604.4602 604.4154 604.3641 604.3036 604.2423 604.1715 604.0941 604.0127 603.9537 603.9313 603.9291 603.9319 603.9744 604.1161 604.3609 604.6324 604.856 604.9857 605.0233 604.9782 604.9081 604.8734 604.906 605.0342 605.2705 605.5199 605.9258 606.4158 607.1458 607.6986 607.5732 607.1207 606.7452 606.2026 605.7097 605.3018 605.0323 604.8567 604.7454 604.6741 604.6371 604.6158 604.6128 604.6261 604.6613 604.7341 604.836 604.9326 605.0204 605.0753 605.114 605.1667 605.2733 605.4557 605.6117 606.0704 606.5971 607.2933 608.249 609.4663 611.1702 613.4559 616.19 618.8356 621.1653 623.0963 624.6779 625.9506 626.7794 -9999 -9999 -9999 -9999 -9999 -9999 -9999 -9999 -9999 -9999 -9999 -9999 -9999 -9999 -9999 -9999 -9999 -9999 -9999 -9999 -9999 -9999 -9999 -9999 -9999 -9999 -9999 -9999 -9999 -9999 -9999 -9999 -9999 -9999 -9999 -9999 -9999 -9999 -9999 -9999 -9999 -9999 -9999 -9999 -9999 -9999 -9999 -9999 -9999 -9999 -9999 -9999 622.6508 621.168 619.1467 616.528 613.5618 610.8763 609.3341 608.0076 606.7653 605.6987 605.0092 604.7867 605.1 605.8541 606.8112 607.543 607.9258 608.1746 608.7399 609.6918 610.9361 612.2886 613.5087 614.6466 615.997 617.513 618.778 619.4641 -9999 -9999 -9999 -9999 -9999 -9999 -9999 -9999 -9999 -9999 -9999 -9999 -9999 -9999 -9999 -9999 -9999 -9999 -9999
-9999 -9999 -9999 -9999 -9999 -9999 -9999 -9999 -9999 -9999 -9999 -9999 -9999 -9999 -9999 -9999 -9999 -9999 -9999 -9999 -9999 -9999 -9999 -9999 -9999 -9999 609.8027 609.9639 610.0001 609.8055 608.9522 607.7892 606.7316 606.0668 605.6925 605.5341 605.503 605.4791 605.2968 605.0659 604.8587 604.7344 604.7156 604.7622 604.8654 605.0155 605.0921 605.16 605.2379 605.333 605.473 605.4745 605.3596 605.2957 605.1752 604.9778 604.7501 604.5505 604.4255 604.3949 604.4492 604.5587 604.6873 604.8009 604.875 604.9025 604.8895 604.8524 604.8048 604.7551 604.7013 604.6438 604.5883 604.5387 604.4973 604.4639 604.4342 604.3975 604.3458 604.2838 604.2153 604.1301 604.0486 603.9833 603.952 603.9407 603.9452 603.9766 604.09 604.3063 604.5691 604.7861 604.9147 604.9567 604.9265 604.864 604.8292 604.8538 604.9468 605.1606 605.4583 605.6208 605.6501 606.0245 606.1535 605.847 605.5197 605.262 605.014 604.799 604.6373 604.5555 604.5416 604.5755 604.6329 604.6939 604.7482 604.8015 604.8573 604.9084 604.9637 605.0253 605.08 605.1067 605.1039 605.0837 605.0773 605.0951 605.1407 605.2288 605.5516 605.9382 606.3672 607.0465 607.9681 609.2769 611.0887 613.3823 615.8246 618.2161 620.402 622.3362 624.0126 625.2955 626.0818 626.4793 -9999 -9999 -9999 -9999 -9999 -9999 -9999 -9999 -9999 -9999 -9999 -9999 -9999 -9999 -9999 -9999 -9999 -9999 -9999 -9999 -9999 -9999 -9999 -9999 -9999 -9999 -9999 -9999 -9999 -9999 -9999 -9999 -9999 -9999 -9999 -9999 -9999 -9999 -9999 -9999 -9999 -9999 -9999 -9999 -9999 -9999 -9999 -9999 -9999 -9999 622.7618 620.8218 618.2087 615.1512 612.0478 609.6249 608.6677 607.227 605.8754 605.1409 604.9144 605.269 606.1907 607.5295 608.8461 609.8845 610.5757 611.1683 611.9563 613.0085 614.2242 615.4435 616.4232 617.1837 618.0731 619.133 620.0656 -9999 -9999 -9999 -9999 -9999 -9999 -9999 -9999 -9999 -9999 -9999 -9999 -9999 -9999 -9999 -9999 -9999 -9999 -9999 -9999
-9999 -9999 -9999 -9999 -9999 -9999 -9999 -9999 -9999 -9999 -9999 -9999 -9999 -9999 -9999 -9999 -9999 -9999 -9999 -9999 -9999 -9999 -9999 -9999 -9999 -9999 609.0287 609.068 609.0836 608.8772 608.0641 607.0877 606.2814 605.7635 605.4943 605.4174 605.4545 605.4789 605.2535 605.0239 604.8771 604.857 604.9564 605.0593 605.1935 605.4386 605.4753 605.4771 605.4771 605.4831 605.5675 605.5712 605.485 605.4765 605.3364 605.0876 604.8199 604.5845 604.4136 604.3252 604.3173 604.3713 604.4615 604.561 604.6451 604.6975 604.7158 604.7061 604.6788 604.6443 604.6068 604.5648 604.5237 604.4871 604.4573 604.4348 604.4183 604.3981 604.3621 604.3102 604.2484 604.1707 604.083 604.0171 603.9813 603.9694 603.9599 603.9794 604.0592 604.2303 604.4567 604.6582 604.7808 604.8258 604.8066 604.7514 604.7162 604.7245 604.7723 604.8912 605.1393 605.3699 605.262 605.3377 605.1779 604.8937 604.6664 604.5338 604.465 604.4376 604.4412 604.4753 604.5397 604.633 604.7451 604.8604 604.9705 605.0731 605.1669 605.2379 605.2768 605.2944 605.2919 605.261 605.1911 605.1111 605.0222 604.9651 604.9301 604.9459 605.1188 605.4357 605.6412 606.0854 606.6135 607.4481 608.744 610.4316 612.4337 614.6761 616.9798 619.2487 621.3977 623.2534 624.5709 625.2272 625.1221 -9999 -9999 -9999 -9999 -9999 -9999 -9999 -9999 -9999 -9999 -9999 -9999 -9999 -9999 -9999 -9999 -9999 -9999 -9999 -9999 -9999 -9999 -9999 -9999 -9999 -9999 -9999 -9999 -9999 -9999 -9999 -9999 -9999 -9999 -9999 -9999 -9999 -9999 -9999 -9999 -9999 -9999 -9999 -9999 -9999 -9999 -9999 -9999 -9999 623.425 621.0908 618.0402 614.692 611.6174 609.496 608.3488 606.9604 605.6055 605.0779 605.2204 606.1758 607.877 609.7318 611.3588 612.5499 613.3935 614.2485 615.202 616.2535 617.3285 618.3415 619.0494 619.5032 620.0219 620.812 -9999 -9999 -9999 -9999 -9999 -9999 -9999 -9999 -9999 -9999 -9999 -9999 -9999 -9999 -9999 -9999 -9999 -9999 -9999 -9999 -9999
-9999 -9999 -9999 -9999 -9999 -9999 -9999 -9999 -9999 -9999 -9999 -9999 -9999 -9999 -9999 -9999 -9999 -9999 -9999 -9999 -9999 -9999 -9999 -9999 -9999 -9999 608.8094 608.8229 608.7795 608.3265 607.5031 606.6942 606.0416 605.613 605.4011 605.3635 605.426 605.4783 605.2684 605.1075 605.0603 605.1731 605.4438 605.5639 605.5651 605.7438 605.8251 605.8177 605.7643 605.7357 605.7719 605.7866 605.7327 605.6451 605.4697 605.1611 604.8828 604.6528 604.4741 604.3535 604.2943 604.2893 604.3252 604.387 604.4572 604.5182 604.5588 604.5765 604.5739 604.5565 604.5316 604.5012 604.4672 604.4371 604.4122 604.3937 604.3819 604.3711 604.3491 604.3092 604.257 604.1917 604.1075 604.0337 603.9965 603.9844 603.9803 603.9791 604.027 604.1481 604.3276 604.4951 604.6036 604.6479 604.6419 604.5895 604.5438 604.524 604.5142 604.4858 604.5396 604.6396 604.5955 604.5673 604.4525 604.3225 604.228 604.2151 604.2657 604.3484 604.4392 604.524 604.6033 604.6895 604.7948 604.9196 605.0594 605.2097 605.3496 605.4557 605.5073 605.5051 605.4623 605.3835 605.2689 605.1306 604.9953 604.8672 604.7865 604.7239 604.7563 604.9218 605.1319 605.3914 605.5325 605.8934 606.7147 607.7901 609.1757 611.0685 613.2842 615.6939 618.1827 620.5513 622.4456 623.5983 623.9692 624.0524 624.2904 -9999 -9999 -9999 -9999 -9999 -9999 -9999 -9999 -9999 -9999 -9999 -9999 -9999 -9999 -9999 -9999 -9999 -9999 -9999 -9999 -9999 -9999 -9999 -9999 -9999 -9999 -9999 -9999 -9999 -9999 -9999 -9999 -9999 -9999 -9999 -9999 -9999 -9999 -9999 -9999 -9999 -9999 -9999 -9999 -9999 -9999 -9999 624.5526 621.9083 618.5398 615.0106 611.9907 610.3398 608.7905 607.2213 605.6465 605.2041 605.8265 607.5101 609.8029 612.0853 613.9099 615.1182 615.9904 616.9927 617.981 618.8943 619.7652 620.6458 621.2652 621.579 621.9177 -9999 -9999 -9999 -9999 -9999 -9999 -9999 -9999 -9999 -9999 -9999 -9999 -9999 -9999 -9999 -9999 -9999 -9999 -9999 -9999 -9999 -9999
-9999 -9999 -9999 -9999 -9999 -9999 -9999 -9999 -9999 -9999 -9999 -9999 -9999 -9999 -9999 -9999 -9999 -9999 -9999 -9999 -9999 -9999 -9999 -9999 -9999 -9999 609.0906 609.0088 608.9293 608.21 607.2484 606.5264 605.9568 605.585 605.4181 605.4144 605.4812 605.4976 605.4724 605.5308 605.6202 605.8404 606.3138 606.5862 606.3917 606.3808 606.4489 606.4177 606.291 606.2247 606.2436 606.2645 606.1665 605.8887 605.4818 605.146 604.8986 604.7137 604.5662 604.4473 604.3611 604.3104 604.293 604.3048 604.3397 604.3857 604.4308 604.4657 604.4854 604.4882 604.4777 604.4585 604.4313 604.4019 604.3766 604.3555 604.3396 604.3284 604.3099 604.2778 604.2327 604.1771 604.1047 604.0256 603.9777 603.967 603.9678 603.9717 603.9937 604.0696 604.1974 604.3286 604.4132 604.4509 604.4534 604.4141 604.3541 604.307 604.2423 604.133 603.9736 603.9684 603.9635 603.9625 603.9621 604.0178 604.0263 604.088 604.2004 604.3277 604.4434 604.5299 604.5853 604.6289 604.6901 604.7898 604.9361 605.1199 605.3145 605.4735 605.562 605.5746 605.5226 605.4208 605.2796 605.1174 604.9418 604.788 604.6653 604.5609 604.4899 604.5486 604.6946 604.7782 604.7817 604.938 605.3851 605.9875 606.8885 608.225 610.0071 612.1489 614.6458 617.2955 619.6989 621.4784 622.4988 623.0618 623.585 624.2277 -9999 -9999 -9999 -9999 -9999 -9999 -9999 -9999 -9999 -9999 -9999 -9999 -9999 -9999 -9999 -9999 -9999 -9999 -9999 -9999 -9999 -9999 -9999 -9999 -9999 -9999 -9999 -9999 -9999 -9999 -9999 -9999 -9999 -9999 -9999 -9999 -9999 -9999 -9999 -9999 -9999 -9999 -9999 -9999 -9999 -9999 625.8 623.0013 619.5053 615.8726 612.7231 610.7976 609.053 607.4736 605.6647 605.334 606.7595 609.1033 611.8214 614.3907 616.2592 617.3912 618.1715 619.1673 620.0755 620.7643 621.4254 622.4091 623.1357 623.4373 -9999 -9999 -9999 -9999 -9999 -9999 -9999 -9999 -9999 -9999 -9999 -9999 -9999 -9999 -9999 -9999 -9999 -9999 -9999 -9999 -9999 -9999 -9999
-9999 -9999 -9999 -9999 -9999 -9999 -9999 -9999 -9999 -9999 -9999 -9999 -9999 -9999 -9999 -9999 -9999 -9999 -9999 -9999 -9999 -9999 -9999 -9999 -9999 610.6859 609.9022 609.4031 609.0487 608.4561 607.4045 606.5697 605.9889 605.6565 605.5655 605.6779 605.911 606.1377 606.299 606.7144 606.9849 607.2272 607.5738 607.7168 607.4213 607.4019 607.5433 607.4924 607.2469 607.1395 607.1658 607.2025 607.0097 606.4576 605.6808 605.2152 604.9424 604.7794 604.6632 604.5603 604.4663 604.3883 604.3315 604.2985 604.2906 604.305 604.3339 604.3684 604.3992 604.4189 604.4243 604.4171 604.3993 604.3714 604.3428 604.3167 604.2937 604.2739 604.2529 604.2184 604.1756 604.1249 604.0632 603.9888 603.9293 603.9087 603.915 603.9264 603.9473 603.9962 604.0824 604.1773 604.2395 604.265 604.2693 604.2499 604.1912 604.1311 604.0596 603.948 603.7867 603.71 603.6987 603.7327 603.8169 603.9482 603.9502 604.022 604.1439 604.2629 604.3586 604.4171 604.4379 604.4383 604.4509 604.5111 604.6443 604.845 605.0789 605.2938 605.4352 605.4812 605.4479 605.3489 605.2049 605.0372 604.8607 604.6816 604.5502 604.4267 604.312 604.3179 604.4401 604.4476 604.3662 604.434 604.7595 605.37 606.1443 607.0071 607.97 609.2246 611.2639 613.8115 616.4314 618.6906 620.3828 621.6347 622.6513 623.4365 624.1326 624.5995 -9999 -9999 -9999 -9999 -9999 -9999 -9999 -9999 -9999 -9999 -9999 -9999 -9999 -9999 -9999 -9999 -9999 -9999 -9999 -9999 -9999 -9999 -9999 -9999 -9999 -9999 -9999 -9999 -9999 -9999 -9999 -9999 -9999 -9999 -9999 -9999 -9999 -9999 -9999 -9999 -9999 -9999 -9999 -9999 626.7311 623.9333 620.4424 616.7115 613.2128 610.3671 608.0962 606.4328 605.4918 606.1277 608.2629 611.1282 614.1666 616.7516 618.4667 619.3885 619.9191 620.7558 621.5452 622.1462 -9999 -9999 -9999 -9999 -9999 -9999 -9999 -9999 -9999 -9999 -9999 -9999 -9999 -9999 -9999 -9999 -9999 -9999 -9999 -9999 -9999 -9999 -9999 -9999 -9999 -9999 -9999
-9999 -9999 -9999 -9999 -9999 -9999 -9999 -9999 -9999 -9999 -9999 -9999 -9999 -9999 -9999 -9999 -9999 -9999 -9999 -9999 -9999 -9999 -9999 -9999 -9999 611.5864 610.3839 609.4149 608.6938 607.8643 607.1086 606.4766 605.9948 605.755 605.8011 606.1309 606.7077 607.4254 608.0785 608.6722 608.9238 608.987 608.9662 608.9647 608.9622 609.1226 609.3012 609.2015 608.8653 608.7174 608.7752 608.8486 608.4362 607.5547 606.428 605.5748 605.1304 604.9067 604.7769 604.6693 604.5649 604.4681 604.3861 604.3224 604.2798 604.2599 604.2617 604.2797 604.3064 604.3324 604.3502 604.354 604.3447 604.3225 604.2915 604.2612 604.2306 604.2025 604.1734 604.1364 604.0879 604.0394 603.9843 603.9213 603.8586 603.8256 603.8257 603.8441 603.8704 603.9135 603.9781 604.0518 604.0989 604.1146 604.1161 604.1088 604.0717 604.0129 603.9499 603.854 603.7345 603.665 603.6514 603.6865 603.764 603.8595 603.8945 603.9503 604.0499 604.1235 604.1747 604.1998 604.1984 604.1805 604.1687 604.1902 604.3028 604.4952 604.743 604.9905 605.176 605.265 605.2574 605.1812 605.0507 604.8969 604.7321 604.567 604.419 604.3011 604.1837 604.1844 604.3152 604.3358 604.2034 604.2057 604.4161 604.9116 605.7253 606.783 607.804 607.5281 608.6331 610.5869 612.9742 615.3712 617.5437 619.4274 620.9726 622.0819 622.8502 623.2117 622.9436 -9999 -9999 -9999 -9999 -9999 -9999 -9999 -9999 -9999 -9999 -9999 -9999 -9999 -9999 -9999 -9999 -9999 -9999 -9999 -9999 -9999 -9999 -9999 -9999 -9999 -9999 -9999 -9999 -9999 -9999 -9999 -9999 -9999 -9999 -9999 -9999 -9999 -9999 -9999 -9999 -9999 -9999 -9999 626.9597 624.1823 620.7165 616.874 613.0441 609.615 607.0101 605.6927 605.9385 607.6626 610.41 613.6411 616.7507 619.1921 620.6268 621.1679 621.2622 -9999 -9999 -9999 -9999 -9999 -9999 -9999 -9999 -9999 -9999 -9999 -9999 -9999 -9999 -9999 -9999 -9999 -9999 -9999 -9999 -9999 -9999 -9999 -9999 -9999 -9999 -9999 -9999 -9999 -9999
-9999 -9999 -9999 -9999 -9999 -9999 -9999 -9999 -9999 -9999 -9999 -9999 -9999 -9999 -9999 -9999 -9999 -9999 -9999 -9999 -9999 -9999 -9999 -9999 -9999 611.3059 609.9388 608.7793 607.8767 607.3806 606.9275 606.3701 605.9574 605.821 606.0355 606.6309 607.6121 608.9175 610.1213 610.9402 611.2409 611.2427 611.1215 611.0696 611.1075 611.2897 611.4492 611.2919 610.9307 610.7479 610.8177 610.9008 610.1757 608.8087 607.3665 606.201 605.4943 605.1404 604.9411 604.7836 604.6437 604.5203 604.4166 604.3338 604.2697 604.2247 604.2006 604.1964 604.2076 604.2275 604.2476 604.2587 604.2546 604.2375 604.2086 604.1741 604.1382 604.1007 604.0658 604.0255 603.9757 603.9232 603.876 603.8228 603.7703 603.7318 603.7224 603.7369 603.7678 603.8127 603.873 603.9388 603.9887 604.0055 604.0083 604.0054 603.9916 603.9501 603.9075 603.8416 603.7664 603.7199 603.7148 603.738 603.7802 603.8298 603.8611 603.8989 603.9496 603.9507 603.951 603.9515 603.9514 603.9507 603.95 603.9512 604.0417 604.197 604.4197 604.666 604.8696 604.9859 605.0087 604.952 604.8481 604.7159 604.578 604.4316 604.3036 604.1876 604.0808 604.0775 604.2252 604.287 604.153 604.1196 604.2572 604.6205 605.3256 606.2845 606.8838 606.4996 606.7148 607.9829 609.8506 611.9789 614.2703 616.5321 618.4382 619.861 620.8445 621.2758 621.0927 620.4612 619.8081 -9999 -9999 -9999 -9999 -9999 -9999 -9999 -9999 -9999 -9999 -9999 -9999 -9999 -9999 -9999 -9999 -9999 -9999 -9999 -9999 -9999 -9999 -9999 -9999 -9999 -9999 -9999 -9999 -9999 -9999 -9999 -9999 -9999 -9999 -9999 -9999 -9999 -9999 -9999 -9999 628.1467 626.1652 623.4231 620.0047 616.118 612.1672 608.6449 606.2815 606.3234 607.5016 609.9526 613.1217 616.4462 619.4004 621.5502 622.6012 622.6783 -9999 -9999 -9999 -9999 -9999 -9999 -9999 -9999 -9999 -9999 -9999 -9999 -9999 -9999 -9999 -9999 -9999 -9999 -9999 -9999 -9999 -9999 -9999 -9999 -9999 -9999 -9999 -9999 -9999 -9999 -9999
-9999 -9999 -9999 -9999 -9999 -9999 -9999 -9999 -9999 -9999 -9999 -9999 -9999 -9999 -9999 -9999 -9999 -9999 -9999 -9999 -9999 -9999 -9999 -9999 611.3679 610.1017 608.8349 607.7498 607.1154 606.9277 606.5924 606.16 605.8411 605.8142 606.1916 607.0416 608.4165 610.2599 611.9153 612.9416 613.3436 613.386 613.3166 613.2878 613.2784 613.3983 613.5779 613.4695 613.1546 612.8969 612.8922 612.9088 611.9967 610.3028 608.4056 606.89 605.961 605.4703 605.1738 604.9204 604.7137 604.5483 604.4178 604.3175 604.2405 604.1812 604.1396 604.1162 604.1086 604.1138 604.126 604.1353 604.134 604.1174 604.0914 604.0547 604.0119 603.9663 603.9235 603.8838 603.837 603.7863 603.741 603.7025 603.6617 603.6311 603.6188 603.6267 603.6537 603.6992 603.761 603.8287 603.8889 603.9227 603.9365 603.9479 603.954 603.95 603.9216 603.8798 603.8392 603.8213 603.8322 603.8406 603.8399 603.8419 603.8436 603.8475 603.8485 603.8242 603.802 603.7957 603.8092 603.8362 603.8657 603.8931 603.9498 604.0294 604.1887 604.3988 604.5911 604.7139 604.7518 604.7168 604.6318 604.5271 604.4164 604.3013 604.1923 604.1038 604.0178 603.9888 604.0927 604.164 604.0902 604.046 604.1941 604.4573 605.0007 605.7752 606.0148 605.7035 605.6183 606.2309 607.533 609.1587 611.1318 613.4427 615.3487 616.919 618.1464 618.8451 618.9138 618.5098 618.0526 617.9261 618.2394 -9999 -9999 -9999 -9999 -9999 -9999 -9999 -9999 -9999 -9999 -9999 -9999 -9999 -9999 -9999 -9999 -9999 -9999 -9999 -9999 -9999 -9999 -9999 -9999 -9999 -9999 -9999 -9999 -9999 -9999 -9999 -9999 -9999 -9999 -9999 -9999 -9999 627.777 626.397 624.3301 621.6181 618.3137 614.5428 610.7094 607.4689 605.6714 608.0184 609.8483 612.7021 616.0198 619.2177 621.8378 623.5811 624.2699 623.9733 -9999 -9999 -9999 -9999 -9999 -9999 -9999 -9999 -9999 -9999 -9999 -9999 -9999 -9999 -9999 -9999 -9999 -9999 -9999 -9999 -9999 -9999 -9999 -9999 -9999 -9999 -9999 -9999 -9999 -9999 -9999
-9999 -9999 -9999 -9999 -9999 -9999 -9999 -9999 -9999 -9999 -9999 -9999 -9999 -9999 -9999 -9999 -9999 -9999 -9999 -9999 -9999 -9999 -9999 -9999 609.8522 608.7626 607.6933 606.8712 606.4069 606.5008 606.3257 605.9652 605.7107 605.7688 606.262 607.2894 608.9921 611.1889 613.1099 614.2616 614.8464 614.9998 615.0171 615.0659 614.9889 615.0931 615.4209 615.4914 615.2588 614.9097 614.7343 614.5737 613.5901 611.7175 609.464 607.5561 606.4384 605.8185 605.436 605.0685 604.7858 604.5731 604.412 604.2913 604.2009 604.1316 604.0785 604.0402 604.0154 604.0027 603.9998 603.9995 603.9947 603.9791 603.9504 603.9116 603.8607 603.8053 603.7543 603.7131 603.6749 603.6323 603.5932 603.563 603.5397 603.5203 603.5144 603.5226 603.5452 603.5863 603.6463 603.7186 603.7883 603.8439 603.8789 603.9055 603.9313 603.95 603.9471 603.9276 603.9119 603.9149 603.9497 603.9498 603.9117 603.8735 603.8431 603.8165 603.7872 603.749 603.7185 603.7132 603.7415 603.7962 603.8597 603.9147 603.95 603.9678 604.0597 604.2161 604.3795 604.49 604.5322 604.5087 604.4407 604.3552 604.2709 604.1836 604.1008 604.0384 603.9806 603.9493 603.9651 603.9562 603.9885 603.9742 604.0927 604.3062 604.6341 605.0996 605.2642 605.0753 605.0109 605.5148 606.54 607.2502 608.7629 610.7745 612.1474 613.57 614.9967 616.0711 616.6387 616.7866 616.7639 616.8887 617.2506 618.0122 618.7787 -9999 -9999 -9999 -9999 -9999 -9999 -9999 -9999 -9999 -9999 -9999 -9999 -9999 -9999 -9999 -9999 -9999 -9999 -9999 -9999 -9999 -9999 -9999 -9999 -9999 -9999 -9999 -9999 -9999 -9999 -9999 -9999 628.7239 627.4796 626.3926 625.2595 623.7234 621.6149 618.9637 615.8939 612.4922 609.1643 606.6718 606.1917 608.5645 611.6356 615.1185 618.5591 621.5301 623.7188 625.0613 625.5891 -9999 -9999 -9999 -9999 -9999 -9999 -9999 -9999 -9999 -9999 -9999 -9999 -9999 -9999 -9999 -9999 -9999 -9999 -9999 -9999 -9999 -9999 -9999 -9999 -9999 -9999 -9999 -9999 -9999 -9999 -9999 -9999
-9999 -9999 -9999 -9999 -9999 -9999 -9999 -9999 -9999 -9999 -9999 -9999 -9999 -9999 -9999 -9999 -9999 -9999 -9999 -9999 -9999 -9999 -9999 -9999 608.9614 607.9623 607.2351 606.6339 606.2209 606.9033 606.4319 605.939 605.6823 605.7958 606.3464 607.3915 609.253 611.5269 613.5322 614.8787 615.6484 615.9877 616.1023 616.198 616.1443 616.3032 -9999 -9999 -9999 -9999 616.2063 615.8571 614.8179 612.975 610.5482 608.3314 606.9767 606.1794 605.5575 605.1851 604.8658 604.6173 604.4292 604.2872 604.1803 604.0978 604.032 603.9779 603.9343 603.902 603.8806 603.866 603.8539 603.8357 603.8055 603.7562 603.6958 603.6315 603.5729 603.5294 603.4983 603.469 603.4404 603.42 603.4072 603.4022 603.4059 603.4213 603.4458 603.4841 603.54 603.6118 603.688 603.7579 603.8141 603.8583 603.8973 603.9307 603.95 603.95 603.95 603.95 603.9779 603.9799 603.95 603.9004 603.8535 603.8102 603.7672 603.7242 603.6927 603.6888 603.724 603.7935 603.8779 603.95 603.9548 603.9502 603.9928 604.1008 604.2294 604.3232 604.3608 604.3456 604.2894 604.2192 604.1523 604.0863 604.0231 603.991 603.9501 603.95 603.9495 603.9091 603.95 603.9497 604.0345 604.1273 604.298 604.5363 604.5923 604.4911 604.4812 604.9299 605.6624 605.96 606.6562 607.9091 608.9975 610.2059 611.7191 613.0933 614.1865 614.9904 615.4763 616.0097 616.5448 617.1852 617.8699 618.0826 -9999 -9999 -9999 -9999 -9999 -9999 -9999 -9999 -9999 -9999 -9999 -9999 -9999 -9999 -9999 -9999 -9999 -9999 -9999 -9999 -9999 -9999 -9999 -9999 -9999 -9999 -9999 633.8239 632.1771 630.4072 628.5148 626.6473 624.9 623.3469 621.8766 620.2151 618.134 615.6366 612.9631 610.2505 607.7676 606.3925 606.8249 609.6321 613.2846 617.018 620.3653 623.002 624.7234 625.6455 -9999 -9999 -9999 -9999 -9999 -9999 -9999 -9999 -9999 -9999 -9999 -9999 -9999 -9999 -9999 -9999 -9999 -9999 -9999 -9999 -9999 -9999 -9999 -9999 -9999 -9999 -9999 -9999 -9999 -9999 -9999 -9999 -9999
-9999 -9999 -9999 -9999 -9999 -9999 -9999 -9999 -9999 -9999 -9999 -9999 -9999 -9999 -9999 -9999 -9999 -9999 -9999 -9999 -9999 -9999 -9999 -9999 609.2462 608.6108 607.942 607.5732 607.1968 606.9279 606.5143 606.0894 605.889 606.077 606.7003 607.7288 609.5643 611.6526 613.5284 614.9746 615.954 -9999 -9999 -9999 -9999 -9999 -9999 -9999 -9999 -9999 -9999 616.885 615.907 614.1027 611.6328 609.215 607.5873 606.7255 605.9514 605.4284 605.0022 604.7068 604.4933 604.333 604.2096 604.1097 604.0245 603.9475 603.8774 603.8194 603.776 603.7457 603.7233 603.7 603.6633 603.6046 603.5281 603.4567 603.3974 603.353 603.3258 603.3078 603.2928 603.2827 603.2797 603.2825 603.2954 603.3198 603.3531 603.3937 603.4477 603.5154 603.5931 603.6684 603.7369 603.795 603.845 603.8877 603.9197 603.9379 603.9506 603.9609 603.9774 603.9758 603.95 603.9155 603.8721 603.825 603.7788 603.7373 603.7085 603.7054 603.7379 603.8042 603.8849 603.95 603.9589 603.95 603.9501 604.0182 604.1171 604.1944 604.2302 604.2203 604.1757 604.1171 604.066 604.0074 603.9503 603.9496 603.9059 603.8717 603.8274 603.7759 603.799 603.8621 603.9453 603.9484 603.9484 603.9626 603.957 603.957 603.9778 604.3664 604.8965 604.9978 605.2419 605.788 606.494 607.5137 608.7656 610.166 611.5282 612.8043 613.8076 614.8522 615.651 616.3475 617.0138 617.4153 617.4319 617.006 -9999 -9999 -9999 -9999 -9999 -9999 -9999 -9999 -9999 -9999 -9999 -9999 -9999 -9999 -9999 -9999 -9999 -9999 -9999 -9999 -9999 -9999 637.2987 635.337 633.3659 631.5665 629.8327 627.9075 625.7662 623.547 621.4332 619.5433 617.8318 616.0854 614.0892 611.8434 609.6396 607.7667 606.4404 606.2367 607.5803 610.7523 614.5263 618.1154 621.1136 623.3488 624.7103 -9999 -9999 -9999 -9999 -9999 -9999 -9999 -9999 -9999 -9999 -9999 -9999 -9999 -9999 -9999 -9999 -9999 -9999 -9999 -9999 -9999 -9999 -9999 -9999 -9999 -9999 -9999 -9999 -9999 -9999 -9999 -9999 -9999 -9999
-9999 -9999 -9999 -9999 -9999 -9999 -9999 -9999 -9999 -9999 -9999 -9999 -9999 -9999 -9999 -9999 -9999 -9999 -9999 -9999 -9999 -9999 -9999 -9999 -9999 609.8643 609.5347 609.377 608.8843 608.0942 607.352 606.8527 606.6314 606.8151 607.3796 608.6459 610.3812 612.1556 613.689 614.9814 -9999 -9999 -9999 -9999 -9999 -9999 -9999 -9999 -9999 -9999 -9999 617.6749 616.9587 615.2933 612.8381 610.2261 608.1868 607.1998 606.3303 605.5867 605.1522 604.8491 604.6193 604.4432 604.3068 604.1884 604.0769 603.9672 603.8607 603.7673 603.6957 603.6465 603.6125 603.5789 603.531 603.4592 603.3733 603.2955 603.2409 603.2031 603.1781 603.1653 603.1597 603.16 603.1651 603.1742 603.1909 603.2216 603.2644 603.3132 603.3682 603.433 603.5054 603.5812 603.6521 603.717 603.7747 603.8254 603.8679 603.9013 603.9274 603.9479 603.9636 603.9651 603.95 603.9323 603.8994 603.8553 603.8101 603.7725 603.7477 603.7442 603.7692 603.8217 603.8865 603.9371 603.95 603.9376 603.924 603.9503 604.0232 604.0878 604.1212 604.1198 604.0851 604.0345 604.0062 603.95 603.8888 603.8523 603.802 603.7473 603.6699 603.5926 603.5715 603.6056 603.6648 603.6634 603.638 603.6104 603.5864 603.6334 603.7061 603.9471 604.2416 604.3199 604.3927 604.6056 605.0111 605.6985 606.6799 607.8301 609.1335 610.4375 611.6273 612.9236 614.0593 615.0783 615.9849 616.7894 617.1961 617.2349 616.9774 -9999 -9999 -9999 -9999 -9999 -9999 -9999 -9999 -9999 -9999 -9999 -9999 -9999 -9999 -9999 -9999 -9999 -9999 638.6808 637.7894 636.3345 634.4557 632.2858 630.0701 628.0508 626.1523 624.1292 621.9145 619.5834 617.3322 615.3127 613.5232 611.8022 609.9499 608.0646 606.43 605.3333 605.176 606.0432 608.1663 611.5166 615.1091 618.2598 620.7357 622.6675 -9999 -9999 -9999 -9999 -9999 -9999 -9999 -9999 -9999 -9999 -9999 -9999 -9999 -9999 -9999 -9999 -9999 -9999 -9999 -9999 -9999 -9999 -9999 -9999 -9999 -9999 -9999 -9999 -9999 -9999 -9999 -9999 -9999 -9999 -9999
-9999 -9999 -9999 -9999 -9999 -9999 -9999 -9999 -9999 -9999 -9999 -9999 -9999 -9999 -9999 -9999 -9999 -9999 -9999 -9999 -9999 -9999 -9999 -9999 -9999 611.3344 611.3381 611.4069 610.89 609.9539 609.1399 608.6285 608.3342 608.4373 609.0993 610.3428 611.8553 613.3226 614.4406 615.2629 -9999 -9999 -9999 -9999 -9999 -9999 -9999 -9999 -9999 -9999 -9999 618.2297 618.0341 616.6324 614.3065 611.6009 609.2451 608.0398 606.951 606.0508 605.4791 605.1083 604.8323 604.6282 604.4791 604.3417 604.1986 604.0474 603.8954 603.7593 603.6527 603.5791 603.528 603.4796 603.4146 603.3292 603.2394 603.1686 603.1224 603.0923 603.0693 603.0557 603.0526 603.0574 603.0691 603.0839 603.104 603.1362 603.1838 603.2401 603.2987 603.3608 603.4272 603.4957 603.5646 603.6295 603.6908 603.7479 603.8004 603.8472 603.8872 603.9197 603.9435 603.9552 603.9554 603.95 603.9288 603.8928 603.8503 603.8157 603.7946 603.7903 603.807 603.8446 603.8926 603.9312 603.9432 603.9321 603.9148 603.9166 603.9503 604.0035 604.0278 604.0306 604.0085 603.9505 603.9494 603.8773 603.796 603.7256 603.6555 603.5876 603.5033 603.4022 603.3317 603.3085 603.3162 603.3217 603.3239 603.3197 603.3454 603.3958 603.5444 603.7355 603.945 604.0095 604.004 604.0449 604.2238 604.6372 605.293 606.0718 607.1956 608.4501 609.644 610.7076 611.9698 613.2497 614.4736 615.7338 616.7997 617.5248 617.8981 617.7393 -9999 -9999 -9999 -9999 -9999 -9999 -9999 -9999 -9999 -9999 -9999 -9999 -9999 -9999 -9999 636.7538 636.3067 635.5243 634.3593 632.7205 630.6387 628.2086 625.7082 623.4502 621.4166 619.3971 617.3083 615.1479 613.0591 611.197 609.5934 608.1186 606.5679 605.2535 604.2993 603.8812 604.2782 605.8665 608.3456 611.7188 615.019 617.6572 619.6447 621.3346 -9999 -9999 -9999 -9999 -9999 -9999 -9999 -9999 -9999 -9999 -9999 -9999 -9999 -9999 -9999 -9999 -9999 -9999 -9999 -9999 -9999 -9999 -9999 -9999 -9999 -9999 -9999 -9999 -9999 -9999 -9999 -9999 -9999 -9999 -9999
-9999 -9999 -9999 -9999 -9999 -9999 -9999 -9999 -9999 -9999 -9999 -9999 -9999 -9999 -9999 -9999 -9999 -9999 -9999 -9999 -9999 -9999 -9999 -9999 -9999 -9999 613.0499 613.3071 612.9492 612.228 611.6526 611.3186 611.1368 611.2238 611.7371 612.7096 613.8943 615.0701 615.8175 -9999 -9999 -9999 -9999 -9999 -9999 -9999 -9999 -9999 -9999 -9999 -9999 618.8529 618.8782 617.9185 615.9076 613.2599 610.6505 608.8441 607.5278 606.5503 605.8925 605.4627 605.1261 604.8851 604.7307 604.57 604.3883 604.1892 603.9857 603.8022 603.6575 603.554 603.4786 603.4079 603.3246 603.2299 603.1459 603.0921 603.0618 603.0347 603.0051 602.9852 602.9786 602.9828 602.9952 603.0148 603.0394 603.0734 603.1198 603.1763 603.2356 603.2943 603.3533 603.4136 603.4745 603.5364 603.5983 603.66 603.7213 603.7806 603.8352 603.8817 603.9175 603.9412 603.9536 603.9575 603.95 603.9269 603.892 603.8585 603.8393 603.8342 603.8443 603.87 603.9046 603.9343 603.9462 603.9374 603.921 603.9117 603.9231 603.95 603.9501 603.9501 603.9495 603.8864 603.8398 603.7605 603.6655 603.572 603.4816 603.3995 603.3208 603.2274 603.1324 603.0591 603.0158 602.9961 603.0107 603.0507 603.1044 603.2203 603.3757 603.5905 603.8051 603.9488 603.9291 603.8739 603.8866 604.0605 604.4327 604.9702 605.7828 606.8918 608.0524 608.8865 609.9011 611.1944 612.5596 614.154 615.8146 617.2616 618.111 618.2679 617.8526 -9999 -9999 -9999 -9999 -9999 -9999 -9999 -9999 -9999 -9999 -9999 631.9197 632.9025 633.2631 633.1495 632.5532 631.4999 630.0436 628.1715 625.8755 623.2426 620.5613 618.1877 616.1717 614.3226 612.569 610.8937 609.3192 608.007 606.9923 605.898 604.7169 603.8902 603.4917 603.4524 604.1163 605.9584 608.3607 611.589 614.6043 616.7995 618.3597 619.829 -9999 -9999 -9999 -9999 -9999 -9999 -9999 -9999 -9999 -9999 -9999 -9999 -9999 -9999 -9999 -9999 -9999 -9999 -9999 -9999 -9999 -9999 -9999 -9999 -9999 -9999 -9999 -9999 -9999 -9999 -9999 -9999 -9999 -9999 -9999
-9999 -9999 -9999 -9999 -9999 -9999 -9999 -9999 -9999 -9999 -9999 -9999 -9999 -9999 -9999 -9999 -9999 -9999 -9999 -9999 -9999 -9999 -9999 -9999 -9999 -9999 -9999 615.0223 614.8484 614.6035 614.4612 614.4437 614.4795 614.5649 614.8676 615.4974 616.317 617.1992 -9999 -9999 -9999 -9999 -9999 -9999 -9999 -9999 -9999 -9999 -9999 -9999 -9999 -9999 618.8537 618.4915 617.1344 614.824 612.1723 609.8077 608.2316 607.1289 606.3694 605.85 605.4684 605.1903 605.0605 604.8671 604.6364 604.3854 604.129 603.8967 603.712 603.5763 603.4716 603.3746 603.274 603.1804 603.1136 603.0834 603.067 603.0334 602.9844 602.9525 602.9402 602.9398 602.9492 602.9688 602.9984 603.0352 603.0785 603.1268 603.1783 603.2297 603.2805 603.3317 603.3844 603.4402 603.5011 603.5667 603.6361 603.7072 603.776 603.8373 603.8866 603.922 603.9446 603.9563 603.9582 603.95 603.9272 603.8977 603.8781 603.8718 603.877 603.8942 603.9189 603.9418 603.9534 603.9487 603.932 603.9161 603.9047 603.8983 603.882 603.8627 603.8356 603.7729 603.7026 603.6147 603.5118 603.403 603.2986 603.205 603.1274 603.0561 602.9785 602.8981 602.8207 602.7715 602.7645 602.809 602.8992 603.025 603.2146 603.4396 603.6726 603.8622 603.95 603.8986 603.8226 603.8284 603.9949 604.3364 604.8867 605.6474 606.5269 607.2383 608.0146 609.2148 610.5446 612.2703 614.3501 616.4192 617.77 618.1497 617.8195 -9999 -9999 -9999 -9999 -9999 -9999 -9999 -9999 -9999 623.1595 625.2209 626.9758 628.2252 628.8214 628.7339 627.9504 626.6068 624.8776 622.8296 620.4421 617.8016 615.1867 612.9277 611.1911 609.732 608.573 607.6808 607.0576 606.5393 606.1882 604.9933 603.9122 603.452 603.5393 603.7201 604.4153 606.4936 608.7942 611.8111 614.4643 616.2426 617.4154 618.6036 -9999 -9999 -9999 -9999 -9999 -9999 -9999 -9999 -9999 -9999 -9999 -9999 -9999 -9999 -9999 -9999 -9999 -9999 -9999 -9999 -9999 -9999 -9999 -9999 -9999 -9999 -9999 -9999 -9999 -9999 -9999 -9999 -9999 -9999 -9999
-9999 -9999 -9999 -9999 -9999 -9999 -9999 -9999 -9999 -9999 -9999 -9999 -9999 -9999 -9999 -9999 -9999 -9999 -9999 -9999 -9999 -9999 -9999 -9999 -9999 -9999 -9999 -9999 616.3784 616.5925 616.9207 617.2145 617.5673 617.7512 617.8967 618.2153 618.6816 -9999 -9999 -9999 -9999 -9999 -9999 -9999 -9999 -9999 -9999 -9999 -9999 -9999 -9999 -9999 617.72 618.0008 617.3272 615.6991 613.452 611.1356 609.1784 607.8662 606.9701 606.3323 605.8481 605.5131 605.4458 605.1992 604.9201 604.6237 604.3181 604.0386 603.8134 603.6434 603.509 603.3887 603.2802 603.1971 603.155 603.1431 603.1243 603.0571 602.9922 602.9512 602.9352 602.9308 602.9343 602.9493 602.9794 603.0189 603.0582 603.0945 603.1299 603.1681 603.2089 603.2516 603.2964 603.3463 603.4047 603.4734 603.5505 603.6332 603.7157 603.7911 603.8536 603.8999 603.9307 603.9485 603.9557 603.9558 603.95 603.9277 603.9107 603.9031 603.9048 603.9154 603.9321 603.9492 603.9596 603.9575 603.9419 603.9164 603.887 603.8516 603.8086 603.7621 603.7061 603.6312 603.5462 603.4518 603.3477 603.2352 603.1255 603.0284 602.9536 602.9 602.8534 602.8028 602.739 602.6725 602.6355 602.6553 602.7307 602.8643 603.0462 603.2723 603.515 603.7371 603.8947 603.95 603.882 603.8046 603.8356 604.0288 604.3914 604.9039 605.5115 606.1085 606.7555 607.6823 609.0298 610.7097 612.7499 615.2158 617.0624 617.4781 617.0455 616.2095 -9999 -9999 -9999 -9999 -9999 -9999 -9999 616.7273 618.3087 620.0886 621.8424 623.246 623.9542 623.7832 622.7585 621.1078 619.1725 617.1257 614.9186 612.6327 610.4429 608.5725 607.452 606.6253 606.2883 606.0676 605.8655 605.5481 605.1185 604.258 603.4941 603.4108 604.0202 604.3113 604.7457 606.7601 609.4945 612.5198 614.9758 616.4835 617.319 618.1143 -9999 -9999 -9999 -9999 -9999 -9999 -9999 -9999 -9999 -9999 -9999 -9999 -9999 -9999 -9999 -9999 -9999 -9999 -9999 -9999 -9999 -9999 -9999 -9999 -9999 -9999 -9999 -9999 -9999 -9999 -9999 -9999 -9999 -9999 -9999
-9999 -9999 -9999 -9999 -9999 -9999 -9999 -9999 -9999 -9999 -9999 -9999 -9999 -9999 -9999 -9999 -9999 -9999 -9999 -9999 -9999 -9999 -9999 -9999 -9999 -9999 -9999 -9999 -9999 -9999 -9999 -9999 -9999 -9999 -9999 -9999 -9999 -9999 -9999 -9999 -9999 -9999 -9999 -9999 -9999 -9999 -9999 -9999 -9999 -9999 -9999 -9999 -9999 616.1721 615.9757 615.1417 613.6401 611.9761 610.2175 608.7487 607.7555 606.9875 606.3761 605.9434 605.7165 605.4754 605.1996 604.8882 604.542 604.2183 603.9542 603.7518 603.5914 603.457 603.3519 603.2868 603.2606 603.2406 603.1734 603.09 603.0214 602.9797 602.9617 602.9519 602.9505 602.9576 602.9825 603.0192 603.0527 603.0751 603.0928 603.1145 603.1443 603.1793 603.2178 603.262 603.3178 603.3882 603.4722 603.5653 603.6605 603.749 603.8232 603.8787 603.916 603.9382 603.9482 603.95 603.9531 603.9445 603.9347 603.9291 603.9286 603.9344 603.9424 603.9531 603.9613 603.9595 603.9425 603.9094 603.861 603.8009 603.73 603.6521 603.5686 603.476 603.3786 603.2803 603.1821 603.0817 602.9803 602.894 602.8286 602.7914 602.7728 602.7565 602.7295 602.6771 602.6282 602.6055 602.6456 602.7484 602.9104 603.1177 603.3525 603.5892 603.7911 603.9218 603.9499 603.8666 603.8353 603.9355 604.1831 604.5568 605.024 605.528 606.0881 606.8879 608.0706 609.5621 611.3477 613.8373 615.9406 616.5479 616.2314 615.7808 -9999 -9999 -9999 -9999 -9999 -9999 612.321 612.9382 614.0082 615.413 617.0083 618.3752 619.0178 618.6523 617.3759 615.5005 613.5519 611.7922 610.1517 608.7682 607.5192 606.2434 605.9675 605.6076 605.4176 605.3962 605.322 605.0032 604.4557 603.8036 603.2503 603.2708 603.9899 604.8895 605.3239 607.475 610.4643 613.5073 615.8169 617.22 617.9163 618.0581 -9999 -9999 -9999 -9999 -9999 -9999 -9999 -9999 -9999 -9999 -9999 -9999 -9999 -9999 -9999 -9999 -9999 -9999 -9999 -9999 -9999 -9999 -9999 -9999 -9999 -9999 -9999 -9999 -9999 -9999 -9999 -9999 -9999 -9999 -9999
-9999 -9999 -9999 -9999 -9999 -9999 -9999 -9999 -9999 -9999 -9999 -9999 -9999 -9999 -9999 -9999 -9999 -9999 -9999 -9999 -9999 -9999 -9999 -9999 -9999 -9999 -9999 -9999 -9999 -9999 -9999 -9999 -9999 -9999 -9999 -9999 -9999 -9999 -9999 -9999 -9999 -9999 -9999 -9999 -9999 -9999 -9999 -9999 -9999 -9999 -9999 -9999 -9999 -9999 614.0323 613.822 613.0702 611.9162 610.7605 609.7274 608.829 607.8568 607.0559 606.4412 606.0334 605.7347 605.4736 605.1697 604.7837 604.4211 604.1246 603.897 603.7203 603.5828 603.4874 603.4332 603.3934 603.3093 603.2206 603.1352 603.0702 603.0345 603.0165 602.993 602.9869 602.9876 603.0054 603.0336 603.0557 603.0632 603.0646 603.0742 603.0964 603.1259 603.1588 603.1978 603.2496 603.3202 603.4094 603.5117 603.6178 603.7172 603.8008 603.8634 603.9054 603.9312 603.945 603.95 603.9592 603.9577 603.9518 603.9472 603.9462 603.95 603.9492 603.9527 603.9572 603.953 603.9316 603.8885 603.8237 603.7399 603.6423 603.5361 603.4258 603.3156 603.209 603.1102 603.0233 602.947 602.8764 602.8156 602.777 602.7608 602.7638 602.7738 602.7733 602.751 602.6971 602.6559 602.6481 602.7048 602.8287 603.0061 603.2184 603.4475 603.6694 603.8488 603.9499 603.9254 603.8992 603.9623 604.1514 604.4594 604.8839 605.3975 605.7971 606.4939 607.557 608.9849 610.744 612.6906 614.7864 615.8292 616.0024 615.7499 614.855 -9999 -9999 -9999 -9999 609.9274 609.8606 610.1097 610.7983 611.6253 612.8185 613.9063 614.2944 613.6857 612.3409 610.6687 609.2561 608.1077 607.2491 607.1985 607.5107 606.7713 606.1986 605.6658 605.2299 605.091 605.0131 604.715 604.1564 603.6445 603.2318 603.2198 603.799 604.756 605.9559 608.379 611.4254 614.3478 616.4756 617.7202 617.9854 -9999 -9999 -9999 -9999 -9999 -9999 -9999 -9999 -9999 -9999 -9999 -9999 -9999 -9999 -9999 -9999 -9999 -9999 -9999 -9999 -9999 -9999 -9999 -9999 -9999 -9999 -9999 -9999 -9999 -9999 -9999 -9999 -9999 -9999 -9999 -9999
-9999 -9999 -9999 -9999 -9999 -9999 -9999 -9999 -9999 -9999 -9999 -9999 -9999 -9999 -9999 -9999 -9999 -9999 -9999 -9999 -9999 -9999 -9999 -9999 -9999 -9999 -9999 -9999 -9999 -9999 -9999 -9999 -9999 -9999 -9999 -9999 -9999 -9999 -9999 -9999 -9999 -9999 -9999 -9999 -9999 -9999 -9999 -9999 -9999 -9999 -9999 -9999 -9999 -9999 612.4532 612.4155 611.9535 611.1647 610.5262 610.0986 609.7076 608.9044 607.9221 607.0775 606.4579 606.0394 605.7225 605.4355 605.0071 604.6274 604.3159 604.0758 603.894 603.7599 603.6678 603.5945 603.4802 603.3708 603.2802 603.2031 603.1388 603.1031 603.0739 603.0363 603.0208 603.0244 603.0411 603.0602 603.0667 603.057 603.0452 603.0486 603.0719 603.1003 603.1294 603.1623 603.2087 603.2775 603.3699 603.4792 603.5944 603.7023 603.792 603.8585 603.9026 603.9302 603.95 603.9626 603.9742 603.9725 603.9627 603.9545 603.95 603.9514 603.95 603.9501 603.9492 603.9391 603.9091 603.8533 603.7712 603.6671 603.546 603.4154 603.2831 603.1572 603.0452 602.9519 602.8817 602.8372 602.8125 602.8014 602.8051 602.8246 602.8508 602.8754 602.8853 602.8666 602.8202 602.7573 602.7218 602.7373 602.8187 602.9591 603.1373 603.3396 603.5533 603.75 603.8914 603.95 603.9756 604.0356 604.1915 604.4421 604.7748 605.1646 605.5423 606.244 607.2183 608.5016 610.0215 611.6946 613.7643 615.2881 615.9931 615.8718 614.8853 -9999 610.96 609.2665 608.4837 608.2328 608.1759 608.4962 609.0168 608.9721 609.5046 610.0959 610.1248 609.3999 608.3995 607.611 607.0927 606.6193 606.2628 606.2596 606.3565 605.9943 605.6845 605.48 605.1455 604.8341 604.7186 604.5187 604.0989 603.7565 603.5762 603.6464 604.1544 605.1276 606.8253 609.2341 611.9902 614.4846 616.116 616.9368 617.0042 -9999 -9999 -9999 -9999 -9999 -9999 -9999 -9999 -9999 -9999 -9999 -9999 -9999 -9999 -9999 -9999 -9999 -9999 -9999 -9999 -9999 -9999 -9999 -9999 -9999 -9999 -9999 -9999 -9999 -9999 -9999 -9999 -9999 -9999 -9999 -9999
-9999 -9999 -9999 -9999 -9999 -9999 -9999 -9999 -9999 -9999 -9999 -9999 -9999 -9999 -9999 -9999 -9999 -9999 -9999 -9999 -9999 -9999 -9999 -9999 -9999 -9999 -9999 -9999 -9999 -9999 -9999 -9999 -9999 -9999 -9999 -9999 -9999 -9999 -9999 -9999 -9999 -9999 -9999 -9999 -9999 -9999 -9999 -9999 -9999 -9999 -9999 -9999 -9999 -9999 -9999 611.5892 611.0846 610.4467 610.0441 610.056 610.0651 609.8419 609.1374 607.9812 607.0836 606.4773 605.9773 605.5212 605.1671 604.8339 604.5295 604.2882 604.1058 603.9683 603.8524 603.7028 603.5615 603.4515 603.3701 603.3007 603.2253 603.178 603.1191 603.0774 603.0625 603.0695 603.0851 603.0959 603.0869 603.0602 603.0363 603.0372 603.0684 603.1018 603.1316 603.1589 603.1987 603.2639 603.3578 603.4729 603.5952 603.7086 603.8009 603.8669 603.9087 603.9329 603.95 603.9752 603.9885 603.9838 603.9661 603.95 603.9443 603.9472 603.95 603.9507 603.9438 603.9227 603.8792 603.807 603.7067 603.5836 603.4438 603.2946 603.146 603.0095 602.8969 602.8155 602.7693 602.7611 602.7886 602.8416 602.9089 602.9774 603.0342 603.0731 603.0783 603.0441 602.9685 602.8884 602.832 602.8245 602.8785 602.9872 603.1273 603.288 603.472 603.6659 603.834 603.9501 604.0333 604.1149 604.2508 604.4634 604.7349 605.0745 605.4905 606.1074 606.9675 608.0956 609.4333 610.9335 612.6718 614.6614 615.7622 615.7725 614.7369 612.7026 610.2676 608.2789 607.2019 606.9041 607.0123 607.3507 607.411 607.1807 607.2451 607.2853 606.9739 606.3524 606.1484 606.7465 606.3394 606.1005 605.9594 605.844 605.6211 605.2471 605.0186 604.9836 604.9169 604.7894 604.6733 604.5621 604.4025 604.308 604.4608 604.8231 605.4971 606.4531 607.8835 609.803 611.9564 613.7947 614.8655 615.1458 -9999 -9999 -9999 -9999 -9999 -9999 -9999 -9999 -9999 -9999 -9999 -9999 -9999 -9999 -9999 -9999 -9999 -9999 -9999 -9999 -9999 -9999 -9999 -9999 -9999 -9999 -9999 -9999 -9999 -9999 -9999 -9999 -9999 -9999 -9999 -9999 -9999
-9999 -9999 -9999 -9999 -9999 -9999 -9999 -9999 -9999 -9999 -9999 -9999 -9999 -9999 -9999 -9999 -9999 -9999 -9999 -9999 -9999 -9999 -9999 -9999 -9999 -9999 -9999 -9999 -9999 -9999 -9999 -9999 -9999 -9999 -9999 -9999 -9999 -9999 -9999 -9999 -9999 -9999 -9999 -9999 -9999 -9999 -9999 -9999 -9999 -9999 -9999 -9999 -9999 -9999 -9999 -9999 -9999 610.0718 609.8256 609.9926 610.1907 610.5073 610.3855 609.3715 608.1055 607.2225 606.4922 605.897 605.4695 605.1133 604.7811 604.5311 604.3374 604.1712 603.9835 603.8081 603.6636 603.5642 603.4915 603.421 603.3067 603.222 603.1575 603.1232 603.1177 603.1293 603.1379 603.1382 603.1171 603.0775 603.0431 603.036 603.0598 603.1022 603.1533 603.1819 603.2159 603.2772 603.372 603.493 603.6217 603.7381 603.829 603.8903 603.927 603.95 603.9745 603.9969 604.0006 603.9818 603.95 603.9258 603.9227 603.9357 603.95 603.9567 603.9449 603.9106 603.8492 603.7571 603.637 603.4966 603.3423 603.1807 603.0228 602.882 602.7731 602.7087 602.6937 602.7284 602.8091 602.9277 603.0658 603.1964 603.292 603.3503 603.3518 603.2908 603.162 603.0368 602.9639 602.9519 602.9965 603.085 603.187 603.2971 603.437 603.6127 603.7964 603.95 604.0659 604.1688 604.2977 604.4805 604.7159 605.0216 605.4395 605.9203 606.6682 607.6754 608.8384 610.1868 611.6743 613.6877 615.0457 614.8839 614.1789 612.1139 609.5657 607.4993 606.3702 606.0589 606.4039 606.9794 606.9242 606.3055 606.1692 605.7063 605.1364 604.6646 605.1457 605.9584 605.6719 605.5758 605.578 605.5682 605.3546 605.0518 604.8428 604.8617 605.0015 605.1364 605.2529 605.3531 605.4397 605.8673 606.3999 606.9293 607.4637 608.0842 608.887 609.9959 611.3585 612.5241 612.9394 -9999 -9999 -9999 -9999 -9999 -9999 -9999 -9999 -9999 -9999 -9999 -9999 -9999 -9999 -9999 -9999 -9999 -9999 -9999 -9999 -9999 -9999 -9999 -9999 -9999 -9999 -9999 -9999 -9999 -9999 -9999 -9999 -9999 -9999 -9999 -9999 -9999 -9999
-9999 -9999 -9999 -9999 -9999 -9999 -9999 -9999 -9999 -9999 -9999 -9999 -9999 -9999 -9999 -9999 -9999 -9999 -9999 -9999 -9999 -9999 -9999 -9999 -9999 -9999 -9999 -9999 -9999 -9999 -9999 -9999 -9999 -9999 -9999 -9999 -9999 -9999 -9999 -9999 -9999 -9999 -9999 -9999 -9999 -9999 -9999 -9999 -9999 -9999 -9999 -9999 -9999 -9999 -9999 -9999 -9999 -9999 609.7495 609.8578 610.0913 610.8891 611.2561 610.766 609.5522 608.275 607.2224 606.4172 605.8353 605.4222 605.0328 604.779 604.5528 604.3136 604.1015 603.9268 603.7953 603.6992 603.621 603.5077 603.38 603.2803 603.2157 603.1871 603.1899 603.2067 603.2017 603.1893 603.1603 603.1143 603.0768 603.0658 603.0816 603.1196 603.1718 603.2185 603.2518 603.3105 603.4071 603.535 603.6709 603.7878 603.8718 603.9225 603.95 603.9714 603.9976 604.012 603.9958 603.9499 603.8948 603.8678 603.8776 603.9131 603.95 603.9646 603.9502 603.9041 603.8247 603.7122 603.5724 603.416 603.2505 603.0823 602.9216 602.7831 602.6833 602.638 602.6573 602.7399 602.8771 603.0568 603.259 603.4434 603.5744 603.6669 603.6685 603.6017 603.4028 603.2297 603.1427 603.1368 603.1824 603.2534 603.3058 603.351 603.4326 603.5791 603.7697 603.9505 604.0744 604.1819 604.3062 604.4572 604.6398 604.8613 605.15 605.5276 606.1973 607.118 608.0346 609.1065 610.3694 612.1675 613.658 613.9 613.3785 611.3983 608.9963 607.1237 606.1212 605.998 606.316 606.9495 606.8009 606.4055 605.3857 605.1972 604.2938 604.1481 604.6791 605.2482 605.0876 604.8705 604.9807 605.0905 605.1605 605.1677 605.2671 605.4482 605.7849 606.2559 606.7594 607.301 607.9125 608.566 609.0738 609.3654 609.5533 609.6924 609.795 610.0305 610.5282 611.063 610.9514 -9999 -9999 -9999 -9999 -9999 -9999 -9999 -9999 -9999 -9999 -9999 -9999 -9999 -9999 -9999 -9999 -9999 -9999 -9999 -9999 -9999 -9999 -9999 -9999 -9999 -9999 -9999 -9999 -9999 -9999 -9999 -9999 -9999 -9999 -9999 -9999 -9999 -9999
-9999 -9999 -9999 -9999 -9999 -9999 -9999 -9999 -9999 -9999 -9999 -9999 -9999 -9999 -9999 -9999 -9999 -9999 -9999 -9999 -9999 -9999 -9999 -9999 -9999 -9999 -9999 -9999 -9999 -9999 -9999 -9999 -9999 -9999 -9999 -9999 -9999 -9999 -9999 -9999 -9999 -9999 -9999 -9999 -9999 -9999 -9999 -9999 -9999 -9999 -9999 -9999 -9999 -9999 -9999 -9999 -9999 -9999 -9999 -9999 610.1031 610.9988 611.8514 611.7687 610.9668 609.467 608.0535 607.0306 606.2172 605.5667 605.2113 604.9979 604.7072 604.4388 604.2275 604.0719 603.9541 603.858 603.7454 603.6125 603.4792 603.3729 603.3057 603.2771 603.2772 603.2841 603.2723 603.2541 603.2242 603.1785 603.144 603.1368 603.1512 603.181 603.2224 603.2635 603.3001 603.3557 603.4536 603.5908 603.7361 603.8501 603.9186 603.95 603.9594 603.9736 604.0023 604.0023 603.9495 603.8563 603.7868 603.7684 603.8029 603.8741 603.9499 603.9675 603.952 603.8982 603.8054 603.6764 603.5204 603.3511 603.178 603.0077 602.8502 602.7195 602.6334 602.6094 602.6608 602.7902 602.985 603.2238 603.4779 603.6938 603.8132 603.9438 603.9496 603.9285 603.6755 603.505 603.4426 603.4562 603.4858 603.5185 603.4769 603.4232 603.4281 603.5321 603.7249 603.9458 604.0549 604.1544 604.2692 604.3879 604.5135 604.6532 604.8297 605.0971 605.5656 606.2944 607.0731 607.9526 609.0497 610.4666 611.9604 612.8156 612.3036 610.6424 608.6059 607.125 606.5588 606.5182 606.9913 606.6443 606.1617 605.8422 605.1814 604.3773 603.8866 603.9637 604.4025 604.5881 604.4682 604.358 604.451 604.7037 604.991 605.413 605.9963 606.6801 607.3964 608.3389 609.3506 610.4103 611.3224 611.9635 612.1962 612.1218 611.9136 611.5988 611.1023 610.5482 610.0569 609.9469 -9999 -9999 -9999 -9999 -9999 -9999 -9999 -9999 -9999 -9999 -9999 -9999 -9999 -9999 -9999 -9999 -9999 -9999 -9999 -9999 -9999 -9999 -9999 -9999 -9999 -9999 -9999 -9999 -9999 -9999 -9999 -9999 -9999 -9999 -9999 -9999 -9999 -9999 -9999
-9999 -9999 -9999 -9999 -9999 -9999 -9999 -9999 -9999 -9999 -9999 -9999 -9999 -9999 -9999 -9999 -9999 -9999 -9999 -9999 -9999 -9999 -9999 -9999 -9999 -9999 -9999 -9999 -9999 -9999 -9999 -9999 -9999 -9999 -9999 -9999 -9999 -9999 -9999 -9999 -9999 -9999 -9999 -9999 -9999 -9999 -9999 -9999 -9999 -9999 -9999 -9999 -9999 -9999 -9999 -9999 -9999 -9999 -9999 -9999 -9999 611.0347 611.967 612.4525 612.2499 610.81 608.9661 607.8203 606.8302 606.0305 605.5076 605.1719 604.858 604.585 604.3872 604.2497 604.1523 604.053 603.9006 603.7471 603.6069 603.4976 603.4269 603.3939 603.3865 603.3759 603.3591 603.3417 603.3195 603.2825 603.249 603.2483 603.2684 603.2953 603.3245 603.3502 603.372 603.4078 603.4999 603.6487 603.8086 603.9115 603.95 603.953 603.9484 603.95 603.9823 603.9489 603.8253 603.7067 603.6385 603.6382 603.7013 603.8044 603.9049 603.95 603.9454 603.8893 603.7887 603.6499 603.4839 603.3071 603.131 602.9628 602.8129 602.6944 602.6257 602.625 602.7071 602.8767 603.1229 603.4155 603.7103 603.9373 603.9536 604.0377 604.076 604.0755 603.9691 603.9573 604.0079 604.063 603.9965 603.9171 603.6936 603.489 603.3945 603.4338 603.5886 603.792 603.9489 604.074 604.1927 604.2809 604.3538 604.4289 604.524 604.6892 605.0096 605.5289 606.1432 606.7928 607.6808 608.7441 609.8215 610.9401 611.0616 610.1714 608.5011 607.2302 606.9026 606.4796 606.2307 605.582 605.0016 604.5204 604.1274 603.6685 603.493 603.6929 603.806 603.8707 603.906 603.9388 604.2731 604.8177 605.4393 606.1808 607.2244 608.532 609.8649 611.4787 613.0901 614.4861 615.4601 615.9063 615.808 615.4136 614.9802 614.3768 613.4043 612.0815 610.7886 -9999 -9999 -9999 -9999 -9999 -9999 -9999 -9999 -9999 -9999 -9999 -9999 -9999 -9999 -9999 -9999 -9999 -9999 -9999 -9999 -9999 -9999 -9999 -9999 -9999 -9999 -9999 -9999 -9999 -9999 -9999 -9999 -9999 -9999 -9999 -9999 -9999 -9999 -9999 -9999
-9999 -9999 -9999 -9999 -9999 -9999 -9999 -9999 -9999 -9999 -9999 -9999 -9999 -9999 -9999 -9999 -9999 -9999 -9999 -9999 -9999 -9999 -9999 -9999 -9999 -9999 -9999 -9999 -9999 -9999 -9999 -9999 -9999 -9999 -9999 -9999 -9999 -9999 -9999 -9999 -9999 -9999 -9999 -9999 -9999 -9999 -9999 -9999 -9999 -9999 -9999 -9999 -9999 -9999 -9999 -9999 -9999 -9999 -9999 -9999 -9999 611.3768 612.2194 613.0602 613.3066 612.0931 610.2148 608.8286 607.5834 606.6527 606.0553 605.555 605.1313 604.8102 604.5967 604.4689 604.3691 604.2377 604.0653 603.8926 603.7461 603.6329 603.5607 603.5253 603.5175 603.4915 603.4727 603.4613 603.4525 603.4319 603.4058 603.4 603.4208 603.4479 603.468 603.4725 603.4591 603.4521 603.5295 603.6946 603.8798 603.9499 603.9312 603.95 603.95 603.9363 603.9493 603.8256 603.671 603.5532 603.4997 603.5178 603.6056 603.74 603.8736 603.95 603.9435 603.8801 603.7736 603.6312 603.4628 603.2849 603.1111 602.9495 602.8112 602.7091 602.6609 602.6867 602.8014 603.0085 603.2969 603.6301 603.9379 604.1183 604.196 604.3044 604.42 604.5413 604.6594 604.8584 605.114 605.2578 604.8513 604.3732 603.9135 603.5358 603.3412 603.3097 603.4113 603.592 603.7789 603.9493 604.0865 604.1398 604.1681 604.1967 604.2319 604.3055 604.4954 604.9009 605.362 605.7458 606.4671 607.3519 608.2408 609.1049 609.9978 610.0636 608.6069 607.2461 606.5356 605.8663 605.2173 604.4352 604.0159 603.7051 603.4474 603.1615 603.0908 603.2777 603.2473 603.2571 603.4365 603.8074 604.4507 605.4982 606.7286 608.028 609.5729 611.6112 613.764 615.9083 617.8158 619.2907 620.1243 620.2527 619.7963 619.1454 618.5974 617.8283 616.5183 -9999 -9999 -9999 -9999 -9999 -9999 -9999 -9999 -9999 -9999 -9999 -9999 -9999 -9999 -9999 -9999 -9999 -9999 -9999 -9999 -9999 -9999 -9999 -9999 -9999 -9999 -9999 -9999 -9999 -9999 -9999 -9999 -9999 -9999 -9999 -9999 -9999 -9999 -9999 -9999 -9999 -9999
-9999 -9999 -9999 -9999 -9999 -9999 -9999 -9999 -9999 -9999 -9999 -9999 -9999 -9999 -9999 -9999 -9999 -9999 -9999 -9999 -9999 -9999 -9999 -9999 -9999 -9999 -9999 -9999 -9999 -9999 -9999 -9999 -9999 -9999 -9999 -9999 -9999 -9999 -9999 -9999 -9999 -9999 -9999 -9999 -9999 -9999 -9999 -9999 -9999 -9999 -9999 -9999 -9999 -9999 -9999 -9999 -9999 -9999 -9999 -9999 -9999 -9999 613.1084 613.9354 614.173 613.2903 611.4516 609.5132 608.0716 607.2933 606.8402 606.2886 605.5957 605.1323 604.872 604.7271 604.6 604.4413 604.2448 604.0484 603.8865 603.7668 603.689 603.6489 603.6326 603.6151 603.6111 603.6148 603.6221 603.6207 603.6091 603.6012 603.6059 603.6189 603.6246 603.6007 603.5186 603.4704 603.5342 603.7198 603.9459 603.9207 603.9569 604.0269 604.0267 603.9797 603.9102 603.7683 603.6149 603.5063 603.46 603.4753 603.5625 603.7101 603.8667 603.95 603.9362 603.8661 603.7584 603.6196 603.4564 603.2843 603.1174 602.9664 602.8436 602.7626 602.7409 602.7993 602.9543 603.2076 603.5472 603.9318 604.2638 604.5359 604.7733 605.0361 605.3083 605.6174 605.963 606.3376 606.7052 606.8571 605.929 604.9593 604.1093 603.6136 603.3369 603.2277 603.2556 603.3896 603.5759 603.7732 603.9426 603.9517 603.9509 603.9498 603.9471 603.9414 603.9911 604.3289 604.652 604.994 605.5278 606.3149 607.2279 608.1835 609.1443 609.5538 608.4019 607.1212 606.0538 605.1555 604.3801 603.8947 603.5575 603.302 603.0804 602.8711 602.803 602.9619 602.9379 603.0019 603.3454 604.0511 605.2158 606.8354 608.8801 611.0524 613.4962 616.098 618.6721 621.0544 623.0342 624.3756 624.9026 624.6067 623.756 622.8588 622.2034 -9999 -9999 -9999 -9999 -9999 -9999 -9999 -9999 -9999 -9999 -9999 -9999 -9999 -9999 -9999 -9999 -9999 -9999 -9999 -9999 -9999 -9999 -9999 -9999 -9999 -9999 -9999 -9999 -9999 -9999 -9999 -9999 -9999 -9999 -9999 -9999 -9999 -9999 -9999 -9999 -9999 -9999 -9999 -9999
-9999 -9999 -9999 -9999 -9999 -9999 -9999 -9999 -9999 -9999 -9999 -9999 -9999 -9999 -9999 -9999 -9999 -9999 -9999 -9999 -9999 -9999 -9999 -9999 -9999 -9999 -9999 -9999 -9999 -9999 -9999 -9999 -9999 -9999 -9999 -9999 -9999 -9999 -9999 -9999 -9999 -9999 -9999 -9999 -9999 -9999 -9999 -9999 -9999 -9999 -9999 -9999 -9999 -9999 -9999 -9999 -9999 -9999 -9999 -9999 -9999 -9999 614.7017 615.2906 615.445 614.6693 612.8607 610.6872 608.8809 608.1998 607.8945 607.2407 606.2478 605.5244 605.1857 605.0167 604.8639 604.6691 604.434 604.2043 604.0214 603.8949 603.8148 603.7745 603.7623 603.7583 603.776 603.8008 603.8232 603.8374 603.8376 603.8317 603.8186 603.7998 603.7723 603.7155 603.5736 603.4973 603.5603 603.7617 603.9986 604.1273 604.4602 604.5867 604.545 604.4219 604.2557 604.0594 603.8731 603.7382 603.651 603.6008 603.625 603.7389 603.8963 603.95 603.9151 603.8424 603.7435 603.6175 603.4674 603.3069 603.1506 603.0123 602.9084 602.8546 602.8691 602.9729 603.1835 603.5065 603.9341 604.4247 604.9399 605.4626 606.0068 606.5792 607.0944 607.6373 608.2813 608.7689 608.9998 608.6229 607.308 605.9072 604.7635 603.9836 603.5263 603.2823 603.1906 603.2271 603.3558 603.5197 603.6613 603.7078 603.7057 603.671 603.6174 603.5642 603.5896 603.8384 604.0016 604.3281 604.7368 605.4174 606.347 607.3604 608.2574 608.6281 607.9827 606.8577 605.5163 604.4711 604.2747 603.7788 603.3933 603.1133 602.8927 602.7092 602.6204 602.7267 602.9067 603.2316 603.8757 604.9955 606.7136 608.9921 611.8591 614.9485 618.0464 621.0118 623.7463 626.1465 628.0156 629.0735 629.1669 628.3832 -9999 -9999 -9999 -9999 -9999 -9999 -9999 -9999 -9999 -9999 -9999 -9999 -9999 -9999 -9999 -9999 -9999 -9999 -9999 -9999 -9999 -9999 -9999 -9999 -9999 -9999 -9999 -9999 -9999 -9999 -9999 -9999 -9999 -9999 -9999 -9999 -9999 -9999 -9999 -9999 -9999 -9999 -9999 -9999 -9999 -9999 -9999
-9999 -9999 -9999 -9999 -9999 -9999 -9999 -9999 -9999 -9999 -9999 -9999 -9999 -9999 -9999 -9999 -9999 -9999 -9999 -9999 -9999 -9999 -9999 -9999 -9999 -9999 -9999 -9999 -9999 -9999 -9999 -9999 -9999 -9999 -9999 -9999 -9999 -9999 -9999 -9999 -9999 -9999 -9999 -9999 -9999 -9999 -9999 -9999 -9999 -9999 -9999 -9999 -9999 -9999 -9999 -9999 -9999 -9999 -9999 -9999 -9999 -9999 -9999 617.2274 617.209 616.4445 614.8304 612.718 610.6778 609.5762 609.0582 607.8711 606.6968 605.8708 605.468 605.2699 605.148 604.918 604.6304 604.3586 604.1514 604.0165 603.9392 603.9064 603.9067 603.9209 603.9605 604.0082 604.045 604.0667 604.0709 604.0591 604.0266 603.9707 603.8928 603.7725 603.6426 603.6147 603.7684 604.1287 604.6395 605.2339 605.8774 605.9955 605.8661 605.6238 605.3187 604.9998 604.7025 604.455 604.2346 603.998 603.8444 603.8289 603.9494 603.9258 603.8695 603.8086 603.7344 603.6318 603.5024 603.3575 603.2138 603.0887 603.0056 602.9867 603.051 603.2177 603.5084 603.9387 604.5243 605.2904 606.192 607.1609 608.2715 609.3676 610.1906 610.87 611.4651 611.762 611.5432 610.5778 609.004 607.2893 605.7789 604.6897 603.9706 603.5302 603.2708 603.1545 603.1731 603.2671 603.3749 603.4384 603.4388 603.3679 603.2566 603.1339 603.0416 603.1317 603.282 603.601 603.8544 604.4507 605.3873 606.4296 607.2939 607.6569 607.3296 606.3517 604.9462 604.0237 603.7467 603.4768 603.187 602.963 602.781 602.6488 602.626 602.8267 603.2943 604.0304 605.1839 606.9991 609.3414 612.1083 615.4029 618.8816 622.2647 625.3627 628.0538 630.3011 631.9301 632.6024 632.2505 -9999 -9999 -9999 -9999 -9999 -9999 -9999 -9999 -9999 -9999 -9999 -9999 -9999 -9999 -9999 -9999 -9999 -9999 -9999 -9999 -9999 -9999 -9999 -9999 -9999 -9999 -9999 -9999 -9999 -9999 -9999 -9999 -9999 -9999 -9999 -9999 -9999 -9999 -9999 -9999 -9999 -9999 -9999 -9999 -9999 -9999 -9999 -9999
-9999 -9999 -9999 -9999 -9999 -9999 -9999 -9999 -9999 -9999 -9999 -9999 -9999 -9999 -9999 -9999 -9999 -9999 -9999 -9999 -9999 -9999 -9999 -9999 -9999 -9999 -9999 -9999 -9999 -9999 -9999 -9999 -9999 -9999 -9999 -9999 -9999 -9999 -9999 -9999 -9999 -9999 -9999 -9999 -9999 -9999 -9999 -9999 -9999 -9999 -9999 -9999 -9999 -9999 -9999 -9999 -9999 -9999 -9999 -9999 -9999 -9999 -9999 619.437 619.2466 618.5184 617.1891 615.3022 613.0462 611.0714 609.6827 608.1999 606.9551 606.0841 605.6318 605.4805 605.457 605.1896 604.8428 604.52 604.2867 604.1448 604.0724 604.0506 604.0668 604.1002 604.1562 604.2198 604.2698 604.2945 604.2899 604.2601 604.2012 604.1154 604.0176 603.8757 603.8147 603.9276 604.2916 604.9534 605.8981 607.0694 608.36 608.547 608.379 607.9651 607.4689 606.9379 606.4024 605.8921 605.384 604.7771 604.2806 603.9584 603.8711 603.8594 603.8123 603.7839 603.7488 603.6747 603.5696 603.442 603.311 603.1977 603.137 603.1608 603.2903 603.5401 603.9353 604.5132 605.3781 606.629 608.2537 609.7579 611.1927 612.6334 613.7584 614.5601 615.1075 615.2266 614.6317 613.1719 611.1326 608.9698 607.0916 605.6427 604.6573 603.9747 603.5119 603.2023 603.0732 603.0717 603.127 603.1788 603.166 603.0504 602.8737 602.7065 602.4758 602.4476 602.4654 602.5547 602.7483 603.3768 604.3198 605.3618 606.2335 606.672 606.4017 605.3433 604.0706 603.3223 603.077 602.9558 602.8624 602.7651 602.6907 602.6818 602.8435 603.2861 604.1443 605.4591 607.3049 609.7129 612.4731 615.4955 618.8285 622.2639 625.5521 628.4588 630.8619 632.7576 634.0399 -9999 -9999 -9999 -9999 -9999 -9999 -9999 -9999 -9999 -9999 -9999 -9999 -9999 -9999 -9999 -9999 -9999 -9999 -9999 -9999 -9999 -9999 -9999 -9999 -9999 -9999 -9999 -9999 -9999 -9999 -9999 -9999 -9999 -9999 -9999 -9999 -9999 -9999 -9999 -9999 -9999 -9999 -9999 -9999 -9999 -9999 -9999 -9999 -9999 -9999
-9999 -9999 -9999 -9999 -9999 -9999 -9999 -9999 -9999 -9999 -9999 -9999 -9999 -9999 -9999 -9999 -9999 -9999 -9999 -9999 -9999 -9999 -9999 -9999 -9999 -9999 -9999 -9999 -9999 -9999 -9999 -9999 -9999 -9999 -9999 -9999 -9999 -9999 -9999 -9999 -9999 -9999 -9999 -9999 -9999 -9999 -9999 -9999 -9999 -9999 -9999 -9999 -9999 -9999 -9999 -9999 -9999 -9999 -9999 -9999 -9999 -9999 -9999 -9999 621.3718 620.8154 619.8223 618.2216 615.93 613.3761 611.0065 608.9602 607.4663 606.4277 605.88 605.7113 605.6873 605.487 605.105 604.7245 604.4545 604.3047 604.231 604.2162 604.2443 604.2897 604.3517 604.4193 604.4766 604.504 604.4825 604.4199 604.3218 604.2011 604.0906 604.036 604.1506 604.5264 605.2393 606.3575 607.8801 609.5328 611.1063 611.9554 612.1415 611.812 611.1741 610.3367 609.3621 608.3162 607.2239 606.0376 605.0697 604.3656 603.9916 603.9454 603.8304 603.8176 603.8159 603.757 603.6743 603.5627 603.4429 603.3391 603.3029 603.3795 603.5895 603.9386 604.4435 605.2133 606.4246 608.3101 610.5861 612.5585 614.3671 615.7817 616.8842 617.6646 618.1969 618.2272 617.4326 615.709 613.3095 610.7446 608.4495 606.6915 605.4683 604.5738 603.8739 603.3609 603.0816 602.9694 602.9469 602.95 602.8961 602.7061 602.4421 602.3494 602.1403 602.0816 602.0571 602.0627 602.1877 602.6042 603.2779 604.111 604.849 605.1646 604.9077 603.9749 602.9514 602.4908 602.418 602.4526 602.5749 602.5911 602.6035 602.7731 603.2232 604.1022 605.506 607.4963 609.9557 612.7314 615.6231 618.5604 621.5858 624.6559 627.5746 630.0504 631.9127 -9999 -9999 -9999 -9999 -9999 -9999 -9999 -9999 -9999 -9999 -9999 -9999 -9999 -9999 -9999 -9999 -9999 -9999 -9999 -9999 -9999 -9999 -9999 -9999 -9999 -9999 -9999 -9999 -9999 -9999 -9999 -9999 -9999 -9999 -9999 -9999 -9999 -9999 -9999 -9999 -9999 -9999 -9999 -9999 -9999 -9999 -9999 -9999 -9999 -9999 -9999 -9999
-9999 -9999 -9999 -9999 -9999 -9999 -9999 -9999 -9999 -9999 -9999 -9999 -9999 -9999 -9999 -9999 -9999 -9999 -9999 -9999 -9999 -9999 -9999 -9999 -9999 -9999 -9999 -9999 -9999 -9999 -9999 -9999 -9999 -9999 -9999 -9999 -9999 -9999 -9999 -9999 -9999 -9999 -9999 -9999 -9999 -9999 -9999 -9999 -9999 -9999 -9999 -9999 -9999 -9999 -9999 -9999 -9999 -9999 -9999 -9999 -9999 -9999 -9999 -9999 -9999 623.2188 622.5956 621.3048 619.1378 616.4032 613.5273 610.8939 608.7691 607.281 606.4868 606.2488 606.2465 606.094 605.5689 605.0539 604.7053 604.5325 604.4385 604.412 604.441 604.4832 604.5341 604.5942 604.6498 604.675 604.6355 604.5332 604.3933 604.2524 604.1984 604.3134 604.7144 605.4916 606.7075 608.4656 610.5043 612.618 614.5272 615.9017 616.5704 616.5136 615.8484 614.7245 613.2259 611.4907 609.6811 607.8463 606.2347 605.0809 604.548 604.2937 603.985 603.9497 603.9482 603.8671 603.8102 603.7111 603.6047 603.5065 603.4996 603.6453 603.9563 604.4114 605.0481 605.9962 607.509 609.5801 612.1222 614.5885 616.4388 617.556 618.5054 619.1487 619.7894 619.804 619.0182 617.3949 614.869 612.0703 609.5172 607.5323 606.1971 605.1596 604.1853 603.605 603.2287 602.9979 602.8573 602.7542 602.6121 602.272 601.8123 601.7184 601.6919 601.7545 601.811 601.8063 601.8194 601.9683 602.2729 602.7051 603.0817 603.3238 603.2171 602.6707 602.1385 601.897 601.9298 602.1227 602.4118 602.502 602.5818 602.9257 603.7336 605.1814 607.3256 609.9524 612.8669 615.7979 618.5648 621.1533 623.6711 626.1884 628.5958 630.6235 -9999 -9999 -9999 -9999 -9999 -9999 -9999 -9999 -9999 -9999 -9999 -9999 -9999 -9999 -9999 -9999 -9999 -9999 -9999 -9999 -9999 -9999 -9999 -9999 -9999 -9999 -9999 -9999 -9999 -9999 -9999 -9999 -9999 -9999 -9999 -9999 -9999 -9999 -9999 -9999 -9999 -9999 -9999 -9999 -9999 -9999 -9999 -9999 -9999 -9999 -9999 -9999 -9999
-9999 -9999 -9999 -9999 -9999 -9999 -9999 -9999 -9999 -9999 -9999 -9999 -9999 -9999 -9999 -9999 -9999 -9999 -9999 -9999 -9999 -9999 -9999 -9999 -9999 -9999 -9999 -9999 -9999 -9999 -9999 -9999 -9999 -9999 -9999 -9999 -9999 -9999 -9999 -9999 -9999 -9999 -9999 -9999 -9999 -9999 -9999 -9999 -9999 -9999 -9999 -9999 -9999 -9999 -9999 -9999 -9999 -9999 -9999 -9999 -9999 -9999 -9999 -9999 -9999 625.5814 625.309 624.3768 622.4669 619.7759 616.7129 613.7036 611.0542 608.9771 607.7196 607.3038 607.2946 607.1752 606.4155 605.6039 605.0999 604.8823 604.7208 604.6486 604.6596 604.6741 604.6949 604.7356 604.7865 604.8018 604.7355 604.5914 604.409 604.2953 604.3707 604.745 605.5507 606.882 608.7554 611.0292 613.4965 615.8832 618.0319 619.7886 620.9366 621.2595 620.7225 619.4074 617.4096 614.9689 612.3717 609.8326 607.5218 605.8315 605.2482 604.8943 604.4399 604.197 604.0618 603.9512 603.9485 603.8593 603.7823 603.6853 603.7212 603.9694 604.424 604.9843 605.748 606.8446 608.2268 609.9528 612.5389 615.0586 616.6299 617.4033 617.9261 618.6071 619.3339 619.7548 619.1189 617.584 615.1237 612.4071 609.9218 607.9751 606.7166 605.6396 604.7918 604.1549 603.6278 603.2223 602.8918 602.5779 602.2582 601.5538 601.0322 601.1156 601.2434 601.3842 601.5209 601.5574 601.498 601.4256 601.3568 601.2847 601.4444 601.788 601.9208 601.761 601.5449 601.4532 601.5455 601.7891 602.1361 602.4249 602.6281 603.2108 604.441 606.5575 609.4199 612.6323 615.8339 618.7473 621.2433 623.4096 625.4113 627.3945 -9999 -9999 -9999 -9999 -9999 -9999 -9999 -9999 -9999 -9999 -9999 -9999 -9999 -9999 -9999 -9999 -9999 -9999 -9999 -9999 -9999 -9999 -9999 -9999 -9999 -9999 -9999 -9999 -9999 -9999 -9999 -9999 -9999 -9999 -9999 -9999 -9999 -9999 -9999 -9999 -9999 -9999 -9999 -9999 -9999 -9999 -9999 -9999 -9999 -9999 -9999 -9999 -9999 -9999 -9999
