ncols         202
nrows         57
xllcorner     381100
yllcorner     6106250
cellsize      50
NODATA_value  -9999
-9999 -9999 -9999 -9999 -9999 -9999 -9999 -9999 -9999 -9999 -9999 -9999 -9999 -9999 -9999 -9999 -9999 -9999 -9999 -9999 -9999 -9999 -9999 -9999 -9999 -9999 -9999 750.024 749.6642 748.8174 747.4476 745.7187 743.7148 741.713 740.126 738.9009 738.0724 737.5324 737.2018 737.0055 736.8976 736.8551 736.8571 736.8866 736.9267 736.95 736.9188 736.8482 736.756 736.6538 736.5471 736.4346 736.3162 736.1931 736.0673 735.9406 735.8156 735.6976 735.5934 735.5073 735.4302 735.3574 735.2574 735.1489 735.0385 734.9259 734.8101 734.6903 734.5667 734.4397 734.311 734.1838 734.062 733.9492 733.8481 733.7603 733.6861 733.6248 733.5748 733.5342 733.5012 733.4742 733.4528 733.437 733.4272 733.4231 733.4236 733.4275 733.4336 733.4409 733.4491 733.458 733.4681 733.4799 733.4939 733.5105 733.5298 733.5512 733.5742 733.5981 733.6227 733.6479 733.6736 733.6992 733.7238 733.7468 733.7677 733.786 733.8018 733.8153 733.8269 733.8369 733.8451 733.8504 733.8551 733.861 733.8683 733.8751 733.8755 733.8761 733.8783 733.8823 733.8898 733.9037 733.9242 733.9506 733.9843 734.03 734.0908 734.1653 734.2479 734.335 734.4275 734.5302 734.6487 734.7839 734.9323 735.0839 735.2242 735.3389 735.4301 735.5569 735.7221 735.9226 736.1459 736.3741 736.5926 736.7895 736.9482 737.0157 737.0658 737.1216 737.1752 737.2321 737.3121 737.4136 737.5343 737.6746 737.8455 738.0814 738.4234 738.9012 739.7346 740.7953 742.1562 744.2259 746.8462 749.7647 752.5665 754.907 756.6277 -9999 -9999 -9999 -9999 -9999 -9999 -9999 -9999 -9999 -9999 -9999 -9999 -9999 -9999 -9999 -9999 -9999 -9999 -9999 -9999 -9999 -9999 -9999 -9999 -9999 -9999 -9999 -9999 -9999 -9999 -9999
-9999 -9999 -9999 -9999 -9999 -9999 -9999 -9999 -9999 -9999 -9999 -9999 -9999 -9999 -9999 -9999 -9999 -9999 -9999 -9999 -9999 -9999 -9999 -9999 -9999 -9999 -9999 750.1418 749.6552 748.4942 746.7671 744.6237 742.3586 740.4295 739.0641 738.2208 737.69 737.3523 737.1432 737.0161 736.9408 736.9065 736.9016 736.9167 736.9413 736.95 736.8952 736.8093 736.7063 736.5942 736.4769 736.3549 736.2292 736.1011 735.9714 735.8432 735.7189 735.6027 735.5026 735.4299 735.3594 735.2832 735.1887 735.0827 734.972 734.8605 734.7484 734.6353 734.5208 734.4041 734.2856 734.1669 734.0507 733.9411 733.8412 733.7532 733.6781 733.6158 733.5651 733.524 733.4908 733.4637 733.442 733.4258 733.4153 733.4106 733.4114 733.4165 733.4249 733.4355 733.4478 733.4613 733.4761 733.4927 733.5112 733.5321 733.5551 733.5798 733.6052 733.631 733.6569 733.6832 733.7095 733.7354 733.7601 733.783 733.8033 733.8208 733.8356 733.8481 733.8593 733.8684 733.8767 733.8799 733.8822 733.8859 733.8918 733.9 733.8953 733.8932 733.8932 733.8944 733.898 733.9081 733.9257 733.9493 733.9804 734.0227 734.0806 734.1538 734.2368 734.3246 734.4167 734.5171 734.6315 734.762 734.9057 735.0542 735.1957 735.3206 735.4301 735.552 735.7074 735.8997 736.1148 736.3328 736.5386 736.7219 736.8668 736.9502 737.0161 737.0916 737.1477 737.1865 737.2375 737.3115 737.3989 737.5017 737.6324 737.8328 738.1584 738.7017 739.7362 740.8909 742.1821 743.6237 745.5846 748.1151 750.8453 753.3741 755.4639 -9999 -9999 -9999 -9999 -9999 -9999 -9999 -9999 -9999 -9999 -9999 -9999 -9999 -9999 -9999 -9999 -9999 -9999 -9999 -9999 -9999 -9999 -9999 -9999 -9999 -9999 -9999 -9999 -9999 -9999 -9999
-9999 -9999 -9999 -9999 -9999 -9999 -9999 -9999 -9999 -9999 -9999 -9999 -9999 -9999 -9999 -9999 -9999 -9999 -9999 -9999 -9999 -9999 -9999 -9999 -9999 -9999 -9999 749.8072 749.1663 747.912 745.9772 743.587 741.2534 739.4972 738.5146 737.9502 737.6025 737.376 737.2162 737.1035 737.026 736.9807 736.9597 736.9529 736.95 736.927 736.8607 736.766 736.6558 736.5365 736.4113 736.2811 736.1486 736.0159 735.8849 735.7578 735.6376 735.5273 735.4309 735.3691 735.2996 735.2189 735.1241 735.0187 734.9083 734.7971 734.6871 734.579 734.4718 734.3644 734.2561 734.1471 734.0389 733.9348 733.838 733.7511 733.6758 733.6129 733.5618 733.5209 733.4882 733.4619 733.4412 733.4255 733.4153 733.4108 733.4116 733.4174 733.4272 733.4402 733.4554 733.4724 733.491 733.5112 733.5334 733.5577 733.5837 733.6107 733.6381 733.6649 733.6915 733.7181 733.7442 733.7697 733.7939 733.8158 733.8348 733.8506 733.8637 733.8743 733.8839 733.8906 733.9 733.9 733.9 733.9 733.9 733.9036 733.9 733.9 733.9 733.9 733.9 733.9066 733.9213 733.9427 733.9711 734.0103 734.0652 734.1364 734.2194 734.3083 734.4012 734.5002 734.6115 734.7381 734.8785 735.027 735.1739 735.3105 735.4302 735.537 735.6774 735.8581 736.062 736.2666 736.4578 736.6293 736.7722 736.8754 736.9515 737.0508 737.1106 737.1334 737.1537 737.1968 737.2521 737.3166 737.4045 737.5527 737.8209 738.3062 739.1368 740.3531 741.6986 743.049 744.2553 746.3519 748.9716 751.6769 754.1721 756.3019 -9999 -9999 -9999 -9999 -9999 -9999 -9999 -9999 -9999 -9999 -9999 -9999 -9999 -9999 -9999 -9999 -9999 -9999 -9999 -9999 -9999 -9999 -9999 -9999 -9999 -9999 -9999 -9999 -9999 -9999
-9999 -9999 -9999 -9999 -9999 -9999 -9999 -9999 -9999 -9999 -9999 -9999 -9999 -9999 -9999 -9999 -9999 -9999 -9999 -9999 -9999 -9999 -9999 -9999 -9999 -9999 -9999 748.9797 748.466 747.2411 745.1971 742.7242 740.5227 739.0916 738.4026 738.0005 737.725 737.5216 737.3555 737.2184 737.1137 737.0449 737.0049 736.9789 736.9501 736.9005 736.8193 736.7157 736.5992 736.4749 736.3442 736.2089 736.0712 735.9354 735.8056 735.6841 735.5748 735.4852 735.4292 735.3436 735.257 735.1659 735.0665 734.9595 734.8484 734.7368 734.6276 734.5222 734.4202 734.3201 734.221 734.122 734.0234 733.927 733.8356 733.7516 733.6776 733.615 733.5639 733.5233 733.4915 733.4668 733.4478 733.434 733.425 733.4213 733.4229 733.4294 733.4403 733.4547 733.4719 733.4913 733.5126 733.5355 733.5602 733.5869 733.615 733.6436 733.6719 733.6993 733.7258 733.7517 733.7772 733.8016 733.8245 733.8448 733.8618 733.8746 733.8854 733.8921 733.9 733.9 733.9076 733.9099 733.9097 733.9083 733.9064 733.9055 733.9023 733.9004 733.8987 733.8971 733.8961 733.9 733.912 733.9312 733.9569 733.993 734.0447 734.1134 734.1957 734.2855 734.3795 734.4786 734.5878 734.7114 734.8492 734.9974 735.1487 735.2957 735.4283 735.5027 735.6282 735.7976 735.9885 736.1783 736.3557 736.5208 736.6753 736.817 736.9479 737.0237 737.0707 737.0782 737.0731 737.0865 737.1134 737.1447 737.1925 737.2889 737.4872 737.8811 738.5556 739.5831 740.767 741.7104 742.6654 744.4968 747.0322 749.9084 752.8136 755.4593 -9999 -9999 -9999 -9999 -9999 -9999 -9999 -9999 -9999 -9999 -9999 -9999 -9999 -9999 -9999 -9999 -9999 -9999 -9999 -9999 -9999 -9999 -9999 -9999 -9999 -9999 -9999 -9999 -9999 -9999
-9999 -9999 -9999 -9999 -9999 -9999 -9999 -9999 -9999 -9999 -9999 -9999 -9999 -9999 -9999 -9999 -9999 -9999 -9999 -9999 -9999 -9999 -9999 -9999 -9999 -9999 748.1373 748.14 747.7565 746.5214 744.424 741.9723 739.9764 739.144 738.6217 738.2419 737.9427 737.6996 737.4972 737.3193 737.1786 737.0809 737.0211 736.9863 736.9496 736.8676 736.7673 736.6542 736.5327 736.405 736.2717 736.1336 735.9941 735.8577 735.7308 735.6177 735.5188 735.4307 735.3798 735.3024 735.2126 735.116 735.0131 734.9045 734.7925 734.6804 734.5712 734.4667 734.3676 734.2728 734.1812 734.0913 734.0024 733.915 733.831 733.7526 733.6818 733.6208 733.5704 733.5304 733.4996 733.4766 733.46 733.4485 733.4418 733.4399 733.4429 733.4506 733.4624 733.4779 733.4965 733.5174 733.5403 733.5651 733.5914 733.6193 733.6483 733.6775 733.7059 733.7332 733.7589 733.7836 733.8074 733.83 733.851 733.8693 733.8837 733.8916 733.9 733.9 733.906 733.9084 733.9128 733.9146 733.9139 733.9117 733.9086 733.9052 733.9008 733.8965 733.8929 733.89 733.8885 733.8911 733.9 733.9161 733.9388 733.9724 734.0206 734.0861 734.1666 734.2565 734.3514 734.4512 734.5594 734.6803 734.8146 734.9594 735.1068 735.2462 735.3606 735.432 735.5627 735.7218 735.8973 736.0707 736.2333 736.391 736.551 736.7094 736.8525 736.9502 737.0125 737.0231 737.0052 736.9952 736.9996 737.0057 737.0204 737.0721 737.204 737.4944 737.9934 738.7145 739.6086 740.4439 741.3849 742.8992 745.2838 748.2408 751.5088 754.6772 757.2803 -9999 -9999 -9999 -9999 -9999 -9999 -9999 -9999 -9999 -9999 -9999 -9999 -9999 -9999 -9999 -9999 -9999 -9999 -9999 -9999 -9999 -9999 -9999 -9999 -9999 -9999 -9999 -9999 -9999
-9999 -9999 -9999 -9999 -9999 -9999 -9999 -9999 -9999 -9999 -9999 -9999 -9999 -9999 -9999 -9999 -9999 -9999 -9999 -9999 -9999 -9999 -9999 -9999 -9999 -9999 747.825 747.7363 747.194 745.8666 743.6989 741.3113 739.5884 739.3198 738.8727 738.4607 738.1184 737.8294 737.5859 737.3813 737.2117 737.0839 736.9966 736.9499 736.8903 736.8007 736.694 736.5769 736.4534 736.3252 736.192 736.0543 735.9153 735.7812 735.6593 735.5585 735.4852 735.4294 735.3495 735.2609 735.1659 735.0658 734.9608 734.8517 734.7397 734.6277 734.5184 734.4144 734.3168 734.2252 734.1388 734.0563 733.9763 733.8983 733.8229 733.7517 733.6863 733.6287 733.5802 733.5414 733.5118 733.4905 733.4761 733.4673 733.4634 733.4641 733.4692 733.4784 733.4915 733.508 733.5275 733.5493 733.5731 733.5988 733.6257 733.6541 733.683 733.7119 733.7396 733.7657 733.79 733.8127 733.8341 733.8541 733.8724 733.8883 733.9 733.9 733.9059 733.9078 733.9112 733.9135 733.9155 733.9158 733.9144 733.9114 733.9071 733.902 733.896 733.8897 733.8843 733.8804 733.8787 733.8804 733.8873 733.9 733.9186 733.9503 733.9951 734.0563 734.1338 734.2225 734.3177 734.4182 734.5257 734.6442 734.7744 734.9141 735.0568 735.1943 735.3187 735.4283 735.5153 735.6398 735.7912 735.9475 736.0962 736.2443 736.4042 736.5726 736.7324 736.8612 736.95 736.9781 736.9615 736.9361 736.9214 736.9092 736.9 736.9173 737.0015 737.2067 737.573 738.0986 738.7622 739.5564 740.5176 741.8696 743.9199 746.8047 750.3103 753.9016 756.9541 -9999 -9999 -9999 -9999 -9999 -9999 -9999 -9999 -9999 -9999 -9999 -9999 -9999 -9999 -9999 -9999 -9999 -9999 -9999 -9999 -9999 -9999 -9999 -9999 -9999 -9999 -9999 -9999 -9999
-9999 -9999 -9999 -9999 -9999 -9999 -9999 -9999 -9999 -9999 -9999 -9999 -9999 -9999 -9999 -9999 -9999 -9999 -9999 -9999 -9999 -9999 -9999 -9999 -9999 -9999 747.9067 747.6422 746.8274 745.2321 742.9754 740.6685 739.0932 738.7953 738.7196 738.4426 738.1328 737.8539 737.6066 737.3911 737.2117 737.0666 736.9509 736.8907 736.8165 736.7192 736.6074 736.4879 736.3638 736.2365 736.1056 735.9711 735.8357 735.705 735.5872 735.4917 735.43 735.3748 735.2986 735.2097 735.1135 735.0125 734.9077 734.7996 734.6893 734.5787 734.4703 734.3665 734.2695 734.1799 734.097 734.0199 733.9471 733.8776 733.8109 733.7477 733.6892 733.6369 733.592 733.5557 733.5279 733.5083 733.4958 733.4895 733.4884 733.4918 733.4995 733.5107 733.5251 733.5427 733.5629 733.5854 733.6096 733.6353 733.6621 733.6901 733.7181 733.7458 733.772 733.7963 733.8185 733.8386 733.8571 733.8738 733.8883 733.9 733.9078 733.9092 733.9116 733.9131 733.9146 733.9154 733.9154 733.9142 733.9115 733.9076 733.9022 733.8959 733.8885 733.8808 733.874 733.8694 733.8674 733.8691 733.8751 733.8856 733.9 733.9304 733.9705 734.0259 734.0986 734.1849 734.2795 734.3803 734.4872 734.6034 734.7291 734.8628 734.9989 735.1301 735.2495 735.3503 735.4303 735.5364 735.6687 735.8152 735.9553 736.0942 736.2496 736.4252 736.6041 736.7646 736.8881 736.9501 736.9485 736.9149 736.8828 736.8561 736.8313 736.824 736.8794 737.0398 737.3219 737.7452 738.3453 739.0754 740.0889 741.3671 742.9545 745.642 749.2522 753.1339 756.5062 -9999 -9999 -9999 -9999 -9999 -9999 -9999 -9999 -9999 -9999 -9999 -9999 -9999 -9999 -9999 -9999 -9999 -9999 -9999 -9999 -9999 -9999 -9999 -9999 -9999 -9999 -9999 -9999 -9999
-9999 -9999 -9999 -9999 -9999 -9999 -9999 -9999 -9999 -9999 -9999 -9999 -9999 -9999 -9999 -9999 -9999 -9999 -9999 -9999 -9999 -9999 -9999 -9999 -9999 748.7303 748.2793 747.7684 746.5744 744.6302 742.2932 740.1534 738.6985 738.2422 738.214 738.1974 737.9996 737.7709 737.5532 737.3566 737.1892 737.0542 736.9502 736.8573 736.7549 736.6406 736.5195 736.3954 736.2699 736.1433 736.0156 735.8868 735.7584 735.6349 735.5233 735.4307 735.3773 735.3181 735.2419 735.1532 735.0569 734.9562 734.8528 734.7473 734.6402 734.5326 734.4265 734.324 734.2278 734.1393 734.0585 733.9849 733.9174 733.8547 733.7959 733.7408 733.69 733.6443 733.6046 733.572 733.547 733.5295 733.5189 733.5148 733.5161 733.5221 733.5321 733.5453 733.5615 733.5802 733.6012 733.6239 733.6479 733.6733 733.6995 733.7262 733.7528 733.7784 733.8024 733.824 733.8435 733.8608 733.876 733.8892 733.9 733.9081 733.913 733.9143 733.9149 733.915 733.9147 733.914 733.9124 733.9095 733.9056 733.9006 733.8943 733.887 733.8787 733.8701 733.8624 733.8572 733.8555 733.8578 733.8655 733.8795 733.9 733.9185 733.948 733.996 734.063 734.1455 734.2386 734.339 734.4453 734.559 734.6807 734.8082 734.9374 735.0612 735.1734 735.2674 735.3444 735.4301 735.541 735.6888 735.8273 735.9583 736.1051 736.2809 736.4753 736.6661 736.8325 736.9494 736.9604 736.9252 736.8791 736.8384 736.8044 736.7833 736.8175 736.9604 737.1998 737.532 738.0344 738.7536 739.8898 741.1837 742.2965 744.732 748.3698 752.4548 756.0804 758.6545 -9999 -9999 -9999 -9999 -9999 -9999 -9999 -9999 -9999 -9999 -9999 -9999 -9999 -9999 -9999 -9999 -9999 -9999 -9999 -9999 -9999 -9999 -9999 -9999 -9999 -9999 -9999 -9999
-9999 -9999 -9999 -9999 -9999 -9999 -9999 -9999 -9999 -9999 -9999 -9999 -9999 -9999 -9999 -9999 -9999 -9999 -9999 -9999 -9999 -9999 -9999 -9999 -9999 749.3492 748.8533 747.9204 746.3382 744.0715 741.6856 739.7418 738.4673 737.8899 737.8004 737.8903 737.7917 737.6317 737.4595 737.2906 737.1411 737.022 736.9485 736.8284 736.7002 736.5685 736.4363 736.306 736.1776 736.0509 735.9264 735.8048 735.687 735.5767 735.4844 735.4294 735.3514 735.2731 735.1882 735.0958 734.9984 734.8981 734.7964 734.6942 734.5912 734.4882 734.3861 734.2867 734.1925 734.1051 734.0257 733.9542 733.8901 733.8323 733.7799 733.7319 733.6885 733.6498 733.6162 733.5887 733.5674 733.5527 733.5446 733.5426 733.5461 733.5542 733.5663 733.5815 733.5991 733.6188 733.6403 733.6631 733.6869 733.7114 733.7365 733.7614 733.7859 733.809 733.83 733.8484 733.8647 733.8787 733.8904 733.9 733.9072 733.9122 733.9148 733.9153 733.9146 733.9131 733.9114 733.9092 733.9061 733.9018 733.8966 733.8907 733.8838 733.8759 733.8671 733.858 733.8499 733.8442 733.8425 733.8452 733.8531 733.8664 733.8835 733.9 733.9229 733.9659 734.028 734.1063 734.1968 734.2958 734.4012 734.5127 734.6308 734.7533 734.8765 734.995 735.1034 735.1971 735.2748 735.3486 735.4333 735.5917 735.7305 735.8519 735.9849 736.1511 736.3488 736.5559 736.7457 736.8884 736.95 736.9425 736.8989 736.8459 736.804 736.7789 736.8015 736.9329 737.1697 737.46 737.8893 738.5692 739.5911 740.5296 741.6491 744.0061 747.6431 751.8376 755.6408 758.3842 -9999 -9999 -9999 -9999 -9999 -9999 -9999 -9999 -9999 -9999 -9999 -9999 -9999 -9999 -9999 -9999 -9999 -9999 -9999 -9999 -9999 -9999 -9999 -9999 -9999 -9999 -9999 -9999
-9999 -9999 -9999 -9999 -9999 -9999 -9999 -9999 -9999 -9999 -9999 -9999 -9999 -9999 -9999 -9999 -9999 -9999 -9999 -9999 -9999 -9999 -9999 -9999 -9999 749.9209 749.2962 748.0197 746.0476 743.5873 741.1643 739.39 738.3617 737.7767 737.5695 737.58 737.5872 737.4885 737.3593 737.2188 737.0797 736.9517 736.8815 736.7727 736.6405 736.4996 736.3586 736.2218 736.0896 735.9624 735.8409 735.7269 735.6212 735.5221 735.4308 735.3804 735.3077 735.2241 735.1335 735.0378 734.9391 734.8392 734.7394 734.6404 734.5421 734.4447 734.3481 734.2535 734.1628 734.0778 733.9999 733.9299 733.8678 733.8131 733.7652 733.7228 733.6855 733.6534 733.6262 733.6041 733.5875 733.5767 733.5717 733.572 733.5776 733.5876 733.6015 733.618 733.637 733.6575 733.6792 733.7018 733.725 733.7484 733.7718 733.7947 733.8165 733.8365 733.8541 733.8689 733.8814 733.8918 733.9 733.9059 733.9098 733.9121 733.9128 733.912 733.9101 733.9074 733.9044 733.9009 733.8964 733.891 733.8848 733.8782 733.8707 733.8626 733.8537 733.8447 733.8363 733.8304 733.8284 733.8311 733.8389 733.8511 733.8663 733.8818 733.9001 733.9391 733.9954 734.0686 734.1555 734.2523 734.3564 734.4661 734.5811 734.6996 734.8186 734.9347 735.0436 735.144 735.2352 735.3262 735.4301 735.5549 735.6718 735.7773 735.894 736.0433 736.2313 736.4406 736.6429 736.807 736.9096 736.95 736.9283 736.8738 736.821 736.795 736.8139 736.9333 737.1782 737.4784 737.8591 738.439 739.1985 740.092 741.3643 743.583 747.0768 751.2084 755.0321 757.8522 -9999 -9999 -9999 -9999 -9999 -9999 -9999 -9999 -9999 -9999 -9999 -9999 -9999 -9999 -9999 -9999 -9999 -9999 -9999 -9999 -9999 -9999 -9999 -9999 -9999 -9999 -9999 -9999
-9999 -9999 -9999 -9999 -9999 -9999 -9999 -9999 -9999 -9999 -9999 -9999 -9999 -9999 -9999 -9999 -9999 -9999 -9999 -9999 -9999 -9999 -9999 -9999 -9999 750.3988 749.6334 748.0069 745.7637 743.2429 740.9194 739.3096 738.4143 737.8827 737.5902 737.4736 737.4272 737.3741 737.277 737.1672 737.0541 736.9498 736.8507 736.7282 736.5859 736.4354 736.2856 736.1421 736.0059 735.8776 735.7588 735.6531 735.5635 735.489 735.4293 735.3484 735.2621 735.1713 735.0765 734.9788 734.8794 734.7803 734.6825 734.5868 734.4933 734.4016 734.3114 734.2231 734.1376 734.0565 733.9813 733.913 733.8524 733.7997 733.7544 733.7158 733.6833 733.6565 733.6348 733.6182 733.6067 733.6002 733.5988 733.6022 733.6101 733.6219 733.6371 733.6548 733.6744 733.6953 733.7169 733.739 733.7612 733.7831 733.8044 733.8247 733.8436 733.8604 733.8741 733.8847 733.8933 733.9 733.9044 733.9071 733.9081 733.9078 733.9066 733.9044 733.9015 733.8978 733.8937 733.8892 733.8839 733.8774 733.8705 733.8633 733.8557 733.8477 733.8391 733.8303 733.8221 733.816 733.8137 733.8163 733.824 733.8365 733.8534 733.8741 733.9 733.9221 733.9675 734.0334 734.1154 734.2092 734.3116 734.4194 734.5316 734.6471 734.7633 734.8783 734.9894 735.0968 735.2017 735.3099 735.4285 735.5179 735.6168 735.7149 735.8221 735.9563 736.1273 736.3279 736.5341 736.7152 736.8484 736.9281 736.95 736.9114 736.8547 736.8231 736.8436 736.9498 737.1791 737.5007 737.8901 738.4105 739.0424 739.9817 741.3748 743.4921 746.6835 750.5673 754.2677 757.0821 758.802 -9999 -9999 -9999 -9999 -9999 -9999 -9999 -9999 -9999 -9999 -9999 -9999 -9999 -9999 -9999 -9999 -9999 -9999 -9999 -9999 -9999 -9999 -9999 -9999 -9999 -9999 -9999
-9999 -9999 -9999 -9999 -9999 -9999 -9999 -9999 -9999 -9999 -9999 -9999 -9999 -9999 -9999 -9999 -9999 -9999 -9999 -9999 -9999 -9999 -9999 -9999 -9999 750.842 749.8231 747.9371 745.5256 743.0061 740.8113 739.3197 738.4515 737.998 737.7206 737.5366 737.4103 737.3134 737.222 737.1304 737.0382 736.9502 736.834 736.6927 736.536 736.3737 736.2148 736.0645 735.9247 735.7954 735.6777 735.5766 735.4976 735.4301 735.369 735.2908 735.2035 735.1111 735.0155 734.9178 734.8194 734.7218 734.6265 734.5341 734.445 734.3592 734.2758 734.1945 734.1155 734.0397 733.9684 733.9028 733.8441 733.7928 733.7493 733.713 733.6837 733.6605 733.6431 733.6312 733.6244 733.6224 733.625 733.6318 733.6423 733.656 733.6725 733.691 733.7111 733.7319 733.7529 733.774 733.7949 733.8148 733.8336 733.8512 733.8666 733.8799 733.8898 733.8954 733.9 733.903 733.9039 733.9037 733.9021 733.8997 733.8968 733.8932 733.889 733.8845 733.8796 733.8744 733.8684 733.8617 733.8542 733.8466 733.839 733.8313 733.8232 733.8151 733.8075 733.8014 733.7988 733.8011 733.8088 733.8217 733.8392 733.8602 733.882 733.9001 733.9409 734.0002 734.0765 734.1664 734.2662 734.3721 734.4817 734.5945 734.7086 734.8223 734.9341 735.0427 735.1495 735.2527 735.3502 735.4308 735.533 735.6397 735.7505 735.8786 736.0338 736.2195 736.4218 736.6146 736.7715 736.8844 736.95 736.9453 736.8981 736.8612 736.8816 736.9772 737.1719 737.4703 737.8594 738.3907 739.0151 740.1234 741.6635 743.7244 746.4151 749.9131 753.4094 756.1954 758.02 -9999 -9999 -9999 -9999 -9999 -9999 -9999 -9999 -9999 -9999 -9999 -9999 -9999 -9999 -9999 -9999 -9999 -9999 -9999 -9999 -9999 -9999 -9999 -9999 -9999 -9999 -9999
-9999 -9999 -9999 -9999 -9999 -9999 -9999 -9999 -9999 -9999 -9999 -9999 -9999 -9999 -9999 -9999 -9999 -9999 -9999 -9999 -9999 -9999 -9999 -9999 -9999 750.8998 749.7795 747.7484 745.2392 742.7423 740.6821 739.3204 738.5348 738.1595 737.8723 737.6455 737.4648 737.3173 737.1975 737.0973 737.0113 736.9485 736.813 736.6537 736.483 736.3098 736.1423 735.9867 735.8451 735.7164 735.5996 735.499 735.4299 735.3645 735.2983 735.2211 735.1354 735.0444 734.9504 734.8549 734.7592 734.6644 734.5724 734.4838 734.3991 734.3186 734.2416 734.1674 734.0955 734.0259 733.9597 733.8981 733.842 733.7925 733.7503 733.7155 733.688 733.6674 733.653 733.6447 733.6415 733.6435 733.6499 733.6602 733.6736 733.6893 733.707 733.7262 733.7463 733.7666 733.7867 733.8064 733.8252 733.8428 733.8587 733.8727 733.8843 733.8937 733.9 733.9 733.901 733.9006 733.8987 733.8959 733.8922 733.8878 733.8833 733.8784 733.8734 733.8682 733.8628 733.8571 733.8508 733.844 733.8365 733.8286 733.821 733.8137 733.8065 733.7994 733.7926 733.7869 733.7842 733.7861 733.7934 733.8064 733.8246 733.8473 733.8727 733.9 733.9233 733.9712 734.0399 734.1243 734.2201 734.3232 734.4304 734.5404 734.6522 734.7638 734.8739 734.9799 735.0817 735.1766 735.261 735.3384 735.4307 735.543 735.6632 735.7937 735.9408 736.1115 736.3044 736.5013 736.6748 736.8095 736.9043 736.95 736.9372 736.906 736.9169 737.0083 737.1699 737.4038 737.7406 738.2343 738.9858 740.3574 741.9725 743.9247 746.0984 749.218 752.532 755.3259 757.3169 -9999 -9999 -9999 -9999 -9999 -9999 -9999 -9999 -9999 -9999 -9999 -9999 -9999 -9999 -9999 -9999 -9999 -9999 -9999 -9999 -9999 -9999 -9999 -9999 -9999 -9999 -9999
-9999 -9999 -9999 -9999 -9999 -9999 -9999 -9999 -9999 -9999 -9999 -9999 -9999 -9999 -9999 -9999 -9999 -9999 -9999 -9999 -9999 -9999 -9999 -9999 -9999 750.6323 749.4368 747.3981 744.8885 742.4306 740.4965 739.3129 738.6866 738.4201 738.0813 737.7925 737.5529 737.3539 737.1923 737.0632 736.9513 736.8807 736.7557 736.5952 736.4181 736.238 736.0649 735.9066 735.767 735.6447 735.5339 735.4311 735.368 735.3009 735.2285 735.149 735.0636 734.9745 734.8832 734.7912 734.6995 734.609 734.5213 734.4371 734.3569 734.2814 734.21 734.1421 734.0769 734.0139 733.9539 733.897 733.8446 733.7979 733.7573 733.7238 733.6975 733.6783 733.6659 733.6598 733.6595 733.6645 733.6741 733.6873 733.7031 733.7208 733.7399 733.7596 733.7795 733.7991 733.8177 733.8354 733.8517 733.8662 733.8786 733.8884 733.8955 733.9 733.9016 733.8994 733.8967 733.8933 733.8889 733.8839 733.8784 733.8725 733.8666 733.8607 733.855 733.8493 733.8435 733.8376 733.8315 733.8248 733.8176 733.8098 733.8023 733.7954 733.7892 733.7832 733.7773 733.7723 733.7698 733.7713 733.7781 733.7908 733.8091 733.832 733.8571 733.8809 733.9001 733.9434 734.0052 734.0833 734.1737 734.2726 734.3764 734.4833 734.5923 734.7014 734.8081 734.9102 735.005 735.093 735.1709 735.2441 735.3282 735.4307 735.5535 735.6879 735.8344 735.9965 736.1787 736.3731 736.5568 736.7073 736.8225 736.9058 736.95 736.944 736.946 737.0274 737.1724 737.3594 737.6226 738.082 738.9061 740.4054 741.9058 743.5864 745.4685 748.4011 751.6741 754.5845 756.8158 758.2977 -9999 -9999 -9999 -9999 -9999 -9999 -9999 -9999 -9999 -9999 -9999 -9999 -9999 -9999 -9999 -9999 -9999 -9999 -9999 -9999 -9999 -9999 -9999 -9999 -9999 -9999
-9999 -9999 -9999 -9999 -9999 -9999 -9999 -9999 -9999 -9999 -9999 -9999 -9999 -9999 -9999 -9999 -9999 -9999 -9999 -9999 -9999 -9999 -9999 -9999 -9999 749.944 748.9299 746.9886 744.5181 742.1306 740.3239 739.2574 738.717 738.475 738.2175 737.9366 737.6581 737.4091 737.2051 737.0567 736.9502 736.8387 736.6945 736.5242 736.3405 736.1555 735.9796 735.8215 735.6881 735.5814 735.4963 735.429 735.3351 735.2473 735.163 735.0782 734.9918 734.9041 734.8159 734.7281 734.6415 734.5565 734.474 734.3949 734.3198 734.249 734.1827 734.1205 734.0612 734.0045 733.9503 733.8989 733.8509 733.8075 733.7694 733.7374 733.712 733.6937 733.6823 733.6775 733.6791 733.6863 733.6981 733.7135 733.7313 733.7506 733.7705 733.7905 733.8101 733.8284 733.8452 733.8603 733.8733 733.8843 733.8927 733.8978 733.9 733.8997 733.897 733.8922 733.8866 733.8806 733.8742 733.8675 733.8607 733.8538 733.8469 733.8403 733.8341 733.8281 733.8223 733.8164 733.8105 733.8043 733.7976 733.7903 733.7831 733.7768 733.7714 733.7665 733.7618 733.7576 733.7552 733.7565 733.7627 733.7748 733.793 733.8162 733.8426 733.8706 733.9 733.9249 733.9753 734.0447 734.1279 734.2205 734.3193 734.4221 734.5276 734.634 734.7373 734.8353 734.9242 735.0054 735.0801 735.151 735.2281 735.3206 735.4307 735.5607 735.7051 735.8687 736.0424 736.23 736.4173 736.5803 736.71 736.8163 736.9005 736.9499 736.9657 737.0265 737.1635 737.3252 737.5251 737.8758 738.5438 739.682 741.0208 742.569 744.4893 747.4401 750.8006 753.9243 756.4246 758.1151 -9999 -9999 -9999 -9999 -9999 -9999 -9999 -9999 -9999 -9999 -9999 -9999 -9999 -9999 -9999 -9999 -9999 -9999 -9999 -9999 -9999 -9999 -9999 -9999 -9999 -9999
-9999 -9999 -9999 -9999 -9999 -9999 -9999 -9999 -9999 -9999 -9999 -9999 -9999 -9999 -9999 -9999 -9999 -9999 -9999 -9999 -9999 -9999 -9999 -9999 -9999 749.3329 748.5182 746.6653 744.2333 741.9017 740.1841 739.1703 738.6777 738.4821 738.3363 738.0696 737.7549 737.454 737.2074 737.0368 736.9467 736.7938 736.623 736.4398 736.2502 736.0625 735.8857 735.7292 735.6014 735.5068 735.4301 735.3617 735.2749 735.1847 735.0958 735.0083 734.9215 734.8355 734.7507 734.6675 734.5867 734.5081 734.4316 734.3584 734.2889 734.2232 734.1616 734.1041 734.0499 733.9987 733.9498 733.9034 733.8601 733.8204 733.7851 733.755 733.7308 733.713 733.7022 733.6984 733.7011 733.7096 733.7229 733.7397 733.7584 733.7783 733.7985 733.8181 733.8367 733.8534 733.8679 733.8799 733.8893 733.8961 733.9 733.9 733.8971 733.8922 733.8859 733.8784 733.8705 733.8625 733.8546 733.8467 733.8391 733.8316 733.8245 733.8177 733.8114 733.8055 733.7999 733.7944 733.7889 733.7833 733.7773 733.7709 733.7643 733.7582 733.7534 733.7494 733.746 733.7427 733.7407 733.7415 733.7471 733.7588 733.7764 733.7992 733.8254 733.853 733.879 733.9001 733.9476 734.0087 734.0828 734.1672 734.2593 734.3571 734.4583 734.5615 734.6622 734.7562 734.8417 734.9167 734.9885 735.0588 735.1334 735.2184 735.3174 735.4303 735.5612 735.7306 735.9011 736.0739 736.2574 736.4298 736.5729 736.6937 736.804 736.894 736.9504 737.0298 737.1349 737.2832 737.4414 737.675 738.1217 738.8902 740.0482 741.5409 743.5599 746.4034 749.8152 753.149 755.9208 757.7802 -9999 -9999 -9999 -9999 -9999 -9999 -9999 -9999 -9999 -9999 -9999 -9999 -9999 -9999 -9999 -9999 -9999 -9999 -9999 -9999 -9999 -9999 -9999 -9999 -9999 -9999
-9999 -9999 -9999 -9999 -9999 -9999 -9999 -9999 -9999 -9999 -9999 -9999 -9999 -9999 -9999 -9999 -9999 -9999 -9999 -9999 -9999 -9999 -9999 -9999 -9999 748.9448 748.1614 746.3519 743.9877 741.7144 740.0385 739.0443 738.6094 738.5157 738.4698 738.1731 737.8078 737.4551 737.1642 736.9565 736.8474 736.6995 736.5259 736.3394 736.1487 735.962 735.7876 735.634 735.5107 735.4299 735.3582 735.2867 735.2043 735.1163 735.0276 734.94 734.8542 734.7705 734.6894 734.6112 734.5362 734.4641 734.3948 734.3282 734.2649 734.2048 734.1482 734.0951 734.045 733.998 733.9536 733.9117 733.8723 733.8361 733.8035 733.7754 733.7524 733.7354 733.7251 733.7218 733.7253 733.7347 733.7487 733.7661 733.785 733.8046 733.8241 733.8425 733.8593 733.8737 733.8853 733.8934 733.8984 733.9 733.8982 733.8934 733.8862 733.8776 733.8682 733.8584 733.8486 733.8392 733.8302 733.8218 733.8138 733.8063 733.7994 733.793 733.7871 733.7817 733.7767 733.7719 733.767 733.7621 733.7572 733.7517 733.7458 733.74 733.7355 733.7321 733.7295 733.7274 733.7258 733.7265 733.7316 733.7424 733.7593 733.7813 733.8071 733.8358 733.8666 733.9 733.9301 733.9763 734.0385 734.1134 734.1974 734.2886 734.3853 734.4845 734.5831 734.6741 734.7565 734.8293 734.8969 734.9675 735.0438 735.129 735.2245 735.3279 735.4355 735.6063 735.7656 735.9146 736.0806 736.2571 736.4152 736.5508 736.6829 736.8188 736.9479 737.0197 737.1116 737.2365 737.3753 737.5387 737.8343 738.3871 739.2669 740.5891 742.4995 745.1666 748.5233 751.9638 754.9598 757.1035 758.3761 -9999 -9999 -9999 -9999 -9999 -9999 -9999 -9999 -9999 -9999 -9999 -9999 -9999 -9999 -9999 -9999 -9999 -9999 -9999 -9999 -9999 -9999 -9999 -9999 -9999
-9999 -9999 -9999 -9999 -9999 -9999 -9999 -9999 -9999 -9999 -9999 -9999 -9999 -9999 -9999 -9999 -9999 -9999 -9999 -9999 -9999 -9999 -9999 -9999 -9999 748.5915 747.6025 745.8158 743.5539 741.3661 739.7747 738.8316 738.4871 738.4937 738.4738 738.1766 737.7877 737.4059 737.1025 736.9421 736.7714 736.5991 736.4181 736.2303 736.0422 735.8612 735.6946 735.5498 735.4315 735.363 735.2933 735.2183 735.1359 735.0491 734.9614 734.8751 734.7913 734.7106 734.6337 734.5605 734.4916 734.426 734.3638 734.3046 734.248 734.1942 734.1428 734.0941 734.0478 734.0042 733.9631 733.9247 733.8884 733.855 733.8246 733.7982 733.7762 733.7598 733.75 733.7472 733.7511 733.7609 733.7752 733.7925 733.8109 733.8295 733.8472 733.8635 733.8775 733.8889 733.8967 733.9004 733.9 733.8956 733.8884 733.879 733.8679 733.8561 733.8442 733.8326 733.8214 733.811 733.8015 733.7928 733.785 733.778 733.7719 733.7664 733.7614 733.757 733.7531 733.7491 733.7451 733.7412 733.7373 733.7329 733.7278 733.7225 733.7182 733.7152 733.7132 733.7117 733.7108 733.7114 733.7158 733.7257 733.7414 733.7622 733.7867 733.814 733.843 733.8724 733.9 733.9395 733.9928 734.0587 734.1345 734.2181 734.3091 734.4044 734.4999 734.5903 734.6693 734.7416 734.8076 734.8766 734.9558 735.0477 735.155 735.2813 735.4262 735.5344 735.6481 735.7567 735.8962 736.067 736.2385 736.3898 736.5319 736.6825 736.8323 736.95 737.0485 737.1887 737.328 737.4597 737.6511 738.0176 738.658 739.7336 741.3668 743.7275 746.8803 750.2889 753.4302 755.8584 757.2996 -9999 -9999 -9999 -9999 -9999 -9999 -9999 -9999 -9999 -9999 -9999 -9999 -9999 -9999 -9999 -9999 -9999 -9999 -9999 -9999 -9999 -9999 -9999 -9999 -9999
-9999 -9999 -9999 -9999 -9999 -9999 -9999 -9999 -9999 -9999 -9999 -9999 -9999 -9999 -9999 -9999 -9999 -9999 -9999 -9999 -9999 -9999 -9999 -9999 748.3885 747.7997 746.6998 744.9633 742.8551 740.8578 739.4141 738.5896 738.4397 738.4799 738.3873 738.0954 737.7055 737.3083 736.9698 736.8164 736.6584 736.4868 736.3051 736.1195 735.9373 735.7662 735.6156 735.498 735.4288 735.3348 735.2467 735.1611 735.0743 734.9867 734.8998 734.8152 734.7341 734.6571 734.5846 734.5167 734.4536 734.3947 734.3395 734.2875 734.2382 734.191 734.1455 734.1013 734.0587 734.0181 733.9797 733.9436 733.9094 733.8776 733.8486 733.8231 733.8016 733.7856 733.7761 733.7736 733.7777 733.7877 733.8019 733.8186 733.836 733.8528 733.8679 733.881 733.8914 733.8988 733.9019 733.9 733.8934 733.8834 733.871 733.8574 733.843 733.8284 733.8146 733.8015 733.7894 733.7786 733.7692 733.7607 733.7537 733.7476 733.7424 733.7382 733.7344 733.7314 733.7289 733.7266 733.7238 733.7208 733.718 733.7149 733.7109 733.7064 733.7021 733.6992 733.6973 733.696 733.6955 733.6963 733.7001 733.7087 733.7231 733.7423 733.7649 733.7894 733.8148 733.8405 733.8665 733.9 733.9459 734.0037 734.0715 734.1475 734.2316 734.3224 734.4149 734.5034 734.5834 734.6519 734.7189 734.7864 734.8645 734.9592 735.0706 735.1968 735.3277 735.4308 735.5309 735.593 735.7128 735.8742 736.053 736.2181 736.368 736.5203 736.6815 736.8313 736.9584 737.1324 737.2832 737.4149 737.5591 737.8151 738.301 739.0344 740.2875 742.2288 745.017 748.2478 751.3953 753.9694 755.5931 756.3742 -9999 -9999 -9999 -9999 -9999 -9999 -9999 -9999 -9999 -9999 -9999 -9999 -9999 -9999 -9999 -9999 -9999 -9999 -9999 -9999 -9999 -9999 -9999 -9999
-9999 -9999 -9999 -9999 -9999 -9999 -9999 -9999 -9999 -9999 -9999 -9999 -9999 -9999 -9999 -9999 -9999 -9999 -9999 -9999 -9999 -9999 -9999 -9999 747.463 746.7031 745.5574 743.8896 741.9742 740.2553 739.0492 738.4952 738.4799 738.4799 738.309 737.9894 737.6052 737.2391 736.9523 736.751 736.5667 736.3827 736.1971 736.0134 735.8381 735.6782 735.5408 735.4312 735.3719 735.2894 735.1993 735.1086 735.0186 734.9299 734.8438 734.7614 734.6835 734.6107 734.543 734.4807 734.4235 734.3707 734.3221 734.2772 734.2352 734.1949 734.1554 734.1161 734.0776 734.0402 734.0042 733.9695 733.9363 733.9051 733.8761 733.8505 733.8289 733.8127 733.803 733.8003 733.8044 733.8141 733.8279 733.8438 733.8599 733.8741 733.8859 733.8945 733.9 733.9026 733.9 733.8915 733.8788 733.8634 733.8466 733.8292 733.812 733.7953 733.78 733.7661 733.7538 733.743 733.7339 733.7263 733.7205 733.7157 733.7119 733.7092 733.7072 733.7058 733.705 733.7041 733.7031 733.7017 733.7001 733.6982 733.6956 733.6918 733.6878 733.6846 733.6826 733.6813 733.6805 733.6812 733.6843 733.6918 733.7045 733.7218 733.7423 733.7643 733.7866 733.8092 733.833 733.8621 733.9 733.95 734.0098 734.0784 734.155 734.24 734.329 734.416 734.4953 734.5653 734.6284 734.6957 734.7709 734.8607 734.9679 735.0883 735.2128 735.3268 735.4264 735.434 735.5446 735.6964 735.8768 736.0513 736.2068 736.3621 736.535 736.7317 736.9412 737.0889 737.2236 737.3575 737.48 737.6379 737.9251 738.4361 739.3719 740.9265 743.1938 746.0736 749.0767 751.6901 753.4934 754.4962 755.1436 -9999 -9999 -9999 -9999 -9999 -9999 -9999 -9999 -9999 -9999 -9999 -9999 -9999 -9999 -9999 -9999 -9999 -9999 -9999 -9999 -9999 -9999 -9999
-9999 -9999 -9999 -9999 -9999 -9999 -9999 -9999 -9999 -9999 -9999 -9999 -9999 -9999 -9999 -9999 -9999 -9999 -9999 -9999 -9999 -9999 747.6066 746.9465 746.33 745.5468 744.3328 742.7036 741.0219 739.6478 738.6874 738.4454 738.48 738.4736 738.2186 737.8582 737.4738 737.1438 736.9365 736.7008 736.4875 736.2885 736.0979 735.9164 735.7492 735.6045 735.4935 735.429 735.3413 735.2482 735.153 735.0588 734.9669 734.8782 734.7933 734.7136 734.6395 734.5714 734.5091 734.4526 734.4014 734.3546 734.3124 734.2742 734.239 734.2055 734.1721 734.1382 734.1041 734.0701 734.0363 734.0027 733.9698 733.9381 733.9082 733.8815 733.8589 733.8417 733.8309 733.8272 733.8304 733.8393 733.8524 733.8671 733.8815 733.8931 733.9008 733.9038 733.9028 733.9 733.89 733.8749 733.8566 733.8364 733.8157 733.7952 733.7756 733.7576 733.7416 733.7275 733.7155 733.7054 733.6973 733.691 733.6865 733.6835 733.6814 733.6805 733.6803 733.6808 733.6816 733.6829 733.6838 733.684 733.6836 733.683 733.6816 733.6788 733.6752 733.6718 733.6692 733.6676 733.6666 733.6666 733.6689 733.675 733.6857 733.701 733.7196 733.7396 733.7598 733.7803 733.802 733.8272 733.8589 733.9 733.9517 734.0123 734.0815 734.1593 734.2441 734.3287 734.4078 734.478 734.5416 734.604 734.6747 734.7575 734.8549 734.9651 735.0809 735.1914 735.2832 735.3337 735.4291 735.5487 735.7249 735.9023 736.059 736.2086 736.3783 736.5753 736.7831 736.9538 737.1079 737.271 737.3973 737.5028 737.6622 737.9946 738.6771 739.9083 741.7329 744.1059 746.8015 749.3889 751.4383 752.7966 753.658 -9999 -9999 -9999 -9999 -9999 -9999 -9999 -9999 -9999 -9999 -9999 -9999 -9999 -9999 -9999 -9999 -9999 -9999 -9999 -9999 -9999 -9999 -9999
-9999 -9999 -9999 -9999 -9999 -9999 -9999 -9999 -9999 -9999 -9999 -9999 -9999 -9999 -9999 -9999 -9999 -9999 -9999 -9999 -9999 746.4297 746.1882 745.8287 745.3204 744.4977 743.218 741.643 740.2045 739.1042 738.5126 738.4799 738.4784 738.3411 738.0492 737.6798 737.3005 736.9755 736.8004 736.6011 736.3961 736.1965 736.0065 735.8291 735.6699 735.5355 735.431 735.3739 735.2937 735.2014 735.1054 735.0103 734.9183 734.8308 734.7483 734.672 734.6022 734.5392 734.4827 734.4323 734.3871 734.3466 734.3107 734.2791 734.2505 734.2233 734.1956 734.167 734.1375 734.1073 734.076 734.0436 734.0104 733.9774 733.9459 733.9172 733.8926 733.8734 733.8605 733.8546 733.8558 733.8629 733.8745 733.8877 733.9 733.9086 733.912 733.9094 733.9 733.8896 733.8726 733.8511 733.8273 733.803 733.779 733.7563 733.7352 733.7166 733.7003 733.6868 733.6757 733.6667 733.6602 733.6556 733.653 733.6519 733.6519 733.653 733.6548 733.6573 733.66 733.6632 733.6661 733.6681 733.6693 733.6699 733.6696 733.6677 733.6645 733.6609 733.6577 733.6555 733.6539 733.6531 733.6541 733.6586 733.6673 733.6803 733.697 733.7155 733.7346 733.754 733.7742 733.7966 733.8236 733.8574 733.9 733.9518 734.0132 734.0831 734.1619 734.2434 734.3215 734.3925 734.4561 734.5169 734.5808 734.6544 734.7405 734.8393 734.9465 735.0549 735.155 735.2394 735.3334 735.4344 735.6062 735.7777 735.9275 736.0664 736.2209 736.4064 736.6098 736.799 736.9664 737.1782 737.3247 737.4158 737.5183 737.7518 738.2876 739.1971 740.6737 742.6217 744.9407 747.4453 749.7986 751.6411 752.8477 753.6826 -9999 -9999 -9999 -9999 -9999 -9999 -9999 -9999 -9999 -9999 -9999 -9999 -9999 -9999 -9999 -9999 -9999 -9999 -9999 -9999 -9999 -9999
-9999 -9999 -9999 -9999 -9999 -9999 -9999 -9999 -9999 -9999 -9999 -9999 -9999 -9999 -9999 -9999 -9999 -9999 -9999 -9999 744.8487 745.1055 745.2068 744.8337 744.3296 743.4211 742.2043 740.8291 739.6366 738.7339 738.4707 738.4763 738.3561 738.1414 737.8351 737.485 737.1563 736.9364 736.7192 736.5114 736.3076 736.1106 735.9244 735.7537 735.6053 735.4916 735.4291 735.3428 735.2508 735.1548 735.0581 734.9636 734.8729 734.7877 734.7085 734.6364 734.5717 734.5142 734.4636 734.4194 734.3807 734.3466 734.3171 734.292 734.2699 734.2485 734.2264 734.2029 734.1781 734.1517 734.1232 734.0919 734.0582 734.0239 733.9902 733.9591 733.9317 733.9093 733.8928 733.8831 733.8804 733.8844 733.8934 733.9047 733.9145 733.9197 733.9189 733.9122 733.9 733.8756 733.8483 733.8198 733.7913 733.7635 733.7373 733.7133 733.6918 733.6732 733.6578 733.6453 733.6356 733.6285 733.6239 733.6215 733.6208 733.6218 733.6241 733.6272 733.6313 733.6362 733.6411 733.6461 733.6508 733.6548 733.6576 733.6593 733.6599 733.6589 733.6561 733.6523 733.6485 733.6454 733.6431 733.6412 733.6406 733.6431 733.6495 733.66 733.6746 733.6917 733.71 733.7293 733.749 733.7698 733.7935 733.8217 733.8568 733.9 733.9515 734.0142 734.0844 734.1618 734.2379 734.3091 734.3738 734.4335 734.4932 734.5581 734.6328 734.7202 734.8201 734.9293 735.0431 735.1595 735.2859 735.4263 735.5381 735.6746 735.8082 735.9344 736.0748 736.2488 736.4578 736.6907 736.9357 737.1098 737.2539 737.3566 737.4315 737.5808 737.9509 738.6852 739.9944 741.7682 743.769 746.1547 748.7661 751.1187 752.8129 753.887 -9999 -9999 -9999 -9999 -9999 -9999 -9999 -9999 -9999 -9999 -9999 -9999 -9999 -9999 -9999 -9999 -9999 -9999 -9999 -9999 -9999 -9999
-9999 -9999 -9999 -9999 -9999 -9999 -9999 -9999 -9999 -9999 -9999 -9999 -9999 -9999 -9999 -9999 -9999 -9999 -9999 743.6149 743.9105 744.2232 744.3197 743.7065 743.1279 742.2164 741.2612 740.2871 739.3428 738.6808 738.462 738.3131 738.1293 737.892 737.6008 737.2817 736.9745 736.8021 736.6151 736.4191 736.2224 736.0316 735.8523 735.6892 735.5471 735.431 735.3738 735.2958 735.2047 735.1086 735.0126 734.9197 734.8315 734.7495 734.6745 734.6073 734.548 734.4963 734.4517 734.4137 734.3816 734.3544 734.3317 734.3132 734.2975 734.2819 734.2651 734.2465 734.2263 734.204 734.1782 734.1478 734.1139 734.0779 734.0419 734.0082 733.9775 733.9509 733.9292 733.9135 733.9047 733.9032 733.9081 733.9164 733.9232 733.9233 733.9154 733.9 733.8773 733.8468 733.8135 733.7805 733.7488 733.7192 733.6921 733.6678 733.6469 733.6293 733.6152 733.6045 733.597 733.5921 733.5897 733.5896 733.5913 733.5945 733.5992 733.6046 733.611 733.618 733.6251 733.6318 733.6384 733.6443 733.6488 733.6516 733.6529 733.6526 733.6503 733.6464 733.642 733.6379 733.6344 733.6315 733.6293 733.6295 733.6332 733.6409 733.6528 733.6683 733.686 733.7053 733.7252 733.7458 733.7673 733.7917 733.8209 733.8568 733.9 733.9517 734.0155 734.0844 734.1581 734.2291 734.2947 734.3551 734.4122 734.4708 734.5366 734.614 734.7064 734.8142 734.9359 735.0665 735.2009 735.3278 735.4306 735.5566 735.6863 735.8068 735.9366 736.0978 736.2965 736.5251 736.7617 736.9529 737.1231 737.2849 737.3749 737.4701 737.7325 738.3606 739.5255 741.3067 743.2839 745.472 748.2555 751.0286 753.1889 754.5326 755.2117 -9999 -9999 -9999 -9999 -9999 -9999 -9999 -9999 -9999 -9999 -9999 -9999 -9999 -9999 -9999 -9999 -9999 -9999 -9999 -9999 -9999
-9999 -9999 -9999 -9999 -9999 -9999 -9999 -9999 -9999 -9999 -9999 -9999 -9999 -9999 -9999 -9999 -9999 -9999 742.9481 743.0762 743.465 743.7584 743.5206 742.8661 741.971 741.2133 740.5068 739.8427 739.0387 738.487 738.2241 738.037 737.8436 737.6221 737.3774 737.1367 736.9378 736.7262 736.5276 736.3337 736.1437 735.9609 735.7909 735.6409 735.5194 735.4299 735.3487 735.259 735.1633 735.0662 734.9713 734.8807 734.7959 734.7178 734.6473 734.5853 734.5316 734.4857 734.447 734.4154 734.39 734.3696 734.354 734.3425 734.3334 734.3237 734.312 734.2982 734.2827 734.2644 734.2413 734.212 734.1776 734.1403 734.1024 734.0661 734.032 734.0001 733.9713 733.9469 733.9288 733.9186 733.917 733.9213 733.9249 733.9176 733.9 733.8733 733.8416 733.8062 733.7698 733.7347 733.7018 733.6718 733.6451 733.6221 733.6027 733.5869 733.575 733.5665 733.5613 733.559 733.5591 733.5614 733.5656 733.5713 733.5781 733.5861 733.5945 733.6034 733.6125 733.6213 733.6295 733.6371 733.6431 733.6473 733.6494 733.6495 733.6476 733.6435 733.6383 733.6332 733.6287 733.6245 733.6208 733.6185 733.6193 733.6238 733.6326 733.6458 733.6625 733.6815 733.7022 733.7231 733.7441 733.7657 733.7909 733.8204 733.8566 733.9 733.9521 734.0157 734.0825 734.152 734.219 734.2809 734.338 734.393 734.4521 734.5217 734.6069 734.7104 734.8319 734.9657 735.0996 735.2202 735.3215 735.4307 735.5585 735.6809 735.8054 735.9538 736.1339 736.3438 736.57 736.7836 736.9697 737.1925 737.328 737.3771 737.5106 737.9322 738.8335 740.3821 742.3784 744.7526 747.7496 750.8642 753.4683 755.1826 756.0348 -9999 -9999 -9999 -9999 -9999 -9999 -9999 -9999 -9999 -9999 -9999 -9999 -9999 -9999 -9999 -9999 -9999 -9999 -9999 -9999 -9999
-9999 -9999 -9999 -9999 -9999 -9999 -9999 -9999 -9999 -9999 -9999 -9999 -9999 -9999 -9999 -9999 -9999 742.803 742.8046 742.9828 743.1448 743.0721 742.6402 741.7838 740.994 740.3217 739.7218 739.1504 738.5584 738.1624 737.9196 737.7324 737.55 737.3552 737.1498 736.9535 736.7924 736.6137 736.4313 736.249 736.0696 735.8968 735.736 735.5956 735.4888 735.4291 735.3297 735.2278 735.1271 735.0294 734.9362 734.8486 734.7674 734.6936 734.6281 734.5713 734.5232 734.483 734.4503 734.4248 734.4059 734.3925 734.3842 734.3799 734.3777 734.3741 734.3678 734.359 734.3484 734.3342 734.3136 734.2851 734.2504 734.212 734.1729 734.1346 734.097 734.059 734.0212 733.9851 733.9536 733.9305 733.9186 733.9172 733.9183 733.9 733.8699 733.8343 733.7966 733.7582 733.7207 733.6854 733.6532 733.6244 733.5996 733.5787 733.5618 733.5487 733.5394 733.5335 733.5308 733.531 733.5337 733.5385 733.545 733.5531 733.5621 733.5722 733.5828 733.5934 733.6042 733.6149 733.6246 733.6335 733.6409 733.6461 733.6489 733.6495 733.6479 733.6438 733.6379 733.6317 733.6259 733.6204 733.6152 733.611 733.6089 733.6099 733.6151 733.6251 733.6399 733.6583 733.6792 733.7009 733.722 733.7427 733.7643 733.7897 733.8195 733.8557 733.9 733.9524 734.0142 734.0791 734.1454 734.2095 734.2684 734.323 734.3781 734.4417 734.5205 734.6182 734.7347 734.8651 734.9972 735.1161 735.218 735.3182 735.4307 735.555 735.6804 735.8204 735.9826 736.1723 736.3983 736.6584 736.9335 737.1256 737.2726 737.3058 737.3151 737.5314 738.1779 739.4453 741.4576 744.0171 747.0739 750.3618 753.3291 755.4958 756.8405 757.5919 -9999 -9999 -9999 -9999 -9999 -9999 -9999 -9999 -9999 -9999 -9999 -9999 -9999 -9999 -9999 -9999 -9999 -9999 -9999 -9999
-9999 -9999 -9999 -9999 -9999 -9999 -9999 -9999 -9999 -9999 -9999 -9999 -9999 -9999 -9999 -9999 742.7907 742.6741 742.6771 742.7319 742.6824 742.1999 741.5201 740.7976 740.1269 739.5421 739.0209 738.5392 738.1362 737.8407 737.6293 737.4546 737.2883 737.123 736.9517 736.7958 736.6519 736.4969 736.3337 736.1671 736.0013 735.8402 735.6882 735.5493 735.431 735.3718 735.2882 735.1923 735.0944 734.9994 734.9094 734.8253 734.748 734.6786 734.6179 734.5662 734.5234 734.4889 734.4618 734.4424 734.4301 734.4237 734.4227 734.426 734.4308 734.4337 734.433 734.4297 734.4241 734.4141 734.3961 734.3685 734.3335 734.2946 734.2548 734.2155 734.1749 734.1306 734.0823 734.0311 733.9817 733.9399 733.9117 733.9 733.8999 733.8668 733.8271 733.7864 733.7463 733.7076 733.6711 733.6375 733.6075 733.5814 733.5594 733.5414 733.5275 733.5175 733.511 733.5078 733.5077 733.5102 733.5151 733.5222 733.5309 733.541 733.5521 733.5638 733.5762 733.5885 733.6008 733.6129 733.6239 733.6338 733.6422 733.6484 733.652 733.6531 733.6516 733.6473 733.6411 733.6337 733.6264 733.6194 733.6128 733.6069 733.6025 733.6003 733.6016 733.6078 733.6194 733.6361 733.6564 733.6786 733.7003 733.7206 733.7405 733.7618 733.7875 733.8176 733.8549 733.9 733.9522 734.0118 734.0752 734.1395 734.2008 734.2571 734.3115 734.3711 734.4445 734.5363 734.6465 734.7706 734.8989 735.0178 735.1204 735.2152 735.3163 735.4305 735.5568 735.6934 735.842 736.0094 736.2185 736.4814 736.764 736.978 737.194 737.2355 737.1763 737.2244 737.6522 738.705 740.601 743.2476 746.1431 749.4625 752.7376 755.443 757.3205 758.3554 -9999 -9999 -9999 -9999 -9999 -9999 -9999 -9999 -9999 -9999 -9999 -9999 -9999 -9999 -9999 -9999 -9999 -9999 -9999 -9999
-9999 -9999 -9999 -9999 -9999 -9999 -9999 -9999 -9999 -9999 -9999 -9999 -9999 -9999 -9999 -9999 742.6797 742.5338 742.4489 742.2643 741.835 741.1125 740.5175 739.939 739.3975 738.9192 738.4901 738.1185 737.8142 737.5798 737.3959 737.2357 737.0836 736.9496 736.8093 736.6721 736.5365 736.3942 736.2452 736.0931 735.942 735.7955 735.6582 735.5343 735.4298 735.3463 735.2585 735.1647 735.0701 734.9788 734.8927 734.8125 734.7391 734.6738 734.6176 734.5708 734.5332 734.5039 734.4824 734.4689 734.4633 734.4641 734.4705 734.4812 734.4932 734.5028 734.5083 734.5109 734.5107 734.5052 734.4899 734.4633 734.4282 734.3893 734.35 734.3109 734.2686 734.2184 734.1589 734.0905 734.0188 733.9522 733.9 733.868 733.8468 733.814 733.7754 733.7359 733.6975 733.661 733.6271 733.5967 733.5702 733.5475 733.5288 733.5142 733.5035 733.4966 733.4928 733.4919 733.4939 733.4982 733.505 733.5138 733.5243 733.5361 733.5488 733.5621 733.5757 733.5893 733.6027 733.6155 733.6276 733.6383 733.6475 733.6543 733.6583 733.6598 733.6584 733.6542 733.6476 733.6393 733.6304 733.6218 733.6138 733.6064 733.6004 733.5958 733.5936 733.5956 733.6032 733.6167 733.6351 733.6567 733.6787 733.699 733.7175 733.7366 733.7578 733.7839 733.8156 733.8542 733.9 733.9517 734.0095 734.0715 734.1337 734.1921 734.2476 734.3058 734.3753 734.4621 734.5663 734.6837 734.8064 734.9238 735.027 735.1188 735.2106 735.3128 735.4305 735.5652 735.7058 735.8531 736.0374 736.2936 736.6119 736.9302 737.1295 737.1772 737.0874 737.0251 737.2602 738.0642 739.6379 742.0762 744.9485 748.2068 751.7062 754.8318 757.1588 758.5294 759.0212 -9999 -9999 -9999 -9999 -9999 -9999 -9999 -9999 -9999 -9999 -9999 -9999 -9999 -9999 -9999 -9999 -9999 -9999 -9999
-9999 -9999 -9999 -9999 -9999 -9999 -9999 -9999 -9999 -9999 -9999 -9999 -9999 -9999 -9999 -9999 742.4946 742.3378 742.1659 741.7534 741.0154 740.2579 739.7412 739.2814 738.8524 738.4803 738.14 737.8403 737.5924 737.3966 737.2381 737.0955 736.9528 736.8419 736.7172 736.5851 736.45 736.3114 736.1703 736.0293 735.8915 735.7599 735.6378 735.5276 735.4299 735.3365 735.2432 735.1492 735.0571 734.9697 734.8878 734.8116 734.7419 734.6804 734.6282 734.5858 734.5528 734.5284 734.5125 734.5054 734.5065 734.5148 734.5288 734.547 734.566 734.5823 734.5941 734.603 734.6089 734.608 734.5955 734.5699 734.5353 734.4972 734.4596 734.4222 734.38 734.3263 734.257 734.171 734.074 733.9781 733.8997 733.8408 733.8009 733.7672 733.7308 733.6948 733.6603 733.6267 733.5961 733.5697 733.5474 733.5284 733.5131 733.5018 733.4941 733.4895 733.4876 733.4883 733.4915 733.4969 733.5047 733.5146 733.5263 733.5393 733.553 733.5673 733.5818 733.5961 733.61 733.6233 733.6358 733.647 733.6564 733.6636 733.6681 733.6697 733.6684 733.6643 733.6576 733.6485 733.6382 733.6278 733.6181 733.6095 733.6023 733.5962 733.5916 733.5898 733.5927 733.6019 733.6171 733.6368 733.6581 733.6783 733.6959 733.7126 733.7307 733.7526 733.78 733.814 733.8541 733.9 733.9508 734.0074 734.0675 734.1266 734.1831 734.2413 734.3087 734.3916 734.4913 734.6031 734.7196 734.833 734.936 735.0261 735.1113 735.2021 735.307 735.431 735.5679 735.7009 735.8551 736.0822 736.3892 736.7184 736.9586 737.0735 737.0308 736.9271 737.0221 737.6057 738.8984 741.0475 743.7712 746.8835 750.4379 753.7726 756.3594 757.9757 758.7346 -9999 -9999 -9999 -9999 -9999 -9999 -9999 -9999 -9999 -9999 -9999 -9999 -9999 -9999 -9999 -9999 -9999 -9999 -9999
-9999 -9999 -9999 -9999 -9999 -9999 -9999 -9999 -9999 -9999 -9999 -9999 -9999 -9999 -9999 742.7192 742.1522 742.092 741.8585 741.1793 740.3441 739.7043 739.24 738.8608 738.5175 738.2252 737.9379 737.6764 737.4577 737.286 737.154 737.0475 736.9489 736.8181 736.6766 736.5323 736.3892 736.248 736.1099 735.9762 735.8491 735.7303 735.6212 735.5221 735.4299 735.3345 735.2391 735.146 735.0569 734.9733 734.8955 734.8232 734.7571 734.6988 734.65 734.6115 734.5828 734.5634 734.5532 734.5524 734.5609 734.5769 734.5986 734.6241 734.6501 734.6729 734.691 734.7062 734.7183 734.7225 734.7131 734.6887 734.6549 734.6185 734.5839 734.5502 734.511 734.4575 734.3823 734.2816 734.1592 734.0267 733.9014 733.8339 733.7817 733.7495 733.7112 733.6774 733.6471 733.6147 733.5862 733.5639 733.5458 733.5298 733.5168 733.5081 733.5026 733.4993 733.4979 733.4988 733.5019 733.5074 733.5154 733.5256 733.5376 733.551 733.5651 733.5796 733.5944 733.6086 733.6227 733.6361 733.6484 733.6595 733.6688 733.6761 733.6809 733.6826 733.6813 733.6771 733.6703 733.6609 733.6495 733.6375 733.6259 733.6158 733.6077 733.6009 733.5951 733.5906 733.5894 733.5938 733.6046 733.6208 733.6401 733.6593 733.676 733.6907 733.7058 733.7241 733.7476 733.7776 733.8138 733.8549 733.9 733.9497 734.0045 734.0609 734.1172 734.1753 734.2413 734.3217 734.4177 734.5251 734.6366 734.7449 734.8452 734.9352 735.0167 735.099 735.1915 735.3032 735.4308 735.5559 735.683 735.8716 736.151 736.4823 736.7794 736.9567 737.0001 736.9141 736.9313 737.3543 738.4312 740.3053 742.8787 745.8474 749.1648 752.4882 755.1955 756.9818 757.9229 -9999 -9999 -9999 -9999 -9999 -9999 -9999 -9999 -9999 -9999 -9999 -9999 -9999 -9999 -9999 -9999 -9999 -9999 -9999
-9999 -9999 -9999 -9999 -9999 -9999 -9999 -9999 -9999 -9999 -9999 -9999 -9999 -9999 -9999 742.2455 741.9718 741.9243 741.5115 740.8326 740.0455 739.4321 738.9784 738.6576 738.4447 738.1313 737.842 737.5908 737.3838 737.2233 737.1073 737.0248 736.9498 736.8153 736.6595 736.5005 736.3459 736.1991 736.0609 735.932 735.8132 735.7045 735.6059 735.5161 735.4299 735.3368 735.2432 735.1531 735.0685 734.9897 734.9163 734.8478 734.7847 734.7292 734.6833 734.648 734.6235 734.6092 734.6051 734.6113 734.6274 734.6516 734.6812 734.7138 734.7462 734.775 734.799 734.8201 734.8384 734.8481 734.8419 734.819 734.7867 734.7529 734.7225 734.6946 734.6618 734.6136 734.54 734.4336 734.2966 734.1458 734.0034 733.8994 733.8145 733.7855 733.7316 733.6974 733.6718 733.6345 733.6049 733.5865 733.5726 733.5566 733.5438 733.5362 733.5319 733.5281 733.5253 733.5247 733.5262 733.5305 733.5375 733.5469 733.5583 733.5713 733.5851 733.5991 733.6133 733.6271 733.6406 733.6534 733.665 733.6756 733.6844 733.6915 733.6962 733.698 733.6967 733.6927 733.6858 733.6762 733.6641 733.6507 733.6372 733.6254 733.6163 733.6092 733.6029 733.5972 733.593 733.593 733.5992 733.6112 733.6271 733.644 733.6592 733.672 733.6844 733.6991 733.7188 733.7451 733.7781 733.8159 733.8564 733.9 733.9476 733.9987 734.0516 734.1085 734.173 734.2505 734.3433 734.4473 734.5546 734.6587 734.755 734.8438 734.9257 735.0039 735.0876 735.1875 735.3078 735.4296 735.536 735.6909 735.9371 736.2705 736.6348 736.937 737.0078 736.9512 736.9344 737.2396 738.1271 739.7563 742.2003 744.8616 747.8516 751.0654 753.8514 755.8237 757.0126 -9999 -9999 -9999 -9999 -9999 -9999 -9999 -9999 -9999 -9999 -9999 -9999 -9999 -9999 -9999 -9999 -9999 -9999 -9999
-9999 -9999 -9999 -9999 -9999 -9999 -9999 -9999 -9999 -9999 -9999 -9999 -9999 -9999 -9999 741.9926 741.7484 741.5718 741.1478 740.503 739.8782 739.3192 738.8538 738.4968 738.2759 738.019 737.7654 737.5359 737.3406 737.1849 737.0718 736.9988 736.9487 736.8108 736.6461 736.4766 736.313 736.1606 736.0215 735.8958 735.7831 735.6821 735.5914 735.5093 735.4299 735.3419 735.2535 735.1694 735.0911 735.0182 734.9497 734.885 734.8247 734.7716 734.728 734.6958 734.6753 734.6663 734.6688 734.6827 734.7074 734.7401 734.7773 734.8163 734.8544 734.8883 734.9166 734.9425 734.9672 734.9835 734.9806 734.9597 734.9299 734.9 734.8749 734.854 734.8306 734.7936 734.7305 734.6289 734.4863 734.326 734.1693 734.0289 733.9074 733.8951 733.7988 733.7661 733.7493 733.6922 733.6574 733.6443 733.6346 733.6123 733.5958 733.5885 733.5845 733.5773 733.5706 733.5664 733.5645 733.5657 733.5706 733.5782 733.5883 733.5999 733.6123 733.625 733.6378 733.6505 733.6628 733.6744 733.6851 733.6948 733.7028 733.7092 733.7136 733.7155 733.7144 733.7103 733.7035 733.6937 733.6815 733.6674 733.6525 733.6389 733.6281 733.6201 733.6139 733.6079 733.6024 733.5994 733.6013 733.6089 733.6208 733.6346 733.6474 733.658 733.6678 733.6792 733.6952 733.7178 733.7478 733.783 733.8204 733.8593 733.9 733.9437 733.9902 734.0439 734.1058 734.1796 734.2681 734.3685 734.4729 734.5734 734.6662 734.7524 734.8359 734.9166 734.9978 735.0912 735.2061 735.3291 735.4324 735.562 735.7638 736.071 736.4458 736.7881 736.9525 736.9771 736.9686 737.1882 737.9138 739.3497 741.6247 743.8005 746.4183 749.5159 752.3856 754.5713 756.0302 -9999 -9999 -9999 -9999 -9999 -9999 -9999 -9999 -9999 -9999 -9999 -9999 -9999 -9999 -9999 -9999 -9999 -9999 -9999
-9999 -9999 -9999 -9999 -9999 -9999 -9999 -9999 -9999 -9999 -9999 -9999 -9999 -9999 -9999 741.735 741.5386 741.3325 740.9731 740.4641 739.8752 739.3192 738.8487 738.4762 738.1896 737.9318 737.6985 737.4915 737.3118 737.1611 737.0404 736.9504 736.902 736.7863 736.6276 736.4548 736.2861 736.1304 735.991 735.8683 735.7604 735.6648 735.5795 735.5026 735.4299 735.3497 735.27 735.1946 735.1241 735.0581 734.9951 734.9343 734.8767 734.8254 734.7837 734.7543 734.738 734.7349 734.7447 734.7672 734.801 734.8424 734.8868 734.9309 734.9736 735.0118 735.0416 735.0697 735.1006 735.1272 735.1276 735.1095 735.084 735.0599 735.0411 735.0277 735.0148 734.9932 734.9495 734.864 734.7212 734.5628 734.412 734.2744 734.1511 734.0562 733.9156 733.9006 733.8937 733.787 733.7492 733.7452 733.7407 733.6962 733.6718 733.6658 733.6621 733.6461 733.6324 733.6235 733.6158 733.6125 733.6141 733.619 733.6265 733.6357 733.646 733.6565 733.6672 733.678 733.6886 733.6987 733.708 733.7163 733.7234 733.7289 733.7328 733.7344 733.7335 733.7296 733.7226 733.7128 733.7006 733.6865 733.671 733.656 733.6433 733.6339 733.6273 733.6216 733.6163 733.6118 733.6106 733.6144 733.6224 733.6324 733.6422 733.6503 733.6573 733.666 733.6785 733.6976 733.7242 733.7571 733.7927 733.8284 733.864 733.9 733.9376 733.9867 734.0449 734.1136 734.1959 734.2913 734.3923 734.4902 734.58 734.6639 734.7482 734.8341 734.921 735.016 735.1345 735.2795 735.4266 735.5 735.6436 735.9051 736.269 736.655 736.9402 736.9951 736.992 737.1274 737.644 738.7229 740.4406 742.4183 744.8245 747.8858 750.8425 753.2203 754.9158 756.1201 -9999 -9999 -9999 -9999 -9999 -9999 -9999 -9999 -9999 -9999 -9999 -9999 -9999 -9999 -9999 -9999 -9999 -9999
-9999 -9999 -9999 -9999 -9999 -9999 -9999 -9999 -9999 -9999 -9999 -9999 -9999 -9999 -9999 741.5934 741.4328 741.2261 740.9104 740.4734 739.9038 739.3535 738.8723 738.4775 738.1487 737.8755 737.6485 737.459 737.2974 737.1597 737.0432 736.9505 736.9006 736.7797 736.6158 736.4386 736.2668 736.1101 735.9722 735.8527 735.7488 735.6567 735.5737 735.4983 735.4299 735.3613 735.2941 735.2292 735.1681 735.1094 735.0521 734.9955 734.9404 734.8903 734.8497 734.8229 734.8114 734.8149 734.8328 734.8644 734.9079 734.9579 735.0088 735.0553 735.1011 735.1441 735.1704 735.1953 735.2316 735.2773 735.2798 735.2665 735.2496 735.2347 735.2239 735.2173 735.2131 735.2068 735.1885 735.1313 734.9835 734.8384 734.7166 734.6101 734.5082 734.3949 734.2469 734.1544 734.0619 733.9171 733.9 733.901 733.8948 733.7993 733.7697 733.7688 733.7671 733.731 733.7086 733.6959 733.6792 733.6697 733.6676 733.668 733.6718 733.678 733.6849 733.6922 733.7001 733.7085 733.7172 733.7255 733.7333 733.74 733.7457 733.7502 733.7531 733.7544 733.7535 733.7498 733.7428 733.7329 733.7206 733.7068 733.6919 733.6767 733.6627 733.6514 733.6436 733.6381 733.6332 733.6288 733.626 733.6267 733.6315 733.6382 733.6447 733.6498 733.6544 733.6605 733.6705 733.6865 733.7097 733.74 733.7739 733.8081 733.8408 733.8713 733.9001 733.9438 733.996 734.0582 734.1328 734.2207 734.3168 734.412 734.4996 734.5812 734.6646 734.7554 734.8503 734.9503 735.0662 735.2061 735.3447 735.4317 735.5568 735.7772 736.1094 736.4944 736.8138 736.9509 736.9858 737.0601 737.3853 738.1312 739.3749 741.1545 743.4169 746.3436 749.2892 751.7791 753.6637 755.0485 -9999 -9999 -9999 -9999 -9999 -9999 -9999 -9999 -9999 -9999 -9999 -9999 -9999 -9999 -9999 -9999 -9999 -9999
-9999 -9999 -9999 -9999 -9999 -9999 -9999 -9999 -9999 -9999 -9999 -9999 -9999 -9999 -9999 741.6709 741.4827 741.2328 740.9 740.4711 739.9102 739.3696 738.8878 738.4763 738.1234 737.8431 737.6251 737.4524 737.3099 737.1879 737.0862 737.0073 736.9481 736.7932 736.6134 736.4307 736.2582 736.1036 735.9696 735.8549 735.7551 735.6656 735.5824 735.5037 735.4302 735.3818 735.3287 735.2744 735.2229 735.1711 735.1196 735.0679 735.0154 734.9655 734.9249 734.9006 734.8947 734.9058 734.9315 734.9725 735.0261 735.084 735.1411 735.1844 735.2303 735.2841 735.2999 735.313 735.3466 735.4271 735.4305 735.4303 735.4302 735.4302 735.4304 735.4306 735.431 735.4318 735.4323 735.4113 735.2402 735.129 735.0599 735.0065 734.9487 734.8507 734.6726 734.5293 734.4014 734.2581 734.1858 734.1316 734.0471 733.9113 733.8993 733.9002 733.8973 733.8212 733.7958 733.7856 733.7517 733.7355 733.7308 733.7241 733.7228 733.7255 733.7279 733.7305 733.7347 733.7406 733.7474 733.7538 733.7598 733.7649 733.769 733.7725 733.7744 733.7749 733.7738 733.7701 733.7635 733.7538 733.7416 733.728 733.7139 733.6995 733.6854 733.6729 733.6635 733.6573 733.6529 733.649 733.6459 733.6448 733.6469 733.6508 733.6544 733.657 733.6593 733.6635 733.6718 733.6854 733.7058 733.7332 733.7651 733.7988 733.8321 733.8654 733.9 733.9222 733.9626 734.0172 734.0839 734.1628 734.2521 734.3434 734.4291 734.5085 734.5895 734.6814 734.7833 734.8893 735.0043 735.1384 735.2881 735.4266 735.5079 735.6918 735.9907 736.3654 736.722 736.949 736.9957 737.0206 737.2083 737.7246 738.6871 740.2047 742.2781 744.912 747.7587 750.2928 752.3096 753.8616 -9999 -9999 -9999 -9999 -9999 -9999 -9999 -9999 -9999 -9999 -9999 -9999 -9999 -9999 -9999 -9999 -9999 -9999
-9999 -9999 -9999 -9999 -9999 -9999 -9999 -9999 -9999 -9999 -9999 -9999 -9999 -9999 -9999 742.0046 741.6887 741.3218 740.9027 740.4061 739.8753 739.3775 738.901 738.4707 738.1068 737.8328 737.6327 737.4817 737.3587 737.2498 737.1478 737.0499 736.9485 736.7912 736.6146 736.4352 736.2666 736.1176 735.9901 735.8817 735.787 735.7003 735.6187 735.5425 735.4764 735.4299 735.3781 735.3285 735.2872 735.2411 735.1954 735.1498 735.1011 735.0499 735.0081 734.986 734.9871 735.0073 735.0395 735.0883 735.1527 735.2152 735.2816 735.3101 735.3467 735.4272 735.4304 735.4297 735.4341 735.5249 735.5771 735.6106 735.6359 735.6563 735.673 735.6854 735.6908 735.6873 735.6676 735.6034 735.4556 735.4299 735.4299 735.4337 735.4274 735.3607 735.1268 734.973 734.8495 734.6814 734.5667 734.4711 734.3369 734.1897 734.1151 734.0645 734.0037 733.9052 733.9001 733.8979 733.828 733.8093 733.8064 733.7855 733.778 733.7775 733.7733 733.7693 733.7692 733.7727 733.7776 733.7825 733.7867 733.7902 733.7928 733.7947 733.7958 733.7956 733.7939 733.7903 733.7842 733.7749 733.7629 733.7495 733.7362 733.7233 733.7104 733.6979 733.6874 733.6801 733.6754 733.6719 733.6692 733.6672 733.6672 733.6688 733.6704 733.6713 733.672 733.6747 733.682 733.6944 733.7126 733.7371 733.7664 733.7982 733.8298 733.8594 733.8843 733.9 733.9399 733.9913 734.0519 734.1226 734.2037 734.2898 734.3727 734.4502 734.5281 734.6179 734.7225 734.8334 734.9471 735.0713 735.2067 735.335 735.4336 735.6305 735.9111 736.2687 736.6458 736.9404 736.9984 737.007 737.1093 737.4701 738.2325 739.443 741.2439 743.5946 746.3043 748.8511 750.964 752.637 -9999 -9999 -9999 -9999 -9999 -9999 -9999 -9999 -9999 -9999 -9999 -9999 -9999 -9999 -9999 -9999 -9999 -9999
-9999 -9999 -9999 -9999 -9999 -9999 -9999 -9999 -9999 -9999 -9999 -9999 -9999 -9999 -9999 742.5486 741.9756 741.4398 740.9042 740.23 739.8378 739.4387 738.9623 738.4786 738.1178 737.8643 737.6898 737.5608 737.4564 737.3584 737.2504 737.1176 736.9554 736.8144 736.6468 736.4698 736.3044 736.1622 736.0424 735.9409 735.8513 735.7666 735.6842 735.6057 735.5361 735.4801 735.4299 735.3829 735.3574 735.314 735.275 735.2394 735.198 735.1423 735.0969 735.0775 735.0885 735.1218 735.1555 735.2072 735.2847 735.3384 735.4268 735.4301 735.434 735.5243 735.5713 735.5973 735.6273 735.6996 735.7645 735.8182 735.8644 735.9053 735.9425 735.972 735.9838 735.9772 735.9514 735.896 735.8184 735.8099 735.8368 735.8715 735.8807 735.7966 735.5483 735.4437 735.3533 735.1262 734.9972 734.8944 734.7095 734.5231 734.3951 734.2994 734.2114 734.1206 734.0676 734.0049 733.9048 733.8999 733.8989 733.8467 733.8356 733.8348 733.8195 733.806 733.8019 733.8037 733.807 733.8104 733.8133 733.8152 733.8164 733.8169 733.8168 733.8159 733.8137 733.8098 733.8038 733.7952 733.7841 733.7712 733.7587 733.7472 733.7363 733.7252 733.7148 733.7066 733.7013 733.6976 733.6951 733.6929 733.6913 733.6908 733.6907 733.6907 733.691 733.6935 733.7003 733.7122 733.7291 733.7512 733.7772 733.8059 733.8349 733.8623 733.8854 733.9 733.9359 733.983 734.0382 734.1018 734.175 734.2551 734.3348 734.4103 734.4853 734.5707 734.6741 734.7877 734.9022 735.0208 735.15 735.2866 735.4293 735.6168 735.8679 736.1871 736.5366 736.8263 736.951 737.0024 737.0527 737.2687 737.8041 738.765 740.316 742.4443 745.0302 747.5945 749.8018 751.5355 752.9592 -9999 -9999 -9999 -9999 -9999 -9999 -9999 -9999 -9999 -9999 -9999 -9999 -9999 -9999 -9999 -9999 -9999
-9999 -9999 -9999 -9999 -9999 -9999 -9999 -9999 -9999 -9999 -9999 -9999 -9999 -9999 -9999 742.9567 742.1293 741.5145 740.9731 740.4329 740.0596 739.6979 739.1716 738.5876 738.2228 737.9793 737.8265 737.709 737.6194 737.5374 737.4366 737.2969 737.1262 736.9506 736.7555 736.5599 736.3873 736.2498 736.1357 736.0404 735.9551 735.8695 735.7814 735.6936 735.6111 735.5391 735.4777 735.4303 735.4295 735.3807 735.3533 735.334 735.3073 735.24 735.1899 735.1742 735.1989 735.2569 735.2815 735.3237 735.4249 735.4352 735.5283 735.5776 735.6199 735.6993 735.7655 735.8173 735.8705 735.9396 736.0024 736.058 736.1117 736.1674 736.2278 736.2834 736.3037 736.2982 736.2778 736.2444 736.2095 736.2125 736.2483 736.3024 736.3539 736.344 736.1432 735.9827 735.8079 735.5379 735.4417 735.3602 735.1014 734.865 734.709 734.5875 734.49 734.4012 734.3166 734.2199 734.1119 734.0463 733.9836 733.9019 733.8999 733.8997 733.8639 733.8379 733.8319 733.8339 733.8353 733.837 733.8386 733.8393 733.839 733.838 733.8368 733.8355 733.8329 733.8284 733.8221 733.8142 733.8045 733.7931 733.7816 733.7713 733.7623 733.7535 733.7446 733.7365 733.7303 733.7261 733.7233 733.7208 733.7183 733.7159 733.7143 733.7137 733.7147 733.7179 733.7251 733.7372 733.7537 733.7736 733.7964 733.8212 733.8464 733.873 733.9 733.9156 733.9465 733.9894 734.0406 734.0991 734.166 734.2405 734.3172 734.391 734.464 734.5452 734.644 734.7581 734.8755 734.9933 735.1217 735.2666 735.4297 735.6169 735.8462 736.131 736.4524 736.7511 736.9496 737.0337 737.048 737.1437 737.4995 738.2686 739.5463 741.4746 744.0175 746.6761 749.0023 750.7294 752.1277 -9999 -9999 -9999 -9999 -9999 -9999 -9999 -9999 -9999 -9999 -9999 -9999 -9999 -9999 -9999 -9999 -9999
-9999 -9999 -9999 -9999 -9999 -9999 -9999 -9999 -9999 -9999 -9999 -9999 -9999 -9999 -9999 742.915 742.1161 741.5181 741.0217 740.649 740.4485 740.1361 739.5734 738.9672 738.506 738.2189 738.0728 737.9368 737.8527 737.7933 737.7119 737.5719 737.397 737.1942 736.9539 736.7188 736.5262 736.3932 736.2791 736.1873 736.1054 736.0148 735.9155 735.8114 735.7102 735.6204 735.5479 735.4968 735.4709 735.4305 735.4299 735.4302 735.4277 735.3382 735.2917 735.2816 735.317 735.4234 735.4305 735.4409 735.559 735.6281 735.7123 735.7823 735.8513 735.9346 736.0096 736.0782 736.1528 736.2338 736.2878 736.3289 736.3724 736.4296 736.5115 736.6093 736.6351 736.6309 736.6188 736.6049 736.5927 736.5976 736.6246 736.6747 736.759 736.8687 736.6714 736.519 736.3587 736.1075 735.9323 735.7366 735.4428 735.181 735.0374 734.8994 734.8063 734.7266 734.6237 734.5047 734.3737 734.2552 734.145 734.046 733.995 733.9537 733.9001 733.8641 733.8618 733.8652 733.8622 733.8615 733.8621 733.862 733.8599 733.8575 733.8556 733.8537 733.8509 733.8459 733.8394 733.8317 733.8234 733.8143 733.8048 733.796 733.7886 733.7821 733.7755 733.7684 733.7617 733.7568 733.7534 733.7504 733.7472 733.7437 733.7406 733.7391 733.7408 733.746 733.7548 733.7675 733.7838 733.8024 733.8219 733.842 733.8604 733.881 733.9 733.9271 733.9625 734.006 734.0559 734.1117 734.1746 734.2446 734.3188 734.3922 734.4645 734.5433 734.6377 734.7491 734.8689 734.9889 735.1161 735.2621 735.4299 735.6201 735.8394 736.1014 736.4033 736.7073 736.9507 737.0775 737.0807 737.087 737.2887 737.8638 738.9652 740.8257 743.3491 746.0892 748.4699 750.0452 751.3932 -9999 -9999 -9999 -9999 -9999 -9999 -9999 -9999 -9999 -9999 -9999 -9999 -9999 -9999 -9999 -9999 -9999
-9999 -9999 -9999 -9999 -9999 -9999 -9999 -9999 -9999 -9999 -9999 -9999 -9999 -9999 -9999 -9999 741.9615 741.4409 741.0059 740.6216 740.4468 740.4202 739.9169 739.3715 738.9122 738.5696 738.4301 738.2294 738.1454 738.1157 738.061 737.9105 737.7415 737.5361 737.257 736.9584 736.7286 736.6083 736.478 736.3865 736.31 736.2077 736.0912 735.9643 735.8391 735.7293 735.6444 735.5873 735.5544 735.5311 735.5316 735.5311 735.5092 735.4349 735.4296 735.4295 735.4441 735.5776 735.6561 735.7201 735.8223 735.8994 735.9681 736.0377 736.1202 736.2156 736.2904 736.3617 736.4557 736.5702 736.6118 736.6273 736.6459 736.6836 736.768 736.927 736.95 736.9497 736.9484 736.9475 736.9467 736.9462 736.947 736.95 736.9656 737.0488 736.9696 736.9437 736.8757 736.623 736.4227 736.1541 735.8309 735.5056 735.3878 735.205 735.1283 735.0736 734.9523 734.8207 734.6633 734.5017 734.3511 734.2219 734.124 734.0404 733.9606 733.9004 733.9 733.9 733.8854 733.8826 733.8829 733.8828 733.8781 733.8745 733.8724 733.8706 733.8677 733.8622 733.8554 733.8482 733.8409 733.8344 733.8279 733.8213 733.8155 733.8111 733.8068 733.8013 733.7942 733.7881 733.7841 733.7807 733.7771 733.7729 733.7689 733.7668 733.7688 733.7758 733.7869 733.801 733.8171 733.8348 733.8513 733.869 733.8793 733.9 733.9207 733.9498 733.9874 734.0323 734.0825 734.1375 734.198 734.2653 734.3375 734.4113 734.4849 734.5634 734.6552 734.764 734.8831 735.005 735.1299 735.2684 735.4301 735.6246 735.8439 736.095 736.3823 736.6855 736.9517 737.1213 737.1368 737.0989 737.2037 737.6613 738.6718 740.4569 742.8898 745.6897 748.101 749.4728 750.7091 751.8277 -9999 -9999 -9999 -9999 -9999 -9999 -9999 -9999 -9999 -9999 -9999 -9999 -9999 -9999 -9999 -9999
-9999 -9999 -9999 -9999 -9999 -9999 -9999 -9999 -9999 -9999 -9999 -9999 -9999 -9999 -9999 -9999 741.661 741.2566 740.896 740.3525 740.0558 740.1231 739.9887 739.7035 739.3876 739.0956 738.8248 738.5562 738.4865 738.4758 738.4408 738.2523 738.1195 737.9562 737.6498 737.2999 737.0067 736.9125 736.7288 736.6402 736.5779 736.4491 736.3125 736.156 736.0012 735.8698 735.7717 735.71 735.6792 735.6687 735.6763 735.6865 735.6845 735.6667 735.6792 735.7048 735.7557 735.8699 735.9716 736.0668 736.1683 736.2311 736.2734 736.3264 736.4165 736.5395 736.6014 736.6508 736.7447 736.9188 736.9482 736.9502 736.9516 736.9532 736.9808 737.1354 737.2104 737.2393 737.2504 737.2543 737.2537 737.2483 737.2405 737.2355 737.245 737.282 737.2656 737.2493 737.177 736.994 736.8811 736.5989 736.3097 735.9613 735.6979 735.4632 735.4252 735.405 735.2495 735.1324 734.9548 734.7585 734.5748 734.417 734.2834 734.1656 734.062 733.984 733.9474 733.9233 733.9 733.9 733.9 733.9 733.8921 733.8884 733.8871 733.8862 733.8842 733.8768 733.8704 733.8644 733.8586 733.8541 733.8505 733.8468 733.8431 733.8406 733.8385 733.8346 733.8263 733.8187 733.814 733.8108 733.8073 733.8032 733.799 733.7966 733.7984 733.806 733.8191 733.8352 733.8506 733.8684 733.8799 733.9 733.9001 733.9235 733.9507 733.9835 734.0229 734.0689 734.1201 734.1752 734.2347 734.3 734.3708 734.4451 734.5211 734.6015 734.6934 734.8007 734.9194 735.0411 735.1633 735.2888 735.4297 735.6307 735.8583 736.1063 736.3817 736.6764 736.9526 737.1561 737.2004 737.1594 737.2218 737.6113 738.5474 740.2283 742.5856 745.4425 748.0109 749.5707 750.6559 751.4096 -9999 -9999 -9999 -9999 -9999 -9999 -9999 -9999 -9999 -9999 -9999 -9999 -9999 -9999 -9999 -9999
-9999 -9999 -9999 -9999 -9999 -9999 -9999 -9999 -9999 -9999 -9999 -9999 -9999 -9999 -9999 -9999 -9999 741.0458 740.6956 740.079 739.9 740.0069 740.0917 740.0839 739.9031 739.6252 739.3508 739.0992 738.9406 738.8198 738.6892 738.5106 738.4757 738.4063 738.0879 737.7312 737.4489 737.2577 737.0188 736.9563 736.9149 736.7279 736.5822 736.3878 736.1975 736.045 735.9343 735.8694 735.8438 735.8456 735.8671 735.899 735.9321 735.9636 736.0015 736.0499 736.1246 736.2338 736.3309 736.4342 736.5522 736.5933 736.6041 736.6309 736.724 736.912 736.9556 736.9595 736.9899 737.1544 737.2438 737.2987 737.3436 737.3607 737.3848 737.4673 737.5276 737.5592 737.573 737.577 737.5753 737.5681 737.5601 737.5571 737.5649 737.5809 737.579 737.5654 737.5115 737.3962 737.2546 737.0081 736.8205 736.4427 736.0943 735.8295 735.6931 735.5904 735.4451 735.4087 735.2192 735.0009 734.798 734.6254 734.4681 734.3217 734.1912 734.0868 734.0156 733.9664 733.9324 733.9186 733.9117 733.907 733.9 733.9 733.9 733.9 733.9 733.8895 733.8843 733.8809 733.8777 733.8752 733.8738 733.8726 733.8712 733.8704 733.8701 733.868 733.8566 733.8477 733.8428 733.84 733.8375 733.8343 733.8305 733.8284 733.8298 733.8364 733.8498 733.8684 733.8798 733.9 733.9001 733.9215 733.937 733.9629 733.9938 734.0292 734.0701 734.1165 734.1685 734.2244 734.2839 734.3477 734.4169 734.4911 734.5693 734.6531 734.7467 734.8545 734.9734 735.0969 735.2192 735.3351 735.4354 735.6475 735.8835 736.1307 736.3946 736.6764 736.9526 737.1841 737.2686 737.2488 737.3021 737.6462 738.4977 740.0425 742.285 745.1544 747.8882 749.7037 750.7261 751.1177 -9999 -9999 -9999 -9999 -9999 -9999 -9999 -9999 -9999 -9999 -9999 -9999 -9999 -9999 -9999 -9999
-9999 -9999 -9999 -9999 -9999 -9999 -9999 -9999 -9999 -9999 -9999 -9999 -9999 -9999 -9999 -9999 -9999 741.0916 740.7965 740.0709 739.9973 740.3757 740.7599 740.7537 740.5456 740.2346 739.9725 739.7079 739.4531 739.2158 739.0156 738.8591 738.7875 738.6926 738.4596 738.1556 737.9494 737.7775 737.5411 737.3979 737.2586 737.0201 736.9081 736.6588 736.4277 736.2616 736.1376 736.069 736.0491 736.0617 736.0974 736.1517 736.2205 736.2939 736.3482 736.4039 736.4879 736.6044 736.6722 736.7581 736.9202 736.946 736.9465 736.9581 737.0333 737.2798 737.3933 737.4159 737.4318 737.512 737.5954 737.698 737.8205 737.866 737.8807 737.9102 737.937 737.9539 737.9618 737.9631 737.9609 737.9561 737.9509 737.9509 737.9569 737.9638 737.9631 737.9591 737.9404 737.8826 737.7376 737.4916 737.2509 736.9206 736.5546 736.2659 736.0372 735.8583 735.6947 735.588 735.4241 735.2134 735.0123 734.8486 734.6776 734.5035 734.342 734.2065 734.1033 734.0287 733.9781 733.949 733.9326 733.923 733.9164 733.9147 733.9141 733.9128 733.9093 733.9 733.9 733.9 733.9 733.9 733.9 733.9 733.9 733.9 733.9 733.9 733.8823 733.8741 733.8707 733.869 733.8679 733.8662 733.8638 733.8624 733.863 733.867 733.8773 733.9 733.9001 733.9214 733.9363 733.9596 733.9839 734.0139 734.0482 734.0863 734.1287 734.1755 734.2272 734.2836 734.3438 734.4069 734.4744 734.5476 734.627 734.7134 734.8094 734.918 735.0372 735.1619 735.2912 735.427 735.5244 735.7047 735.9269 736.1647 736.4156 736.6818 736.9524 737.2012 737.3317 737.3555 737.4182 737.7253 738.4798 739.8666 741.9484 744.7573 747.5619 749.5718 750.4609 750.7544 -9999 -9999 -9999 -9999 -9999 -9999 -9999 -9999 -9999 -9999 -9999 -9999 -9999 -9999 -9999 -9999
-9999 -9999 -9999 -9999 -9999 -9999 -9999 -9999 -9999 -9999 -9999 -9999 -9999 -9999 -9999 -9999 -9999 -9999 740.7659 740.0544 740.0488 740.7724 741.4008 741.6141 741.2529 740.9203 740.6931 740.3625 739.9896 739.6439 739.4001 739.2485 739.1353 739.0132 738.816 738.5628 738.4632 738.3607 738.099 737.9298 737.7661 737.5043 737.2725 736.9649 736.6976 736.5356 736.3875 736.3124 736.2974 736.3156 736.3563 736.4213 736.516 736.6292 736.6772 736.714 736.7846 736.9283 736.9467 736.9686 737.1265 737.2222 737.3009 737.4095 737.5723 737.8194 737.9308 737.9463 737.9376 737.9537 738.005 738.1376 738.3689 738.4458 738.4587 738.4601 738.4593 738.4573 738.455 738.4544 738.4557 738.4594 738.4628 738.4646 738.4637 738.4604 738.4605 738.4773 738.5208 738.5512 738.4065 738.1105 737.8425 737.5459 737.1844 736.8787 736.5452 736.278 736.0275 735.8243 735.624 735.4227 735.2261 735.1006 734.9154 734.7089 734.5126 734.344 734.2101 734.1106 734.0414 733.9972 733.9706 733.9547 733.9454 733.9408 733.938 733.9352 733.9312 733.9259 733.9255 733.9266 733.9283 733.9301 733.9314 733.9322 733.9322 733.9307 733.9268 733.9182 733.9001 733.9 733.9 733.9 733.9 733.9 733.9 733.9 733.9 733.9 733.9001 733.9227 733.9373 733.9597 733.9833 734.0111 734.0411 734.0747 734.1121 734.1526 734.1967 734.2441 734.2955 734.3516 734.4122 734.4755 734.5416 734.6129 734.6915 734.7792 734.8767 734.9846 735.0999 735.2157 735.3253 735.4302 735.5624 735.7469 735.9663 736.1989 736.4384 736.6895 736.9518 737.213 737.3891 737.4709 737.5607 737.8348 738.4803 739.7004 741.601 744.2261 746.9055 748.8903 749.781 750.0293 -9999 -9999 -9999 -9999 -9999 -9999 -9999 -9999 -9999 -9999 -9999 -9999 -9999 -9999 -9999 -9999
-9999 -9999 -9999 -9999 -9999 -9999 -9999 -9999 -9999 -9999 -9999 -9999 -9999 -9999 -9999 -9999 -9999 -9999 -9999 740.0398 740.0577 740.9266 741.8012 742.0714 741.9488 741.8185 741.5897 741.0455 740.5311 740.0952 739.8573 739.744 739.5884 739.4556 739.3032 739.1007 738.9366 738.7894 738.5872 738.4907 738.3622 738.0513 737.7609 737.3969 737.0565 736.8993 736.6849 736.6017 736.5926 736.6083 736.6366 736.6857 736.7767 736.931 736.9477 736.9465 736.9578 737.0851 737.1713 737.2659 737.4195 737.5464 737.6898 737.8918 738.1018 738.3797 738.4537 738.4556 738.4485 738.4537 738.4869 738.6126 738.8904 739.0656 739.1342 739.1457 739.1304 739.1067 739.0861 739.0833 739.1008 739.1305 739.1551 739.1597 739.1351 739.095 739.0876 739.1548 739.3216 739.5127 739.3206 738.9907 738.7657 738.5519 738.2448 737.8029 737.3271 736.9564 736.5486 736.2156 735.9262 735.6742 735.4605 735.3953 735.176 734.9317 734.7009 734.5006 734.3384 734.2152 734.1274 734.069 734.0317 734.0084 733.9937 733.9845 733.9783 733.9733 733.9685 733.9642 733.9631 733.9637 733.9655 733.9677 733.9696 733.9708 733.9702 733.967 733.9605 733.9501 733.9374 733.9343 733.9341 733.9349 733.9363 733.9382 733.9403 733.9424 733.9438 733.9456 733.9501 733.9677 733.9874 734.0123 734.0406 734.0728 734.1077 734.1444 734.184 734.2264 734.272 734.3201 734.3711 734.4264 734.4868 734.5503 734.6158 734.6849 734.7617 734.8481 734.9452 735.0511 735.1621 735.2698 735.3629 735.4318 735.5819 735.7764 735.998 736.2283 736.4595 736.6979 736.9512 737.2195 737.4406 737.5912 737.7286 737.9777 738.488 739.5003 741.122 743.4605 745.8812 747.7438 748.6524 748.9474 -9999 -9999 -9999 -9999 -9999 -9999 -9999 -9999 -9999 -9999 -9999 -9999 -9999 -9999 -9999 -9999
-9999 -9999 -9999 -9999 -9999 -9999 -9999 -9999 -9999 -9999 -9999 -9999 -9999 -9999 -9999 -9999 -9999 -9999 -9999 -9999 740.0788 740.9359 741.8706 742.204 742.2122 742.1148 741.9015 741.509 741.08 740.6676 740.5084 740.4642 740.2018 740.0259 739.8865 739.6503 739.4 739.2649 739.2089 739.1058 738.9119 738.5999 738.3522 737.9702 737.6322 737.3192 737.0139 736.9415 736.9393 736.9438 736.9454 736.947 736.9637 737.0735 737.113 737.1307 737.1805 737.3207 737.4824 737.6779 737.8801 737.9939 738.1348 738.3761 738.5028 738.6821 738.7646 738.8087 738.8851 739.0186 739.1901 739.4449 739.7675 740.0312 740.1656 740.2096 740.1961 740.1567 740.1126 740.1064 740.1455 740.2112 740.2566 740.2545 740.1755 740.0436 739.973 740.0333 740.2662 740.5959 740.5519 740.3929 740.2226 740.0173 739.6867 739.1415 738.5899 738.0298 737.3616 736.8626 736.4406 736.1077 735.8381 735.6522 735.4223 735.1613 734.9068 734.6799 734.4919 734.3469 734.2419 734.17 734.1221 734.0899 734.0676 734.0517 734.0399 734.0307 734.0233 734.0176 734.0144 734.0132 734.0135 734.0147 734.0162 734.017 734.0157 734.0116 734.004 733.9937 733.983 733.9775 733.9756 733.9762 733.9786 733.9825 733.9871 733.9919 733.9966 734.0023 734.0112 734.0276 734.0491 734.0758 734.1067 734.1419 734.1805 734.2206 734.2625 734.3068 734.3534 734.4019 734.4523 734.5063 734.5654 734.6283 734.6931 734.7606 734.8344 734.9181 735.0125 735.1151 735.2214 735.3274 735.4289 735.4908 735.6186 735.8049 736.0259 736.2554 736.4803 736.7073 736.9506 737.2209 737.4824 737.7081 737.9205 738.1781 738.5344 739.3224 740.6226 742.5483 744.6104 746.3 747.2403 747.6357 -9999 -9999 -9999 -9999 -9999 -9999 -9999 -9999 -9999 -9999 -9999 -9999 -9999 -9999 -9999 -9999
-9999 -9999 -9999 -9999 -9999 -9999 -9999 -9999 -9999 -9999 -9999 -9999 -9999 -9999 -9999 -9999 -9999 -9999 -9999 -9999 -9999 741.0375 741.8427 742.1343 742.1715 742.1234 742.0181 741.9066 741.8671 741.8196 741.7047 741.5224 741.0809 740.7093 740.4988 740.1016 739.7778 739.6866 739.8209 739.7645 739.563 739.2737 738.9528 738.5735 738.2823 737.8695 737.5117 737.3589 737.3219 737.3165 737.3054 737.2905 737.2881 737.3282 737.3536 737.3903 737.4949 737.7096 737.9714 738.319 738.6559 738.6933 738.7201 738.8774 738.9739 739.0813 739.1586 739.2616 739.4822 739.8442 740.2398 740.6988 741.1436 741.5498 741.8008 741.9188 741.9288 741.8771 741.7921 741.7761 741.8421 741.9542 742.0135 741.9858 741.8036 741.4817 741.2659 741.2669 741.5308 741.9381 742.1495 742.1631 742.0085 741.8181 741.5101 740.9008 740.1974 739.3918 738.5717 737.8597 737.2458 736.7771 736.3647 736.0165 735.7043 735.4196 735.142 734.8891 734.6763 734.5102 734.3893 734.3054 734.247 734.2045 734.1721 734.1465 734.1263 734.1104 734.0978 734.0881 734.0812 734.0764 734.0739 734.0728 734.0725 734.072 734.0697 734.0649 734.057 734.0469 734.0364 734.029 734.0253 734.0251 734.0282 734.0338 734.0411 734.0493 734.0577 734.0673 734.0798 734.0971 734.1193 734.1472 734.1797 734.2166 734.2577 734.301 734.3452 734.3912 734.4391 734.488 734.5377 734.59 734.6465 734.7074 734.7706 734.8359 734.9067 734.9865 735.076 735.1719 735.2673 735.3544 735.4301 735.5154 735.6462 735.8295 736.0511 736.283 736.5053 736.7206 736.9498 737.2188 737.5081 737.798 738.0978 738.431 738.6742 739.2321 740.2226 741.7231 743.4435 744.9434 745.917 746.4257 -9999 -9999 -9999 -9999 -9999 -9999 -9999 -9999 -9999 -9999 -9999 -9999 -9999 -9999 -9999 -9999
-9999 -9999 -9999 -9999 -9999 -9999 -9999 -9999 -9999 -9999 -9999 -9999 -9999 -9999 -9999 -9999 -9999 -9999 -9999 -9999 -9999 -9999 741.819 741.9985 742.0005 741.9983 741.9998 742.1387 742.5106 742.7385 742.577 742.2949 741.8901 741.4366 740.9365 740.5509 740.145 739.9973 740.1868 740.4468 740.3347 740.0669 739.6641 739.2324 738.8419 738.4228 738.0331 737.8585 737.8241 737.8318 737.8157 737.7916 737.7753 737.7725 737.7717 737.8124 737.9738 738.3201 738.7116 739.2929 739.9737 739.9281 739.8323 739.8048 739.77 739.792 739.8549 740.0284 740.436 741.0834 741.8282 742.5455 743.154 743.6511 744.015 744.2351 744.3287 744.291 744.183 744.1467 744.209 744.2994 744.3168 744.211 743.9446 743.4943 743.1293 743.0067 743.1381 743.4233 743.6831 743.8809 743.9027 743.7482 743.4245 742.7923 741.9265 740.9463 740.0493 739.2198 738.4523 737.7551 737.1121 736.5468 736.0883 735.7218 735.4179 735.1351 734.8947 734.707 734.5716 734.4781 734.4097 734.3552 734.3097 734.2714 734.2397 734.2142 734.1936 734.1776 734.1649 734.155 734.1479 734.1428 734.1391 734.136 734.1323 734.1266 734.1182 734.1079 734.0972 734.0885 734.0831 734.082 734.0853 734.0923 734.1021 734.1134 734.1255 734.1385 734.1541 734.1729 734.1957 734.2241 734.2577 734.2954 734.3375 734.3829 734.4296 734.4773 734.5266 734.5762 734.6252 734.6754 734.7288 734.7862 734.8463 734.9087 734.9756 735.0509 735.1348 735.2235 735.3099 735.3822 735.4305 735.5293 735.6691 735.8544 736.0786 736.3169 736.5422 736.7467 736.9493 737.2191 737.5192 737.8306 738.1489 738.4701 738.7397 739.1989 739.9802 741.1385 742.6079 744.0161 745.0654 745.7177 -9999 -9999 -9999 -9999 -9999 -9999 -9999 -9999 -9999 -9999 -9999 -9999 -9999 -9999 -9999 -9999
-9999 -9999 -9999 -9999 -9999 -9999 -9999 -9999 -9999 -9999 -9999 -9999 -9999 -9999 -9999 -9999 -9999 -9999 -9999 -9999 -9999 -9999 -9999 -9999 741.9039 741.8734 741.9228 742.157 742.8158 743.0385 742.9905 742.7673 742.4726 742.1796 741.909 741.5513 740.9577 740.5861 740.9888 741.4919 741.475 741.0897 740.5063 739.962 739.472 739.0131 738.6064 738.4827 738.5154 738.5835 738.5614 738.5217 738.4954 738.4705 738.4406 738.4714 738.6699 739.158 739.816 740.6384 741.4316 741.4463 741.4024 741.2946 741.0861 740.9192 740.9872 741.3347 742.0457 742.9906 743.9941 744.8617 745.5431 746.0516 746.4489 746.7087 746.8102 746.7248 746.5269 746.4044 746.4221 746.4217 746.3654 746.1951 745.9443 745.4467 744.9832 744.7338 744.699 744.7092 744.6786 745.0509 745.3035 745.1458 744.7323 744.1373 743.4363 742.5306 741.6321 740.7633 739.884 739.0018 738.124 737.3057 736.6388 736.1288 735.7435 735.4213 735.1461 734.9338 734.7852 734.6868 734.6095 734.5411 734.4796 734.4256 734.3796 734.3419 734.3112 734.2864 734.266 734.2494 734.2358 734.2249 734.2163 734.2095 734.2029 734.1957 734.1866 734.1761 734.1652 734.1556 734.149 734.147 734.15 734.1577 734.1691 734.183 734.1982 734.2146 734.2328 734.2531 734.2766 734.3048 734.3386 734.3768 734.4192 734.4655 734.514 734.5631 734.6132 734.6632 734.7122 734.7605 734.8107 734.8639 734.9194 734.9774 735.0397 735.1094 735.1868 735.269 735.3519 735.4296 735.4709 735.5579 735.6947 735.8815 736.1107 736.3604 736.601 736.8081 736.9658 737.2497 737.5496 737.856 738.1671 738.4774 738.8215 739.2598 739.9086 740.8664 742.2503 743.6684 744.835 745.5809 -9999 -9999 -9999 -9999 -9999 -9999 -9999 -9999 -9999 -9999 -9999 -9999 -9999 -9999 -9999 -9999
-9999 -9999 -9999 -9999 -9999 -9999 -9999 -9999 -9999 -9999 -9999 -9999 -9999 -9999 -9999 -9999 -9999 -9999 -9999 -9999 -9999 -9999 -9999 -9999 -9999 -9999 742.1064 742.3395 742.7579 743.0009 743.074 742.9976 742.8774 742.8943 742.8123 742.5308 741.9645 741.6312 742.0652 742.6411 742.7253 742.3196 741.4751 740.808 740.2429 739.7874 739.3934 739.3131 739.4717 739.6843 739.6333 739.5547 739.5121 739.4717 739.4048 739.4677 739.7758 740.3701 741.2173 742.1771 743.0465 743.4935 743.707 743.6508 743.3113 742.9679 742.9614 743.4041 744.2854 745.4057 746.5054 747.3448 747.9324 748.3436 748.6595 748.8091 748.7786 748.5246 748.0602 747.6979 747.6383 747.5275 747.4314 747.2389 747.2484 746.8404 746.3652 746.1096 746.0099 745.8223 745.5783 745.8195 745.9193 745.8614 745.4092 744.8433 744.2504 743.6963 743.1273 742.3536 741.4113 740.4573 739.4955 738.452 737.4426 736.6974 736.1736 735.7488 735.4232 735.1796 735.0182 734.9252 734.84 734.7554 734.6755 734.6041 734.5427 734.4913 734.4487 734.4135 734.3839 734.3588 734.3372 734.3188 734.3037 734.2915 734.2811 734.2714 734.2612 734.2503 734.2391 734.2292 734.2222 734.2194 734.2218 734.2294 734.2416 734.2571 734.2747 734.2936 734.3141 734.3358 734.36 734.3882 734.4213 734.4591 734.5012 734.5477 734.597 734.6472 734.6974 734.7474 734.7959 734.8429 734.8904 734.9392 734.9896 735.0419 735.0984 735.1611 735.2298 735.3005 735.3685 735.43 735.4862 735.5779 735.7174 735.9058 736.1401 736.4047 736.676 736.9371 737.1097 737.3564 737.6304 737.9301 738.2559 738.5884 739.0399 739.4868 740.0402 741.0176 742.4504 743.889 745.0731 745.9068 -9999 -9999 -9999 -9999 -9999 -9999 -9999 -9999 -9999 -9999 -9999 -9999 -9999 -9999 -9999 -9999
-9999 -9999 -9999 -9999 -9999 -9999 -9999 -9999 -9999 -9999 -9999 -9999 -9999 -9999 -9999 -9999 -9999 -9999 -9999 -9999 -9999 -9999 -9999 -9999 -9999 -9999 -9999 -9999 -9999 743.0053 743.1345 743.1191 743.038 743.1636 743.197 743.0796 742.8619 742.7915 743.2067 743.6923 743.736 743.2743 742.6772 741.8073 741.1378 740.7031 740.2703 740.2677 740.5592 740.9015 740.8651 740.8047 740.8179 740.8362 740.7306 740.8513 741.3099 742.0348 743.0646 744.1617 745.2458 746.0335 746.5138 746.5649 746.166 745.6839 745.5468 745.9706 746.8893 748.0132 749.0165 749.6475 749.9857 750.1885 750.3099 750.1862 749.9438 749.5607 748.8743 748.2122 748.0043 748.0396 748.1664 748.1762 748.1431 747.8589 747.4518 747.3425 747.293 746.9077 746.3892 746.2477 746.1068 745.9443 745.5681 745.0753 744.5234 744.056 744.1924 743.7197 742.8778 741.9343 740.9508 739.8096 738.5453 737.4514 736.7249 736.1289 735.7072 735.4245 735.2471 735.1793 735.0842 734.9812 734.8838 734.7968 734.7214 734.6571 734.6025 734.5559 734.5159 734.4812 734.4504 734.4236 734.4008 734.3817 734.366 734.3525 734.3406 734.329 734.3179 734.3082 734.3011 734.2979 734.2997 734.307 734.3192 734.3354 734.3541 734.3746 734.3965 734.4197 734.4443 734.4725 734.5051 734.5419 734.583 734.6285 734.6779 734.7286 734.7787 734.8278 734.8752 734.9208 734.9657 735.0106 735.0559 735.1023 735.1523 735.2077 735.2672 735.3263 735.3804 735.4299 735.4927 735.592 735.7361 735.9249 736.1572 736.4211 736.6919 736.9507 737.184 737.4487 737.7242 738.0446 738.462 738.9901 739.4756 739.944 740.4343 741.5817 743.0587 744.4695 745.629 746.4066 -9999 -9999 -9999 -9999 -9999 -9999 -9999 -9999 -9999 -9999 -9999 -9999 -9999 -9999 -9999 -9999
-9999 -9999 -9999 -9999 -9999 -9999 -9999 -9999 -9999 -9999 -9999 -9999 -9999 -9999 -9999 -9999 -9999 -9999 -9999 -9999 -9999 -9999 -9999 -9999 -9999 -9999 -9999 -9999 -9999 -9999 -9999 -9999 743.4352 743.4955 743.5326 743.5391 743.6074 743.8887 744.3204 744.5601 744.5334 744.1367 743.616 742.8414 742.1102 741.544 741.2687 741.4243 741.8134 742.249 742.2368 742.2556 742.4056 742.5987 742.4627 742.7031 743.3984 744.3741 745.5062 746.6884 747.8511 748.8178 749.4678 749.6359 749.2803 748.7465 748.4979 748.8105 749.6274 750.5798 751.3376 -9999 -9999 -9999 -9999 -9999 -9999 -9999 -9999 -9999 -9999 -9999 -9999 -9999 -9999 -9999 -9999 -9999 -9999 -9999 -9999 -9999 -9999 -9999 745.6847 745.2844 744.8967 744.7642 744.8994 744.7023 744.0422 743.2333 742.3835 741.1926 739.7792 738.3992 737.3069 736.5414 736.0085 735.6481 735.4391 735.4193 735.3046 735.189 735.0835 734.989 734.9052 734.8313 734.7662 734.709 734.6583 734.6133 734.5729 734.5369 734.5055 734.4788 734.4568 734.4387 734.4238 734.411 734.3998 734.3904 734.3837 734.3809 734.3826 734.3894 734.4011 734.4171 734.4362 734.4572 734.4796 734.5034 734.5287 734.5564 734.5883 734.6241 734.6639 734.7079 734.756 734.8063 734.8561 734.9041 734.9496 734.9932 735.0354 735.0769 735.1177 735.1586 735.2023 735.2506 735.3023 735.3532 735.3971 735.4302 735.5024 735.6098 735.7568 735.9425 736.1669 736.4222 736.6874 736.9498 737.2172 737.5057 737.7876 738.0945 738.5049 739.112 739.804 740.4648 741.0194 742.3559 743.899 745.2076 746.2177 -9999 -9999 -9999 -9999 -9999 -9999 -9999 -9999 -9999 -9999 -9999 -9999 -9999 -9999 -9999 -9999 -9999
-9999 -9999 -9999 -9999 -9999 -9999 -9999 -9999 -9999 -9999 -9999 -9999 -9999 -9999 -9999 -9999 -9999 -9999 -9999 -9999 -9999 -9999 -9999 -9999 -9999 -9999 -9999 -9999 -9999 -9999 -9999 -9999 -9999 -9999 -9999 -9999 -9999 -9999 745.3981 745.4343 745.3811 745.0132 744.6462 744.2147 743.7953 743.4209 743.2009 743.1968 743.446 743.7411 743.8683 744.0176 744.2682 744.5463 744.782 745.2322 745.9787 746.9768 748.1311 749.3672 750.5751 751.6243 752.371 752.6721 752.4561 751.9836 751.6898 751.8678 -9999 -9999 -9999 -9999 -9999 -9999 -9999 -9999 -9999 -9999 -9999 -9999 -9999 -9999 -9999 -9999 -9999 -9999 -9999 -9999 -9999 -9999 -9999 -9999 -9999 -9999 -9999 -9999 745.4242 745.4281 745.501 745.374 744.9321 744.3547 743.793 742.6412 741.0862 739.4581 738.1113 737.0839 736.3796 735.8966 735.6198 735.5167 735.4294 735.3405 735.2511 735.1642 735.0817 735.0042 734.9324 734.8665 734.806 734.7509 734.7006 734.6554 734.6155 734.5809 734.5524 734.5291 734.5103 734.4955 734.4838 734.4747 734.4688 734.4666 734.4684 734.475 734.4862 734.5016 734.5201 734.5409 734.5631 734.5869 734.6121 734.6395 734.6704 734.7051 734.7432 734.7853 734.8317 734.8805 734.9291 734.9757 735.0193 735.0601 735.099 735.137 735.1738 735.2101 735.2479 735.29 735.3359 735.3831 735.4298 735.4628 735.533 735.6417 735.7874 735.9662 736.1785 736.4214 736.6815 736.9491 737.2352 737.542 737.837 738.1207 738.4809 739.0273 739.6896 740.4041 741.4834 743.096 744.7161 745.9949 746.918 -9999 -9999 -9999 -9999 -9999 -9999 -9999 -9999 -9999 -9999 -9999 -9999 -9999 -9999 -9999 -9999 -9999
-9999 -9999 -9999 -9999 -9999 -9999 -9999 -9999 -9999 -9999 -9999 -9999 -9999 -9999 -9999 -9999 -9999 -9999 -9999 -9999 -9999 -9999 -9999 -9999 -9999 -9999 -9999 -9999 -9999 -9999 -9999 -9999 -9999 -9999 -9999 -9999 -9999 -9999 -9999 746.5806 746.3677 746.1696 746.1438 746.1663 746.1198 746.0019 745.8614 745.8135 745.9667 746.1918 746.3713 746.5599 746.7919 747.0582 747.3635 747.8683 748.6049 749.582 750.7358 752.0016 753.2488 754.3667 755.2266 755.6974 -9999 -9999 -9999 -9999 -9999 -9999 -9999 -9999 -9999 -9999 -9999 -9999 -9999 -9999 -9999 -9999 -9999 -9999 -9999 -9999 -9999 -9999 -9999 -9999 -9999 -9999 -9999 -9999 -9999 -9999 -9999 -9999 -9999 -9999 -9999 745.9375 745.6 745.2791 745.0339 744.0666 742.511 740.7163 739.0686 737.7577 736.8033 736.1396 735.7529 735.5676 735.4774 735.4296 735.3727 735.3075 735.2374 735.1643 735.0913 735.0202 734.9521 734.8882 734.829 734.7751 734.7273 734.6857 734.6506 734.6219 734.5992 734.5818 734.5689 734.56 734.5547 734.5532 734.5558 734.5625 734.5735 734.5881 734.6058 734.6257 734.6471 734.6702 734.6946 734.7211 734.7507 734.7843 734.8207 734.8605 734.9044 734.9512 734.998 735.0428 735.0841 735.1216 735.1567 735.1908 735.224 735.2561 735.2888 735.3246 735.3635 735.4009 735.4302 735.4883 735.5725 735.6869 735.8308 736.001 736.1984 736.4258 736.6787 736.9495 737.2504 737.5779 737.8959 738.1746 738.4745 738.9814 739.6824 740.5704 741.9872 743.7509 745.42 746.6747 747.5162 -9999 -9999 -9999 -9999 -9999 -9999 -9999 -9999 -9999 -9999 -9999 -9999 -9999 -9999 -9999 -9999 -9999
-9999 -9999 -9999 -9999 -9999 -9999 -9999 -9999 -9999 -9999 -9999 -9999 -9999 -9999 -9999 -9999 -9999 -9999 -9999 -9999 -9999 -9999 -9999 -9999 -9999 -9999 -9999 -9999 -9999 -9999 -9999 -9999 -9999 -9999 -9999 -9999 -9999 -9999 -9999 -9999 748.1237 748.1942 748.4999 748.8633 749.0899 749.1405 749.0393 748.9575 749.0532 749.2352 749.3802 749.4733 749.5534 749.6881 749.9135 750.3773 751.1148 752.0961 753.2686 754.558 755.8638 757.0758 -9999 -9999 -9999 -9999 -9999 -9999 -9999 -9999 -9999 -9999 -9999 -9999 -9999 -9999 -9999 -9999 -9999 -9999 -9999 -9999 -9999 -9999 -9999 -9999 -9999 -9999 -9999 -9999 -9999 -9999 -9999 -9999 -9999 -9999 -9999 -9999 -9999 -9999 746.0908 745.9666 745.8021 745.1605 743.7916 741.992 740.1022 738.4276 737.1411 736.3334 735.846 735.5859 735.4692 735.4349 735.4299 735.4023 735.3578 735.2987 735.2322 735.1616 735.0896 735.0194 734.9529 734.892 734.8374 734.7899 734.7496 734.7162 734.6898 734.6697 734.6553 734.6457 734.6407 734.6399 734.6432 734.6504 734.6614 734.6755 734.6924 734.7113 734.7314 734.7531 734.7761 734.8011 734.8293 734.861 734.8959 734.9331 734.974 735.0179 735.0627 735.1054 735.1443 735.1783 735.2092 735.2387 735.2678 735.296 735.3242 735.355 735.39 735.4299 735.4647 735.5311 735.6255 735.7455 735.8878 736.0485 736.2299 736.4397 736.6806 736.9512 737.2649 737.6191 737.9701 738.2842 738.516 739.0482 739.8737 740.9857 742.5742 744.315 745.8508 747.0212 747.8826 -9999 -9999 -9999 -9999 -9999 -9999 -9999 -9999 -9999 -9999 -9999 -9999 -9999 -9999 -9999 -9999 -9999
-9999 -9999 -9999 -9999 -9999 -9999 -9999 -9999 -9999 -9999 -9999 -9999 -9999 -9999 -9999 -9999 -9999 -9999 -9999 -9999 -9999 -9999 -9999 -9999 -9999 -9999 -9999 -9999 -9999 -9999 -9999 -9999 -9999 -9999 -9999 -9999 -9999 -9999 -9999 -9999 -9999 -9999 751.4213 752.0323 752.4375 752.5672 752.4709 752.3539 752.3812 752.4854 752.5079 752.3787 752.2066 752.1389 752.254 752.6697 753.431 754.4684 755.7142 -9999 -9999 -9999 -9999 -9999 -9999 -9999 -9999 -9999 -9999 -9999 -9999 -9999 -9999 -9999 -9999 -9999 -9999 -9999 -9999 -9999 -9999 -9999 -9999 -9999 -9999 -9999 -9999 -9999 -9999 -9999 -9999 -9999 -9999 -9999 -9999 -9999 -9999 -9999 -9999 -9999 -9999 746.4037 746.2042 745.7207 744.6797 743.0319 741.0172 739.0479 737.515 736.5546 735.9449 735.5959 735.4303 735.3836 735.4004 735.43 735.427 735.3926 735.3427 735.2806 735.2108 735.1384 735.0676 735.0019 734.9428 734.8912 734.8472 734.8106 734.7813 734.7589 734.743 734.7324 734.7271 734.7263 734.7299 734.7376 734.7488 734.7628 734.7788 734.7966 734.8154 734.8356 734.8568 734.8799 734.9056 734.9352 734.9677 735.0024 735.0402 735.0809 735.1229 735.1635 735.1998 735.2308 735.2573 735.2817 735.3059 735.3298 735.3536 735.3787 735.4048 735.4302 735.4918 735.5781 735.6866 735.8136 735.9551 736.1072 736.273 736.4642 736.6888 736.9531 737.2716 737.6353 738.0322 738.4244 738.6334 739.1614 740.0765 741.4059 743.0649 744.6926 746.0215 747.056 -9999 -9999 -9999 -9999 -9999 -9999 -9999 -9999 -9999 -9999 -9999 -9999 -9999 -9999 -9999 -9999 -9999 -9999
-9999 -9999 -9999 -9999 -9999 -9999 -9999 -9999 -9999 -9999 -9999 -9999 -9999 -9999 -9999 -9999 -9999 -9999 -9999 -9999 -9999 -9999 -9999 -9999 -9999 -9999 -9999 -9999 -9999 -9999 -9999 -9999 -9999 -9999 -9999 -9999 -9999 -9999 -9999 -9999 -9999 -9999 -9999 -9999 755.7475 755.9369 755.8675 755.7415 755.6948 755.6642 755.4797 755.0612 754.6094 754.3445 754.3664 754.7802 -9999 -9999 -9999 -9999 -9999 -9999 -9999 -9999 -9999 -9999 -9999 -9999 -9999 -9999 -9999 -9999 -9999 -9999 -9999 -9999 -9999 -9999 -9999 -9999 -9999 -9999 -9999 -9999 -9999 -9999 -9999 -9999 -9999 -9999 -9999 -9999 -9999 -9999 -9999 -9999 -9999 -9999 -9999 -9999 -9999 -9999 746.2983 745.8716 745.0272 743.6975 741.7571 739.6788 738.0159 736.8467 736.0754 735.6193 735.3866 735.3054 735.3181 735.3748 735.4297 735.43 735.4114 735.3687 735.3086 735.2399 735.1696 735.1025 735.0415 734.9878 734.9419 734.9037 734.8728 734.8489 734.8315 734.8201 734.8141 734.813 734.8164 734.824 734.835 734.8486 734.8641 734.8808 734.8983 734.9166 734.9359 734.9567 734.9797 735.0065 735.0363 735.0685 735.1029 735.14 735.1787 735.2164 735.2504 735.2786 735.3011 735.3206 735.3394 735.3585 735.3784 735.4008 735.4299 735.4608 735.5294 735.6288 735.7504 735.8851 736.0267 736.1721 736.3248 736.498 736.7042 736.9527 737.2581 737.584 737.9331 738.2651 738.5422 739.1644 740.1469 741.5599 743.2344 744.7734 745.9351 746.8206 -9999 -9999 -9999 -9999 -9999 -9999 -9999 -9999 -9999 -9999 -9999 -9999 -9999 -9999 -9999 -9999 -9999 -9999
