ncols         277
nrows         44
xllcorner     759100
yllcorner     6015950
cellsize      50
NODATA_value  -9999
-9999 -9999 -9999 -9999 -9999 -9999 -9999 -9999 -9999 -9999 -9999 -9999 -9999 -9999 -9999 -9999 -9999 -9999 -9999 -9999 551.8643 551.5821 550.8143 549.9578 549.3742 548.741 547.7289 546.3486 544.9457 543.6081 542.3439 541.0793 539.7517 538.4392 537.4192 536.6299 535.8655 535.3201 534.944 534.8724 535.1021 535.2906 535.3816 535.4437 535.5447 535.5996 535.3629 535.4008 535.6044 535.8936 536.2952 537.0112 538.472 540.0739 541.3848 542.2742 543.1253 544.421 546.2748 548.2516 549.7391 550.2214 -9999 -9999 -9999 -9999 550.8353 550.3361 549.7496 548.8502 547.7285 546.5085 545.2773 543.8323 541.9585 540.0446 538.2582 536.542 534.7696 532.9501 531.6073 530.6793 530.4736 530.6549 531.2213 531.8014 531.9591 531.9762 532.1353 532.4225 533.0448 534.3664 537.0034 539.9235 542.3409 543.9885 544.9186 545.2976 545.538 546.0132 546.565 547.2378 547.4285 547.2977 547.3304 547.6371 547.8235 547.8565 547.5978 546.9183 546.2219 545.9021 545.7165 545.2631 -9999 -9999 -9999 -9999 -9999 -9999 -9999 -9999 -9999 -9999 -9999 -9999 -9999 -9999 -9999 537.7888 537.8713 538.3027 538.2096 537.4863 536.0631 534.0612 532.5227 531.0311 529.3864 528.3584 527.9062 528.0216 528.6104 529.5101 530.6135 531.5751 531.7627 531.1313 529.6971 527.7219 525.7935 524.371 523.9321 524.3298 525.5953 527.2087 528.8131 530.1743 531.0219 531.8505 533.0272 535.1174 538.8116 542.6988 545.7778 547.6461 548.1538 -9999 -9999 -9999 -9999 -9999 -9999 -9999 -9999 -9999 -9999 -9999 -9999 -9999 -9999 -9999 -9999 -9999 -9999 -9999 -9999 -9999 -9999 -9999 -9999 -9999 -9999 -9999 -9999 -9999 -9999 -9999 -9999 -9999 -9999 -9999 -9999 -9999 -9999 -9999 -9999 -9999 -9999 -9999 -9999 -9999 -9999 -9999 -9999 -9999 -9999 -9999 -9999 -9999 -9999 -9999 -9999 -9999 -9999 553.6993 552.8733 551.0969 548.2834 544.8168 541.2617 538.2159 536.0373 533.5608 531.5316 529.9295 528.6022 527.5073 526.8101 526.2711 525.8124 525.4374 525.0819 524.8452 524.8502 525.1835 525.8941 527.0864 527.8003 528.4102 529.172 530.823 533.4968 536.9834 539.9017 542.5401 543.5997 543.7776 -9999 -9999 -9999 -9999 -9999 -9999 -9999 -9999 -9999 -9999 -9999 -9999 -9999 -9999 -9999 -9999 -9999 -9999 -9999
-9999 -9999 -9999 -9999 -9999 -9999 -9999 -9999 -9999 -9999 -9999 -9999 -9999 -9999 -9999 -9999 -9999 -9999 550.3583 550.1793 550.0701 549.6918 548.8441 547.6885 546.5695 545.3039 543.8111 542.1075 540.5486 539.1275 537.9143 536.7972 535.6313 534.3912 533.4858 532.7984 532.178 531.7767 531.607 531.6 531.882 532.1109 532.2992 532.6123 533.0267 533.2428 533.1837 533.1269 533.1098 533.3544 533.6661 534.2259 535.1915 536.5988 537.883 539.0655 540.3753 542.0596 544.1191 546.2579 548.0751 549.2287 549.6231 549.492 549.4941 549.6523 549.4053 548.67 547.9379 546.9246 545.4374 543.7366 541.91 540.0359 537.9893 536.1939 534.6896 533.4565 532.3066 531.311 530.3876 529.8077 529.6837 529.903 530.4561 531.2056 531.793 532.0335 532.2969 532.7279 533.1344 533.7938 535.8391 538.6036 541.1834 542.9852 544.0219 544.382 544.2487 544.2289 544.4715 544.9882 545.1968 544.9874 544.6426 544.7963 544.8272 544.9118 544.9822 544.7468 544.2938 544.0951 543.9637 543.553 542.6174 541.8524 541.2908 540.8864 -9999 -9999 -9999 -9999 -9999 -9999 -9999 -9999 -9999 -9999 -9999 536.5338 536.6602 537.6328 537.4597 536.5385 534.739 533.5772 532.5195 531.4442 530.0107 528.8887 528.5022 528.86 529.6448 530.6481 531.716 532.3875 532.3906 531.6052 529.8576 527.7335 525.7847 524.3606 523.9893 524.4704 525.8216 527.4182 529.0109 530.2891 531.089 531.8578 533.0712 535.2994 538.8942 542.5689 545.3703 546.9658 547.3995 -9999 -9999 -9999 -9999 -9999 -9999 -9999 -9999 -9999 -9999 -9999 -9999 -9999 -9999 -9999 -9999 -9999 -9999 -9999 -9999 -9999 -9999 -9999 -9999 -9999 -9999 -9999 -9999 -9999 -9999 -9999 -9999 -9999 -9999 -9999 -9999 -9999 -9999 -9999 -9999 -9999 -9999 -9999 -9999 -9999 -9999 -9999 -9999 -9999 -9999 -9999 -9999 -9999 -9999 -9999 -9999 -9999 -9999 -9999 553.3442 552.0374 549.9439 547.0786 543.7114 540.3187 537.2574 534.5337 532.3038 530.5801 529.1592 528.085 527.3112 526.7036 526.1891 525.7657 525.3596 525.0568 525.0237 525.3403 525.9862 527.1093 527.867 528.5283 529.3871 531.0542 533.6255 536.9503 539.8918 542.0125 542.9366 543.1145 -9999 -9999 -9999 -9999 -9999 -9999 -9999 -9999 -9999 -9999 -9999 -9999 -9999 -9999 -9999 -9999 -9999 -9999 -9999
-9999 -9999 -9999 -9999 -9999 -9999 -9999 -9999 -9999 -9999 -9999 -9999 -9999 -9999 -9999 -9999 -9999 549.355 548.5705 548.1807 547.8207 547.0986 545.873 544.3668 542.8129 541.1849 539.5108 537.5883 536.059 534.9073 533.8881 533.0653 532.2549 531.4449 530.9373 530.6124 530.279 530.0886 530.0618 529.9191 530.0217 530.1528 530.407 530.9784 531.5577 531.8549 531.8492 531.7143 531.6352 531.6845 531.8421 532.2792 532.9501 533.7532 534.7222 535.9923 537.5491 539.4418 541.6575 543.9038 545.8674 547.2474 547.8316 547.9024 547.8547 547.6984 547.1429 546.2828 545.3326 544.0847 542.2842 540.1315 538.0563 536.0176 534.1869 532.7994 531.7256 530.9995 530.4838 529.9896 529.4774 529.2063 529.1584 529.3183 529.7932 530.4601 531.1831 531.7834 532.2079 532.751 533.4581 534.1715 534.9731 537.4224 540.042 541.9727 543.069 543.373 542.7858 542.1207 541.8091 541.8777 542.0357 541.9713 541.6642 541.3909 541.1832 541.3027 541.6501 541.8057 541.7712 541.8514 541.9193 541.7452 541.2174 540.7432 540.3239 540.2675 539.6243 -9999 -9999 -9999 -9999 -9999 -9999 -9999 -9999 -9999 -9999 536.0396 536.3594 537.0111 536.7086 535.5367 534.2689 533.3414 532.5179 531.6265 530.3353 529.4261 529.1968 529.8389 530.6957 531.6778 532.3762 532.6707 532.3735 531.3779 529.5372 527.4435 525.5882 524.3266 524.1597 524.9068 526.3081 527.8553 529.4438 530.515 531.1994 531.8608 533.0684 535.3744 538.8066 542.1869 544.6865 546.0635 -9999 -9999 -9999 -9999 -9999 -9999 -9999 -9999 -9999 -9999 -9999 -9999 -9999 -9999 -9999 -9999 -9999 -9999 -9999 -9999 -9999 -9999 -9999 -9999 -9999 -9999 -9999 -9999 -9999 -9999 -9999 -9999 -9999 -9999 -9999 -9999 -9999 -9999 -9999 -9999 -9999 -9999 -9999 -9999 -9999 -9999 -9999 -9999 -9999 -9999 -9999 -9999 -9999 -9999 -9999 -9999 -9999 -9999 -9999 -9999 -9999 552.706 551.1998 548.8355 545.7521 542.2267 538.6108 535.4795 533.1679 531.4406 530.0025 528.843 528.0012 527.31 526.7067 526.1857 525.746 525.3834 525.3577 525.7595 526.4542 527.3991 528.3216 529.2108 530.2987 531.6065 533.4847 536.3158 539.0742 541.0353 541.808 541.9393 -9999 -9999 -9999 -9999 -9999 -9999 -9999 -9999 -9999 -9999 -9999 -9999 -9999 -9999 -9999 -9999 -9999 -9999 -9999
-9999 -9999 -9999 -9999 -9999 -9999 -9999 -9999 -9999 -9999 -9999 -9999 -9999 -9999 -9999 -9999 -9999 547.5268 546.5983 545.946 545.1605 543.8815 542.1397 540.2819 538.5613 537.1492 535.8749 534.0147 532.6879 531.7864 531.1013 530.6461 530.2789 529.9114 529.7354 529.5881 529.363 529.1829 528.9318 528.7516 528.6485 528.6802 528.9777 529.7699 530.3437 530.8372 530.8591 530.5579 530.4133 530.3915 530.5162 530.9771 531.6001 532.2418 532.8512 533.6445 534.9908 536.7418 538.9158 541.0957 542.9816 544.3167 544.9868 545.1904 545.1457 544.8423 544.1074 543.1095 541.9017 540.4442 538.429 536.3463 534.365 532.6396 531.3586 530.5439 529.9871 529.6007 529.3969 529.1835 528.8693 528.8159 528.8143 528.8541 529.238 529.803 530.4543 531.1796 531.8698 532.3948 532.8901 533.3717 534.1262 536.5327 539.1127 540.9183 541.784 541.6796 540.7134 539.4465 538.5179 538.0637 538.0958 538.0851 537.8609 537.5265 537.2911 537.4776 538.002 538.4455 538.8072 539.2449 539.6254 539.7859 539.7305 539.6858 539.6036 539.6302 538.9735 538.1058 -9999 -9999 -9999 -9999 -9999 -9999 -9999 -9999 535.9795 536.2112 536.8364 537.6448 536.7927 535.3267 534.1987 533.3322 532.5519 531.7021 530.5786 530.0861 530.3696 531.0287 531.7343 532.2554 532.4885 532.3449 531.6632 530.3752 528.629 526.7578 525.0958 524.2008 524.2678 525.2421 526.8619 528.5079 529.9936 530.8607 531.4309 531.9335 533.1278 535.6401 538.8696 541.9119 544.2347 545.7031 -9999 -9999 -9999 -9999 -9999 -9999 -9999 -9999 -9999 -9999 -9999 -9999 -9999 -9999 -9999 -9999 -9999 -9999 -9999 -9999 -9999 -9999 -9999 -9999 -9999 -9999 -9999 -9999 -9999 -9999 -9999 -9999 -9999 -9999 -9999 -9999 -9999 -9999 -9999 -9999 -9999 -9999 -9999 -9999 -9999 -9999 -9999 -9999 -9999 -9999 -9999 -9999 -9999 -9999 -9999 -9999 -9999 -9999 -9999 -9999 -9999 -9999 551.5924 549.6269 546.9872 543.7148 540.0041 536.3865 534.0441 532.2094 530.6916 529.5647 528.7383 528.0137 527.3151 526.6741 526.1356 525.7911 525.8356 526.3932 527.2122 528.1866 529.2557 530.3939 531.3438 531.9534 532.947 535.216 537.6434 539.3969 540.0905 540.2697 -9999 -9999 -9999 -9999 -9999 -9999 -9999 -9999 -9999 -9999 -9999 -9999 -9999 -9999 -9999 -9999 -9999 -9999 -9999
-9999 -9999 -9999 -9999 -9999 -9999 -9999 -9999 -9999 -9999 -9999 -9999 -9999 -9999 -9999 -9999 546.6071 545.6575 544.5278 543.5067 542.1799 540.3548 538.2035 536.1654 534.5862 533.4216 532.4753 531.3219 530.5306 530.0329 529.6743 529.4358 529.3148 529.2029 529.189 529.1069 528.8625 528.6747 528.1879 527.8294 527.4686 527.4052 527.6718 528.4507 529.0091 529.6783 529.9797 529.7343 529.5526 529.4957 529.5917 529.9276 530.5249 531.3088 531.7533 532.3649 533.2372 534.4683 536.0856 537.8616 539.4122 540.4688 541.1113 541.3892 541.4043 541.1261 540.4033 539.3286 538.0101 536.5867 534.7217 533.0447 531.6899 530.5055 529.7491 529.3717 529.1262 528.8618 528.8127 528.7781 528.5464 528.4613 528.456 528.5325 528.8256 529.2589 529.8284 530.5419 531.5127 532.0873 532.426 532.7362 533.4641 535.7693 538.1812 539.7601 540.1501 539.5199 538.0328 536.3887 535.0495 534.4791 534.5427 534.6082 534.5079 534.3097 534.1722 534.2699 534.8283 535.4206 536.0048 536.5901 537.204 537.7039 538.0883 538.1625 538.3701 538.4147 538.0187 537.5647 537.5007 -9999 -9999 -9999 -9999 -9999 -9999 536.0641 536.3604 537.1752 538.24 538.3369 537.1101 535.4976 534.3831 533.515 532.7302 531.921 531.137 530.8057 531.4609 531.8583 532.1399 532.2034 531.9312 531.3376 530.2372 528.8288 527.2228 525.6418 524.4106 523.9765 524.3347 525.5757 527.173 528.78 530.2079 531.1035 531.767 532.2416 533.6016 536.2075 539.1881 541.88 544.0031 545.3915 -9999 -9999 -9999 -9999 -9999 -9999 -9999 -9999 -9999 -9999 -9999 -9999 -9999 -9999 -9999 -9999 -9999 -9999 -9999 -9999 -9999 -9999 -9999 -9999 -9999 -9999 -9999 -9999 -9999 -9999 -9999 -9999 -9999 -9999 -9999 -9999 -9999 -9999 -9999 -9999 -9999 -9999 -9999 -9999 -9999 -9999 -9999 -9999 -9999 -9999 -9999 -9999 -9999 -9999 -9999 -9999 -9999 -9999 -9999 -9999 -9999 -9999 551.0861 549.3961 547.239 544.5387 541.1545 537.5638 535.2171 533.2682 531.5456 530.2294 529.3442 528.7025 528 527.2892 526.7106 526.4579 526.6346 527.3146 528.1742 529.2413 530.4592 531.4342 531.7206 531.9801 532.426 534.2752 536.2899 537.7726 538.4491 -9999 -9999 -9999 -9999 -9999 -9999 -9999 -9999 -9999 -9999 -9999 -9999 -9999 -9999 -9999 -9999 -9999 -9999 -9999 -9999
-9999 -9999 -9999 -9999 -9999 -9999 -9999 -9999 -9999 -9999 -9999 -9999 -9999 -9999 -9999 546.4421 545.1329 543.8751 542.4499 540.9411 539.0332 536.9513 534.928 533.1499 531.8849 530.9626 530.3883 529.8463 529.4774 529.2544 529.0503 528.8341 528.801 528.804 528.7626 528.6208 528.2531 527.9208 527.4323 527.1849 526.8279 526.7173 526.8882 527.3238 527.7469 528.4683 528.7411 528.6969 528.6401 528.6426 528.7536 528.9681 529.5302 530.1722 530.6463 531.3462 531.8237 532.5166 533.5372 534.5245 535.5469 536.1994 536.778 537.0897 537.1893 537.0452 536.4974 535.511 534.5036 533.5154 531.9946 530.9116 530.2087 529.2249 528.8306 528.7818 528.7373 528.4312 528.3052 528.2585 528.169 528.1263 528.1425 528.2369 528.4678 528.8195 529.2695 529.9103 530.8062 531.8466 532.3063 532.6051 533.3398 535.0893 537.3768 538.6089 538.5437 537.3197 535.329 533.6401 532.489 531.9829 531.9399 531.986 531.9789 531.9702 532.1052 532.4652 533.0253 533.7625 534.5236 534.8043 534.9891 535.3497 535.8779 536.3055 536.8679 537.0723 536.8752 536.7794 536.9764 537.4706 -9999 -9999 -9999 -9999 536.2034 536.5729 537.7903 538.8787 539.8378 538.9269 537.2768 535.7429 534.6495 533.8195 533.1013 532.4354 531.9128 531.8035 532.028 532.0758 531.8601 531.4226 530.588 529.5206 528.2615 526.9907 525.6835 524.5442 523.967 523.9952 524.6406 525.9672 527.4382 528.8968 530.2459 531.1475 531.8098 532.4507 534.2021 536.7843 539.5221 541.9644 543.9837 545.4268 -9999 -9999 -9999 -9999 -9999 -9999 -9999 -9999 -9999 -9999 -9999 -9999 -9999 -9999 -9999 -9999 -9999 -9999 -9999 -9999 -9999 -9999 -9999 -9999 -9999 -9999 -9999 -9999 -9999 -9999 -9999 -9999 -9999 -9999 -9999 -9999 -9999 -9999 -9999 -9999 -9999 -9999 -9999 -9999 -9999 -9999 -9999 -9999 -9999 -9999 -9999 -9999 -9999 -9999 -9999 -9999 -9999 -9999 -9999 -9999 -9999 -9999 -9999 548.2737 546.5309 544.5981 541.9378 538.8957 536.4773 534.2891 532.1362 530.6248 529.776 529.204 528.6901 528.0309 527.5125 527.3939 527.6758 528.527 529.322 530.4371 531.4326 531.6687 531.6287 531.9352 532.2994 534.0748 535.6605 536.7509 537.4744 -9999 -9999 -9999 -9999 -9999 -9999 -9999 -9999 -9999 -9999 -9999 -9999 -9999 -9999 -9999 -9999 -9999 -9999 -9999 -9999
-9999 -9999 -9999 -9999 -9999 -9999 -9999 -9999 -9999 -9999 -9999 -9999 -9999 -9999 -9999 545.1852 543.7119 542.1967 540.4891 538.4496 536.03 534.1324 532.5106 531.2627 530.3478 529.7393 529.4094 529.1923 529.059 528.9773 528.7397 528.2987 528.1469 528.0671 527.8708 527.4668 527.2211 527.0385 526.6974 526.4835 526.2939 526.2827 526.42 526.6698 526.9569 527.3257 527.4473 527.4378 527.433 527.5184 527.8448 528.1152 528.5678 529.0281 529.6097 530.1691 530.5557 531.1088 531.6728 532.0886 532.5417 532.9588 533.3348 533.5927 533.7448 533.7074 533.1644 532.3549 531.4971 530.764 529.9508 529.2474 528.8563 528.3722 528.1742 528.1661 528.1099 527.8768 527.7762 527.7587 527.7953 527.8187 527.8724 527.977 528.1611 528.437 528.8297 529.4603 530.4644 531.7285 532.3371 532.613 533.15 534.4544 536.5765 537.5612 537.11 535.4837 533.5592 532.0287 531.0099 530.4485 530.3201 530.3329 530.3815 530.5283 530.9487 531.4545 531.9191 532.6433 533.324 533.6739 533.9153 534.28 534.8198 535.3372 535.1642 535.2542 535.4871 535.8426 536.3727 537.0074 537.6685 -9999 -9999 -9999 536.961 538.0233 539.1933 539.3295 538.9106 537.4346 536.3553 535.4233 534.6759 534.0499 533.4719 532.9323 532.4954 532.2588 532.0894 531.6479 530.7916 529.7045 528.4773 527.3234 526.1759 525.2209 524.4207 523.9679 523.9679 524.506 525.6055 526.886 528.0669 529.2322 530.4162 531.2797 531.9099 532.8885 534.8831 537.3495 539.8068 542.0759 544.1082 -9999 -9999 -9999 -9999 -9999 -9999 -9999 -9999 -9999 -9999 -9999 -9999 -9999 -9999 -9999 -9999 -9999 -9999 -9999 -9999 -9999 -9999 -9999 -9999 -9999 -9999 -9999 -9999 -9999 -9999 -9999 -9999 -9999 -9999 -9999 -9999 -9999 -9999 -9999 -9999 -9999 -9999 -9999 -9999 -9999 -9999 -9999 -9999 -9999 -9999 -9999 -9999 -9999 -9999 -9999 -9999 -9999 -9999 -9999 -9999 -9999 -9999 -9999 -9999 546.8494 545.4751 543.9803 542.0537 539.709 537.0474 534.7881 532.6552 531.1889 530.3127 529.7477 529.3693 528.9822 528.7888 528.792 529.1116 529.9516 530.5935 531.436 531.7656 531.7173 531.5615 532.1306 533.4095 534.8849 535.6592 536.3585 537.0157 -9999 -9999 -9999 -9999 -9999 -9999 -9999 -9999 -9999 -9999 -9999 -9999 -9999 -9999 -9999 -9999 -9999 -9999 -9999 -9999
-9999 -9999 -9999 -9999 -9999 -9999 -9999 -9999 -9999 -9999 -9999 -9999 -9999 -9999 -9999 543.835 542.1855 540.621 538.7515 536.3539 533.8797 532.2316 531.0733 530.2482 529.6129 529.2351 529.0613 528.9593 528.8321 528.7042 528.1282 527.5028 527.2906 527.0964 526.7131 526.0753 525.8086 525.7591 525.7626 525.7672 525.7982 525.986 526.1591 526.3022 526.4545 526.6392 526.7175 526.7363 526.7843 526.9349 527.2206 527.3165 527.5287 528.0653 528.6753 529.0594 529.5486 530.0585 530.3474 530.4937 530.7098 531.0956 531.3827 531.5963 531.7864 531.8585 531.0914 530.3411 529.6649 529.0591 528.6847 528.3092 528.0475 527.7712 527.683 527.6764 527.5947 527.337 527.2969 527.317 527.485 527.5537 527.6523 527.7728 527.9299 528.1501 528.4839 529.0485 530.1901 531.4347 532.1731 532.4588 532.7031 533.4271 535.3214 536.3999 535.471 533.7955 532.2925 531.0559 530.2338 529.665 529.449 529.4369 529.5422 529.7919 530.2251 530.5087 531.0491 531.8089 532.5022 532.954 533.2901 533.6389 534.0608 534.4564 534.4273 533.9393 534.3752 535.0654 535.8927 536.6738 537.3911 537.977 -9999 538.2059 538.5077 539.4014 539.4882 538.7687 537.3835 535.5833 535.1592 534.8447 534.5021 534.1244 533.6903 533.1973 532.6875 532.1789 531.5579 530.4267 529.0527 527.6359 526.3377 525.3665 524.5452 524.056 523.804 523.898 524.4092 525.4927 526.7637 527.8792 528.9312 530.0451 531.0286 531.756 532.3394 533.6884 535.596 537.7656 539.9607 542.1122 544.1568 -9999 -9999 -9999 -9999 -9999 -9999 -9999 -9999 -9999 -9999 -9999 -9999 -9999 -9999 -9999 -9999 -9999 -9999 -9999 -9999 -9999 -9999 -9999 -9999 -9999 -9999 -9999 -9999 -9999 -9999 -9999 -9999 -9999 -9999 -9999 -9999 -9999 -9999 -9999 -9999 -9999 -9999 -9999 -9999 -9999 -9999 -9999 -9999 -9999 -9999 -9999 -9999 -9999 -9999 -9999 -9999 -9999 -9999 -9999 -9999 -9999 -9999 -9999 -9999 545.512 544.2476 543.2592 542.1045 540.6125 538.5347 535.984 533.7578 532.1036 531.0929 530.4945 530.2639 530.1756 530.2158 530.2885 530.573 531.2761 531.6647 532.0518 532.3235 532.5626 532.8905 533.7814 534.9403 535.8018 536.3571 536.8632 -9999 -9999 -9999 -9999 -9999 -9999 -9999 -9999 -9999 -9999 -9999 -9999 -9999 -9999 -9999 -9999 -9999 -9999 -9999 -9999 -9999
-9999 -9999 -9999 -9999 -9999 -9999 -9999 -9999 -9999 -9999 -9999 -9999 -9999 -9999 544.0091 542.1417 540.4863 539.0583 537.134 534.6441 532.5632 531.2649 530.3855 529.7555 529.3127 529.078 528.9606 528.8053 528.4484 528.0281 527.3992 526.821 526.3492 525.7889 525.1874 524.6058 524.4193 524.5008 524.827 525.0557 525.3694 525.7601 525.9912 526.0642 526.1172 526.2461 526.3118 526.3371 526.3815 526.4858 526.6329 526.7114 526.8877 527.3071 527.8402 528.1934 528.6131 528.9908 529.3625 529.5261 529.6912 529.9919 530.1256 530.2033 530.2494 530.1868 529.6754 529.0534 528.6148 528.1024 527.8733 527.7223 527.5686 527.3221 527.2906 527.2958 527.2665 527.0411 526.9738 527.0543 527.2764 527.3084 527.4724 527.626 527.7789 527.9713 528.2745 528.7994 529.6547 530.764 531.7985 532.16 532.2418 532.5299 533.7975 534.6119 533.7289 532.7999 531.7615 530.5602 529.7806 529.2598 529.0303 529.015 529.1232 529.3397 529.6506 529.9437 530.3757 531.0703 531.8118 532.3448 532.741 533.0666 533.3492 533.6343 533.7533 533.5168 533.7855 534.6996 535.658 536.5079 537.2869 538.0329 538.7815 539.3271 539.7599 539.6936 538.9931 537.6971 535.6805 534.7632 534.4681 534.3756 534.2598 534.0461 533.6904 533.1617 532.4589 531.5754 530.4318 528.8896 527.3033 525.888 524.7601 524.094 523.6423 523.4994 523.6702 524.2105 525.1543 526.4529 527.7483 528.8412 529.8127 530.7545 531.665 532.1833 532.882 534.3448 536.0846 537.9845 539.9562 542.0192 -9999 -9999 -9999 -9999 -9999 -9999 -9999 -9999 -9999 -9999 -9999 -9999 -9999 -9999 -9999 -9999 -9999 -9999 -9999 -9999 -9999 -9999 -9999 -9999 -9999 -9999 -9999 -9999 -9999 -9999 -9999 -9999 -9999 -9999 -9999 -9999 -9999 -9999 -9999 -9999 -9999 -9999 -9999 -9999 -9999 -9999 -9999 -9999 -9999 -9999 -9999 -9999 -9999 -9999 -9999 -9999 -9999 -9999 -9999 -9999 -9999 -9999 -9999 -9999 -9999 -9999 543.3339 542.7684 542.3312 541.6465 540.2776 538.0409 535.4425 533.5079 532.2997 531.5922 531.1578 531.1353 531.441 531.6163 531.859 532.2396 532.5247 533.0541 533.87 534.5735 535.1064 535.7476 536.3001 536.7996 537.2954 537.7969 -9999 -9999 -9999 -9999 -9999 -9999 -9999 -9999 -9999 -9999 -9999 -9999 -9999 -9999 -9999 -9999 -9999 -9999 -9999 -9999 -9999
-9999 -9999 -9999 -9999 -9999 -9999 -9999 -9999 -9999 -9999 -9999 -9999 -9999 -9999 542.0786 540.1891 538.6118 537.4276 535.8446 533.7987 532.0742 531.0104 530.2861 529.6405 529.2109 528.9946 528.8041 528.405 527.9017 527.3572 526.7845 526.165 525.458 524.5737 523.9413 523.5448 523.4722 523.6738 524.1146 524.3633 524.851 525.3636 525.7258 525.7767 525.7958 525.9851 526.0536 526.0675 526.0839 526.1235 526.1763 526.2149 526.3239 526.6195 527.1174 527.3097 527.5499 528.0688 528.5271 528.6449 528.6729 528.7358 528.7784 528.8357 528.7958 528.743 528.5383 528.147 527.8014 527.3774 527.2886 527.2787 527.2198 526.9536 526.844 526.8078 526.7605 526.6376 526.5931 526.6714 526.8693 527.0379 527.2919 527.4968 527.6674 527.8455 528.0934 528.4894 529.1285 530.29 531.4745 531.9641 531.9954 532.0508 532.4796 533.0021 532.7164 532.2609 531.5759 530.4515 529.6062 529.0618 528.8292 528.829 528.9357 529.0923 529.3159 529.5677 529.9227 530.4001 531.054 531.6255 532.0449 532.4145 532.6172 532.8302 532.9823 532.9486 532.8776 534.2845 535.4515 536.3879 537.2615 538.1852 539.3332 539.9645 539.8995 539.1788 537.873 536.1866 534.6599 534.0212 533.8844 533.9302 533.947 533.8204 533.4717 532.8453 531.9036 530.6414 529.041 527.3522 525.8408 524.7977 524.0658 523.5346 523.2734 523.3703 523.8358 524.6582 525.9633 527.4196 528.7468 529.8123 530.7263 531.6031 532.0564 532.3916 533.0569 534.8507 536.4858 538.1293 539.8403 541.7937 -9999 -9999 -9999 -9999 -9999 -9999 -9999 -9999 -9999 -9999 -9999 -9999 -9999 -9999 -9999 -9999 -9999 -9999 -9999 -9999 -9999 -9999 -9999 -9999 -9999 -9999 -9999 -9999 -9999 -9999 -9999 -9999 -9999 -9999 -9999 -9999 -9999 -9999 -9999 -9999 -9999 -9999 -9999 -9999 -9999 -9999 -9999 -9999 -9999 -9999 -9999 -9999 -9999 -9999 -9999 -9999 -9999 -9999 -9999 -9999 -9999 -9999 -9999 -9999 -9999 -9999 -9999 542.4376 542.3787 542.1292 541.3724 539.8158 537.5103 535.2628 533.9511 532.8628 532.1874 532.0798 532.3901 532.7925 533.2769 533.6791 534.2115 535.0067 535.8882 536.6459 537.1493 537.4338 537.4569 537.7475 538.2841 -9999 -9999 -9999 -9999 -9999 -9999 -9999 -9999 -9999 -9999 -9999 -9999 -9999 -9999 -9999 -9999 -9999 -9999 -9999 -9999 -9999 -9999
-9999 -9999 -9999 -9999 -9999 -9999 -9999 -9999 -9999 -9999 -9999 -9999 -9999 -9999 539.9092 538.07 536.6237 535.7737 534.7696 533.1239 531.908 531.0621 530.3135 529.5989 529.0858 528.806 528.4119 527.8783 527.3229 526.7889 526.2083 525.4617 524.4675 523.5552 522.8527 522.544 522.5507 522.8076 523.3064 523.7032 524.2576 524.7872 525.0975 525.2973 525.4653 525.7382 525.7761 525.7762 525.7759 525.7769 525.777 525.7724 525.777 525.8803 526.2853 526.4752 526.693 527.1497 527.3748 527.4261 527.4237 527.4444 527.5211 527.6953 527.5234 527.4458 527.3917 527.2993 527.1843 526.8728 526.738 526.6617 526.5202 526.3729 526.3043 526.2753 526.2421 526.1859 526.1632 526.2193 526.4191 526.65 526.9657 527.2897 527.5267 527.731 527.9567 528.2844 528.8138 529.6663 530.6635 531.53 531.6792 531.6771 531.7931 531.951 531.812 531.6263 531.0703 530.2209 529.3729 528.8306 528.6177 528.6547 528.8259 528.9511 529.1279 529.3413 529.5964 529.9292 530.3127 530.5983 531.1049 531.6277 531.8922 532.1666 532.3817 532.4616 532.4589 533.2892 535.014 536.166 537.2168 538.3505 539.7529 540.0737 539.4933 538.2242 536.4751 534.5207 533.6074 533.3363 533.3182 533.4556 533.5509 533.4567 533.0616 532.2993 531.1141 529.4924 527.7678 526.1256 524.8803 524.7042 523.9797 523.3842 523.1904 523.4694 524.2118 525.417 526.8885 528.3919 529.6789 530.7435 531.6392 532.0709 532.2539 532.5561 533.4446 535.1183 536.8123 538.3463 539.9285 -9999 -9999 -9999 -9999 -9999 -9999 -9999 -9999 -9999 -9999 -9999 -9999 -9999 -9999 -9999 -9999 -9999 -9999 -9999 -9999 -9999 -9999 -9999 -9999 -9999 -9999 -9999 -9999 -9999 -9999 -9999 -9999 -9999 -9999 -9999 -9999 -9999 -9999 -9999 -9999 -9999 -9999 -9999 -9999 -9999 -9999 -9999 -9999 -9999 -9999 -9999 -9999 -9999 -9999 -9999 -9999 -9999 -9999 -9999 -9999 -9999 -9999 -9999 -9999 -9999 -9999 -9999 -9999 542.2143 542.2014 542.0068 541.6464 540.5751 539.0772 537.2932 535.7696 534.601 533.9315 533.7895 534.2253 534.8627 535.4307 535.8198 536.3165 537.1013 537.6452 537.6986 538.0038 538.1617 538.2234 -9999 -9999 -9999 -9999 -9999 -9999 -9999 -9999 -9999 -9999 -9999 -9999 -9999 -9999 -9999 -9999 -9999 -9999 -9999 -9999 -9999 -9999 -9999 -9999
-9999 -9999 -9999 -9999 -9999 -9999 -9999 -9999 -9999 -9999 -9999 -9999 -9999 -9999 537.5598 535.8781 534.6019 534.0605 533.497 532.3857 531.849 531.2721 530.3761 529.545 528.8734 528.4785 528.0063 527.3925 526.8184 526.2607 525.6249 524.6304 523.6126 522.6541 521.8081 521.2665 521.2905 521.8068 522.4384 522.8979 523.5591 524.1509 524.3812 524.7061 524.9041 525.1588 525.2628 525.3155 525.3425 525.3541 525.3514 525.3419 525.3541 525.4644 525.7313 525.7878 525.8826 526.2648 526.4505 526.5751 526.6381 526.7222 526.8943 527.1346 526.8946 526.7303 526.6523 526.571 526.4347 526.2915 526.205 526.094 525.842 525.7832 525.7783 525.7809 525.7823 525.7804 525.7786 525.7957 526.0107 526.2084 526.5449 526.933 527.2879 527.5621 527.8069 528.0676 528.4216 528.957 529.7599 530.5261 530.9886 531.0789 531.0746 530.995 530.6702 530.5222 530.2363 529.554 528.8467 528.4229 528.3025 528.4056 528.6323 528.8338 529.0145 529.1992 529.386 529.5726 529.7687 529.9409 530.2298 530.5812 531.1061 531.6224 531.9745 532.0771 532.1085 532.6772 534.3889 535.8143 537.1173 538.4319 539.8751 539.8641 538.7833 537.0357 534.8846 533.5126 532.879 532.7429 532.772 532.9573 533.0868 532.9603 532.4543 531.5317 530.1591 528.5387 526.8926 525.405 524.3449 524.0677 523.6758 523.1584 523.0936 523.5321 524.3565 525.6962 527.2471 528.8309 530.3112 531.5538 532.1102 532.243 532.2083 532.3451 533.0931 535.1827 537.2192 538.724 540.0187 541.2481 -9999 -9999 -9999 -9999 -9999 -9999 -9999 -9999 -9999 -9999 -9999 -9999 -9999 -9999 -9999 -9999 -9999 -9999 -9999 -9999 -9999 -9999 -9999 -9999 -9999 -9999 -9999 -9999 -9999 -9999 -9999 -9999 -9999 -9999 -9999 -9999 -9999 -9999 -9999 -9999 -9999 -9999 -9999 -9999 -9999 -9999 -9999 -9999 -9999 -9999 -9999 -9999 -9999 -9999 -9999 -9999 -9999 -9999 -9999 -9999 -9999 -9999 -9999 -9999 -9999 -9999 -9999 -9999 541.6468 541.1177 540.6151 540.4229 539.9578 539.2336 538.1883 537.228 536.5727 536.2523 536.6043 537.2339 537.6811 537.9575 538.3111 538.8574 539.2225 538.8724 538.7798 538.8948 -9999 -9999 -9999 -9999 -9999 -9999 -9999 -9999 -9999 -9999 -9999 -9999 -9999 -9999 -9999 -9999 -9999 -9999 -9999 -9999 -9999 -9999 -9999 -9999 -9999
-9999 -9999 -9999 -9999 -9999 -9999 -9999 -9999 -9999 -9999 -9999 -9999 -9999 -9999 535.1695 533.8267 532.8502 532.6837 532.4776 532.0261 531.9232 531.6403 530.5048 529.5725 528.8367 528.3124 527.808 527.2388 526.4365 525.7844 525.11 524.1974 522.9939 521.8524 520.7819 519.8893 519.8647 520.5821 521.245 521.9771 522.7518 523.4261 523.8634 524.2213 524.3221 524.5942 524.7122 524.8224 524.8884 524.9324 524.9526 524.9619 524.9877 525.075 525.2289 525.3225 525.468 525.746 525.8251 526.0338 526.1256 526.1971 526.3036 526.4025 526.2986 526.1989 526.1331 526.0394 525.821 525.7815 525.7809 525.7528 525.5118 525.3945 525.3722 525.3983 525.4466 525.499 525.5483 525.6172 525.7707 525.803 526.114 526.5079 526.8917 527.2831 527.5946 527.8418 528.0625 528.3806 528.8981 529.5355 529.9738 530.1244 530.1143 530.0017 529.7819 529.6023 529.3034 528.6806 528.1252 527.8743 527.9055 528.1162 528.451 528.8135 528.9636 529.1199 529.2616 529.3627 529.4366 529.5071 529.655 529.9019 530.3166 530.7737 531.6676 531.8927 531.9849 532.4683 533.6444 535.5425 537.1327 538.569 539.9337 539.4965 537.9272 535.7471 534.0761 533.0067 532.4156 532.2368 532.2769 532.4915 532.6 532.3473 531.5856 530.3545 528.8993 527.3756 525.8694 524.5646 523.7875 523.4281 523.0945 522.7478 522.9299 523.6257 524.4689 525.7682 527.3037 528.9108 530.4724 531.7717 532.2292 532.2319 532.0842 532.1383 532.8497 534.9857 537.282 538.9916 540.201 541.3454 -9999 -9999 -9999 -9999 -9999 -9999 -9999 -9999 -9999 -9999 -9999 -9999 -9999 -9999 -9999 -9999 -9999 -9999 -9999 -9999 -9999 -9999 -9999 -9999 -9999 -9999 -9999 -9999 -9999 -9999 -9999 -9999 -9999 -9999 -9999 -9999 -9999 -9999 -9999 -9999 -9999 -9999 -9999 -9999 -9999 -9999 -9999 -9999 -9999 -9999 -9999 -9999 -9999 -9999 -9999 -9999 -9999 -9999 -9999 -9999 -9999 -9999 -9999 -9999 -9999 -9999 -9999 -9999 -9999 539.7676 539.531 539.9292 540.3668 540.6609 540.3685 539.7865 539.1905 538.6368 538.7828 539.2875 539.6093 539.8096 540.0864 540.3517 540.4 539.9321 -9999 -9999 -9999 -9999 -9999 -9999 -9999 -9999 -9999 -9999 -9999 -9999 -9999 -9999 -9999 -9999 -9999 -9999 -9999 -9999 -9999 -9999 -9999 -9999 -9999 -9999 -9999
-9999 -9999 -9999 -9999 -9999 -9999 -9999 -9999 -9999 -9999 -9999 -9999 -9999 -9999 -9999 532.2789 531.8605 531.9462 531.9988 531.9998 532.0117 531.7468 530.5519 529.5963 528.8311 528.2034 527.626 527.0483 526.024 525.3729 524.725 523.9475 522.6843 521.244 519.7729 518.6006 518.4009 519.0455 519.7953 520.8322 521.8024 522.6188 523.2642 523.7351 524.0046 524.2479 524.2791 524.4333 524.507 524.5787 524.6216 524.6497 524.6826 524.7496 524.8586 524.9791 525.1479 525.3727 525.5436 525.7626 525.78 525.778 525.7825 525.7929 525.7813 525.7773 525.7795 525.7631 525.5594 525.4625 525.4209 525.3575 525.1965 525.0885 525.067 525.1185 525.214 525.3196 525.4097 525.4838 525.558 525.5968 525.7867 526.0997 526.3948 526.8329 527.2795 527.5748 527.6956 527.8313 528.1091 528.5778 528.934 529.0744 529.0824 529.0144 528.875 528.6711 528.3783 527.6487 527.3352 527.3138 527.5172 527.7927 528.1838 528.5813 528.8375 529.073 529.2079 529.2679 529.28 529.2914 529.361 529.5514 529.9057 530.4178 531.3008 531.8461 532.1272 532.7361 533.9802 535.8978 537.6508 538.9893 539.9774 539.0087 537.15 534.8381 533.701 532.8729 532.1849 531.7988 531.8252 532.1052 532.1506 531.6445 530.4287 529.0002 527.6019 526.2987 525.0278 524.0051 523.3593 522.9898 522.7194 522.5328 522.8398 523.9088 524.7949 525.9114 527.3582 528.9154 530.4705 531.7798 532.1997 532.166 531.9995 532.0212 532.6836 534.4354 536.9769 539.135 540.5125 541.7783 542.9973 -9999 -9999 -9999 -9999 -9999 -9999 -9999 -9999 -9999 -9999 -9999 -9999 -9999 -9999 -9999 -9999 -9999 -9999 -9999 -9999 -9999 -9999 -9999 -9999 -9999 -9999 -9999 -9999 -9999 -9999 -9999 -9999 -9999 -9999 -9999 -9999 -9999 -9999 -9999 -9999 -9999 -9999 -9999 -9999 -9999 -9999 -9999 -9999 -9999 -9999 -9999 -9999 -9999 -9999 -9999 -9999 -9999 -9999 -9999 -9999 -9999 -9999 -9999 -9999 -9999 -9999 -9999 -9999 -9999 538.0778 539.021 540.3066 541.5571 541.6993 541.6149 541.2382 540.6519 540.6066 540.827 541.0009 541.224 541.6893 541.9437 -9999 -9999 -9999 -9999 -9999 -9999 -9999 -9999 -9999 -9999 -9999 -9999 -9999 -9999 -9999 -9999 -9999 -9999 -9999 -9999 -9999 -9999 -9999 -9999 -9999 -9999 -9999 -9999 -9999
-9999 -9999 -9999 -9999 -9999 -9999 -9999 -9999 -9999 -9999 -9999 -9999 -9999 -9999 -9999 531.3591 531.2583 531.4764 531.735 531.9337 532.0004 531.7526 530.5544 529.5956 528.8203 528.0898 527.3654 526.6973 525.8229 525.1111 524.3546 523.5142 522.3721 520.9048 519.299 518.0278 517.3636 517.5328 518.2151 519.3873 520.6044 521.5364 522.4872 523.184 523.653 523.9708 524.1227 524.2582 524.2628 524.3445 524.3881 524.427 524.459 524.5104 524.5983 524.7244 524.8955 525.0938 525.2697 525.4177 525.4374 525.4086 525.3768 525.3669 525.3826 525.4188 525.4542 525.4451 525.3316 525.2368 525.158 525.0645 524.9391 524.8524 524.8466 524.9268 525.0652 525.2164 525.3358 525.405 525.4332 525.4509 525.5569 525.7532 525.8463 526.291 526.8093 527.2349 527.3013 527.3042 527.3357 527.5253 527.9608 528.0936 528.1089 528.0814 527.9539 527.5604 527.3521 527.0457 526.9412 527.0457 527.2922 527.5226 527.9518 528.4313 528.8259 529.0919 529.2315 529.2615 529.2449 529.2466 529.317 529.5264 529.9133 530.462 531.3096 531.91 532.4274 533.2103 534.5847 536.7161 538.5652 539.7583 539.5587 538.0832 535.9816 534.7177 533.8401 533.0585 532.1243 531.4218 531.3406 531.7471 531.6913 530.7778 529.2114 527.7427 526.5175 525.4054 524.3304 523.5595 523.0623 522.7373 522.4779 522.4026 522.8276 524.0361 525.1303 526.2538 527.6451 529.0501 530.4788 531.7577 532.1423 532.1219 531.9777 531.9408 532.3653 533.6465 536.2521 538.7809 540.47 541.9957 543.501 -9999 -9999 -9999 -9999 -9999 -9999 -9999 -9999 -9999 -9999 -9999 -9999 -9999 -9999 -9999 -9999 -9999 -9999 -9999 -9999 -9999 -9999 -9999 -9999 -9999 -9999 -9999 -9999 -9999 -9999 -9999 -9999 -9999 -9999 -9999 -9999 -9999 -9999 -9999 -9999 -9999 -9999 -9999 -9999 -9999 -9999 -9999 -9999 -9999 -9999 -9999 -9999 -9999 -9999 -9999 -9999 -9999 -9999 -9999 -9999 -9999 -9999 -9999 -9999 -9999 -9999 -9999 -9999 -9999 -9999 538.2048 540.0759 541.5894 542.1488 542.5173 542.5397 542.3909 542.4688 542.3694 -9999 -9999 -9999 -9999 -9999 -9999 -9999 -9999 -9999 -9999 -9999 -9999 -9999 -9999 -9999 -9999 -9999 -9999 -9999 -9999 -9999 -9999 -9999 -9999 -9999 -9999 -9999 -9999 -9999 -9999 -9999 -9999 -9999
-9999 -9999 -9999 -9999 -9999 -9999 -9999 -9999 -9999 -9999 -9999 -9999 -9999 -9999 -9999 530.8675 531.0063 531.364 531.7527 532.006 531.9998 531.7319 530.5316 529.5526 528.811 528.0563 527.3043 526.5648 525.7849 525.0417 524.2062 523.1234 521.9071 520.657 519.3755 518.0524 516.9321 516.6682 516.931 517.8972 519.1608 520.3192 521.4166 522.4539 523.1933 523.689 523.9803 524.1488 524.2055 524.2598 524.2604 524.3019 524.3248 524.3632 524.4322 524.5451 524.7006 524.8735 525.0236 525.1243 525.1389 525.1045 525.0696 525.0682 525.113 525.1919 525.2676 525.2831 525.2277 525.1443 525.0293 524.8996 524.7738 524.6965 524.7039 524.8075 524.9796 525.1643 525.3026 525.3611 525.3479 525.3064 525.3053 525.3652 525.4599 525.7877 526.2466 526.6576 526.9076 527.0201 527.028 527.098 527.2989 527.3922 527.4063 527.3665 527.2382 526.9933 526.8469 526.7493 526.7877 526.9529 527.1661 527.3251 527.8152 528.3555 528.8252 529.118 529.2672 529.3087 529.2922 529.308 529.4417 529.7442 530.2897 531.0081 531.7962 532.3806 532.9675 533.847 535.3762 537.7465 539.4414 539.7524 538.8135 537.0415 534.874 534.6048 533.8281 532.9866 532.0778 531.3397 530.8593 531.4829 531.2361 529.8256 528.1341 526.7952 525.6292 524.5324 523.7639 523.2297 522.8983 522.711 522.395 522.342 522.8296 524.1377 525.5606 526.971 528.3524 529.4254 530.5208 531.6837 532.0559 532.1327 532.0865 532.0552 532.2789 533.1469 535.4287 538.1248 540.2109 542.0342 543.7624 -9999 -9999 -9999 -9999 -9999 -9999 -9999 -9999 -9999 -9999 -9999 -9999 -9999 -9999 -9999 -9999 -9999 -9999 -9999 -9999 -9999 -9999 -9999 -9999 -9999 -9999 -9999 -9999 -9999 -9999 -9999 -9999 -9999 -9999 -9999 -9999 -9999 -9999 -9999 -9999 -9999 -9999 -9999 -9999 -9999 -9999 -9999 -9999 -9999 -9999 -9999 -9999 -9999 -9999 -9999 -9999 -9999 -9999 -9999 -9999 -9999 -9999 -9999 -9999 -9999 -9999 -9999 -9999 -9999 -9999 -9999 -9999 -9999 -9999 -9999 -9999 -9999 -9999 -9999 -9999 -9999 -9999 -9999 -9999 -9999 -9999 -9999 -9999 -9999 -9999 -9999 -9999 -9999 -9999 -9999 -9999 -9999 -9999 -9999 -9999 -9999 -9999 -9999 -9999 -9999 -9999 -9999 -9999 -9999 -9999 -9999 -9999
-9999 -9999 -9999 -9999 -9999 -9999 -9999 -9999 -9999 -9999 -9999 -9999 -9999 -9999 -9999 -9999 531.1641 531.6877 532.2228 532.4684 532.0558 531.681 530.4644 529.4142 528.7548 528.0311 527.2928 526.5066 525.7848 525.035 524.1247 522.8107 521.4931 520.5609 519.6594 518.7048 517.7914 516.9249 516.6589 516.8273 517.7992 519.1105 520.2954 521.4515 522.5747 523.3301 523.7947 524.0516 524.1655 524.217 524.2303 524.2599 524.2601 524.2924 524.3439 524.4324 524.5598 524.7023 524.8226 524.8944 524.9047 524.8785 524.8633 524.9005 525.0051 525.166 525.3301 525.389 525.3707 525.2813 525.088 524.882 524.7139 524.6212 524.6288 524.7427 524.9326 525.1349 525.2808 525.3254 525.2717 525.1667 525.0765 525.0471 525.1149 525.3633 525.7595 526.1777 526.6816 526.9961 526.9825 526.9244 526.9336 526.9392 526.9248 526.8839 526.7966 526.6788 526.6299 526.661 526.7991 527.0275 527.2897 527.4732 527.8751 528.3679 528.8274 529.1358 529.3022 529.3605 529.3837 529.4468 529.6506 530.0537 530.7092 531.6604 532.3873 533.0001 533.6182 534.4942 536.2119 538.6289 539.6995 539.3436 537.802 535.6729 534.2503 533.8195 533.3358 532.601 531.77 530.9396 530.4137 531.1899 530.2294 528.8077 527.3605 526.1272 524.9782 524.0439 523.4169 523.0103 522.7341 522.5287 522.3024 522.3274 522.8624 524.2086 525.7578 527.2814 528.6526 529.5918 530.4459 531.389 531.8959 532.1915 532.3553 532.4739 532.6781 533.2473 534.6091 537.3062 539.8085 541.9498 543.8363 545.6819 -9999 -9999 -9999 -9999 -9999 -9999 -9999 -9999 -9999 -9999 -9999 -9999 -9999 -9999 -9999 -9999 -9999 -9999 -9999 -9999 -9999 -9999 -9999 -9999 -9999 -9999 -9999 -9999 -9999 -9999 -9999 -9999 -9999 -9999 -9999 -9999 -9999 -9999 -9999 -9999 -9999 -9999 -9999 -9999 -9999 -9999 -9999 -9999 -9999 -9999 -9999 -9999 -9999 -9999 -9999 -9999 -9999 -9999 -9999 -9999 -9999 -9999 -9999 -9999 -9999 -9999 -9999 -9999 -9999 -9999 -9999 -9999 -9999 -9999 -9999 -9999 -9999 -9999 -9999 -9999 -9999 -9999 -9999 -9999 -9999 -9999 -9999 -9999 -9999 -9999 -9999 -9999 -9999 -9999 -9999 -9999 -9999 -9999 -9999 -9999 -9999 -9999 -9999 -9999 -9999 -9999 -9999 -9999 -9999 -9999 -9999
-9999 -9999 -9999 -9999 -9999 -9999 -9999 -9999 -9999 -9999 -9999 -9999 -9999 -9999 -9999 -9999 531.7839 532.547 533.4282 533.4651 532.4289 531.6786 530.3994 529.1939 528.5796 527.9564 527.2472 526.3616 525.7228 525.0078 524.105 522.7379 521.462 520.7598 520.1566 519.6136 519.0518 518.1591 517.4438 516.84 516.9948 518.1047 519.2504 520.4684 521.8234 522.8804 523.5382 523.9121 524.0927 524.1632 524.1825 524.198 524.2136 524.2598 524.3035 524.3669 524.4615 524.5731 524.668 524.7241 524.7377 524.736 524.7676 524.8793 525.0938 525.4033 525.7506 525.9023 525.9189 525.7722 525.3903 525.0283 524.7581 524.6137 524.6 524.7072 524.8966 525.0993 525.2413 525.2727 525.1899 525.0393 524.8934 524.8163 524.8594 525.0636 525.4141 525.8888 526.739 527.2662 527.1172 526.8943 526.7468 526.6629 526.6158 526.5808 526.5454 526.5224 526.5606 526.6805 526.8823 527.1219 527.3084 527.5885 527.9705 528.4098 528.8292 529.1364 529.3225 529.416 529.4911 529.64 529.9627 530.5314 531.481 532.261 532.9824 533.6744 534.3027 534.9199 536.7872 539.1314 539.7324 538.8438 536.8737 534.5698 533.6747 533.1877 532.7108 532.1608 531.4684 530.659 529.9105 529.9973 528.9901 527.7495 526.682 525.6555 524.4878 523.7119 523.2133 522.9174 522.7272 522.4752 522.3126 522.4609 523.1143 524.4542 525.9799 527.4451 528.7385 529.6282 530.3956 531.2424 531.8818 532.3065 532.694 533.0826 533.4744 533.97 534.7605 536.9703 539.539 541.8417 543.7766 545.5746 -9999 -9999 -9999 -9999 -9999 -9999 -9999 -9999 -9999 -9999 -9999 -9999 -9999 -9999 -9999 -9999 -9999 -9999 -9999 -9999 -9999 -9999 -9999 -9999 -9999 -9999 -9999 -9999 -9999 -9999 -9999 -9999 -9999 -9999 -9999 -9999 -9999 -9999 -9999 -9999 -9999 -9999 -9999 -9999 -9999 -9999 -9999 -9999 -9999 -9999 -9999 -9999 -9999 -9999 -9999 -9999 -9999 -9999 -9999 -9999 -9999 -9999 -9999 -9999 -9999 -9999 -9999 -9999 -9999 -9999 -9999 -9999 -9999 -9999 -9999 -9999 -9999 -9999 -9999 -9999 -9999 -9999 -9999 -9999 -9999 -9999 -9999 -9999 -9999 -9999 -9999 -9999 -9999 -9999 -9999 -9999 -9999 -9999 -9999 -9999 -9999 -9999 -9999 -9999 -9999 -9999 -9999 -9999 -9999 -9999 -9999
-9999 -9999 -9999 -9999 -9999 -9999 -9999 -9999 -9999 -9999 -9999 -9999 -9999 -9999 -9999 -9999 532.9 533.9202 534.5263 534.1433 532.9476 531.8113 530.5817 529.4861 528.6718 527.9543 527.1528 526.0333 525.4592 524.8922 524.1021 522.8059 521.7433 521.1267 520.609 520.2426 519.9079 519.4607 518.9402 518.2306 517.9792 518.0081 518.4103 519.4955 521.0139 522.3769 523.2047 523.7038 523.9611 524.0636 524.0897 524.1004 524.1249 524.1821 524.2597 524.3188 524.3882 524.4747 524.5522 524.6044 524.6354 524.6785 524.7902 525.0258 525.4137 525.9503 526.5814 527.0842 527.1633 526.7346 525.9711 525.3398 524.8887 524.6487 524.5905 524.6736 524.8447 525.0328 525.1625 525.1855 525.095 524.9333 524.7775 524.7052 524.7806 525.0406 525.4949 526.163 527.2087 527.7064 527.3198 526.9392 526.6608 526.4956 526.4191 526.3962 526.4036 526.4478 526.5536 526.7362 526.9937 527.2911 527.4711 527.7334 528.0746 528.4576 528.8294 529.1279 529.3348 529.4728 529.6134 529.8544 530.3256 531.0912 531.8998 532.6424 533.4333 534.3107 535.09 535.2281 537.4671 539.496 539.6194 538.2009 535.7475 534.1293 533.5604 532.9055 532.3286 531.7774 531.2783 530.8203 530.3205 529.1068 527.8902 526.9874 526.1675 525.3029 524.2493 523.5219 523.0874 522.8513 522.7219 522.4581 522.386 522.7551 523.8115 525.1063 526.5104 527.7465 528.8062 529.6349 530.3726 531.1538 531.8367 532.276 532.8398 533.5112 534.2299 535.013 535.8777 536.8289 539.301 541.6717 543.5387 545.1728 -9999 -9999 -9999 -9999 -9999 -9999 -9999 -9999 -9999 -9999 -9999 -9999 -9999 -9999 -9999 -9999 -9999 -9999 -9999 -9999 -9999 -9999 -9999 -9999 -9999 -9999 -9999 -9999 -9999 -9999 -9999 -9999 -9999 -9999 -9999 -9999 -9999 -9999 -9999 -9999 -9999 -9999 -9999 -9999 -9999 -9999 -9999 -9999 -9999 -9999 -9999 -9999 -9999 -9999 -9999 -9999 -9999 -9999 -9999 -9999 -9999 -9999 -9999 -9999 -9999 -9999 -9999 -9999 -9999 -9999 -9999 -9999 -9999 -9999 -9999 -9999 -9999 -9999 -9999 -9999 -9999 -9999 -9999 -9999 -9999 -9999 -9999 -9999 -9999 -9999 -9999 -9999 -9999 -9999 -9999 -9999 -9999 -9999 -9999 -9999 -9999 -9999 -9999 -9999 -9999 -9999 -9999 -9999 -9999 -9999 -9999
-9999 -9999 -9999 -9999 -9999 -9999 -9999 -9999 -9999 -9999 -9999 -9999 -9999 -9999 -9999 -9999 534.7101 535.6967 535.9116 534.9504 533.3177 531.9464 530.8031 529.7209 528.7952 527.9928 527.1259 525.9321 525.3057 524.7971 524.0963 522.8586 521.9236 521.2652 520.8803 520.6158 520.3995 520.1402 519.8444 519.504 519.1549 518.459 518.2725 518.782 520.2529 521.7045 522.7755 523.4269 523.7694 523.9093 523.9448 523.9583 523.9929 524.0644 524.1704 524.2598 524.3218 524.3981 524.4694 524.528 524.5896 524.6995 524.9282 525.3542 526.0335 526.9763 527.748 528.4724 528.6404 527.995 526.8796 525.7748 525.0544 524.6884 524.574 524.623 524.7645 524.9269 525.0416 525.0659 524.9949 524.8647 524.7521 524.7413 524.9199 525.3398 526.0424 527.0722 528.0554 528.5269 527.7256 527.0959 526.6522 526.3979 526.288 526.2737 526.3165 526.4052 526.5512 526.761 527.0229 527.3009 527.545 527.824 528.1487 528.4948 528.8289 529.1129 529.3513 529.5488 529.7599 530.0625 530.5973 531.5912 532.2313 532.8463 533.6229 534.6393 535.5967 536.6524 538.7109 539.8013 539.2987 537.1577 534.5115 533.3796 533.0129 532.61 532.1183 531.4869 530.8353 530.9784 529.6343 528.1386 527.1984 526.4875 525.7154 524.6252 523.8634 523.3185 522.9664 522.7327 522.5574 522.3524 522.3628 522.8508 524.1329 525.6072 527.0089 528.0182 528.8486 529.6277 530.3502 531.0231 531.5907 531.9614 532.5428 533.1891 533.856 534.5035 535.0853 536.2719 538.9274 541.3742 543.0873 544.4377 -9999 -9999 -9999 -9999 -9999 -9999 -9999 -9999 -9999 -9999 -9999 -9999 -9999 -9999 -9999 -9999 -9999 -9999 -9999 -9999 -9999 -9999 -9999 -9999 -9999 -9999 -9999 -9999 -9999 -9999 -9999 -9999 -9999 -9999 -9999 -9999 -9999 -9999 -9999 -9999 -9999 -9999 -9999 -9999 -9999 -9999 -9999 -9999 -9999 -9999 -9999 -9999 -9999 -9999 -9999 -9999 -9999 -9999 -9999 -9999 -9999 -9999 -9999 -9999 -9999 -9999 -9999 -9999 -9999 -9999 -9999 -9999 -9999 -9999 -9999 -9999 -9999 -9999 -9999 -9999 -9999 -9999 -9999 -9999 -9999 -9999 -9999 -9999 -9999 -9999 -9999 -9999 -9999 -9999 -9999 -9999 -9999 -9999 -9999 -9999 -9999 -9999 -9999 -9999 -9999 -9999 -9999 -9999 -9999 -9999 -9999
-9999 -9999 -9999 -9999 -9999 -9999 -9999 -9999 -9999 -9999 -9999 -9999 -9999 -9999 -9999 -9999 536.5832 537.4144 537.2843 535.7943 533.704 532.17 531.1586 530.0998 528.9293 528.0355 527.1292 525.9138 525.2324 524.7398 524.1179 522.9915 522.2271 521.6427 521.2286 520.9069 520.6708 520.4519 520.2462 520.0278 519.7438 519.3344 518.6877 519.0405 519.9814 521.3007 522.4767 523.1489 523.543 523.7131 523.757 523.7852 523.8485 523.9581 524.0828 524.1884 524.2604 524.3408 524.4147 524.4885 524.5898 524.7767 525.1426 525.8096 526.9432 528.1389 529.2023 530.0224 530.1067 529.167 527.6605 526.0569 525.1399 524.6898 524.5372 524.556 524.6639 524.7988 524.9038 524.9447 524.924 524.8688 524.8499 524.9397 525.2656 525.8962 526.9198 527.9639 528.8102 529.0828 528.453 527.3698 526.6961 526.3395 526.1961 526.184 526.2509 526.3703 526.5403 526.7617 527.0234 527.3 527.5722 527.8658 528.1854 528.5131 528.8286 529.1043 529.3876 529.6726 529.9951 530.4098 531.1052 531.8897 532.4563 532.9567 533.6234 534.6017 535.9198 538.1144 539.9059 540.1 538.7057 536.0969 533.6545 532.7591 532.5703 532.4492 532.1555 531.6501 530.9799 529.8309 528.3856 527.3912 526.7628 526.2596 525.5977 524.4178 523.6808 523.2138 522.9272 522.7269 522.4711 522.2605 522.305 522.8538 524.2084 525.7623 527.1832 528.1565 528.8638 529.6262 530.342 530.9521 531.4651 531.8646 532.1718 532.5601 533.0225 533.5036 533.7057 535.6163 538.4714 540.9459 542.5236 543.6453 -9999 -9999 -9999 -9999 -9999 -9999 -9999 -9999 -9999 -9999 -9999 -9999 -9999 -9999 -9999 -9999 -9999 -9999 -9999 -9999 -9999 -9999 -9999 -9999 -9999 -9999 -9999 -9999 -9999 -9999 -9999 -9999 -9999 -9999 -9999 -9999 -9999 -9999 -9999 -9999 -9999 -9999 -9999 -9999 -9999 -9999 -9999 -9999 -9999 -9999 -9999 -9999 -9999 -9999 -9999 -9999 -9999 -9999 -9999 -9999 -9999 -9999 -9999 -9999 -9999 -9999 -9999 -9999 -9999 -9999 -9999 -9999 -9999 -9999 -9999 -9999 -9999 -9999 -9999 -9999 -9999 -9999 -9999 -9999 -9999 -9999 -9999 -9999 -9999 -9999 -9999 -9999 -9999 -9999 -9999 -9999 -9999 -9999 -9999 -9999 -9999 -9999 -9999 -9999 -9999 -9999 -9999 -9999 -9999 -9999 -9999
-9999 -9999 -9999 -9999 -9999 -9999 -9999 -9999 -9999 -9999 -9999 -9999 -9999 -9999 -9999 -9999 537.9863 538.3031 537.8203 536.2919 534.0458 532.4812 531.5405 530.2964 528.9858 528.0476 527.131 525.9093 525.1881 524.7079 524.2033 523.3759 522.7139 522.1881 521.7878 521.2811 520.9073 520.6092 520.3701 520.1344 519.8046 519.3558 518.9135 519.4846 520.1208 521.0928 522.0062 522.7819 523.2799 523.4926 523.5454 523.6097 523.7289 523.869 524.0131 524.1464 524.2595 524.3125 524.3828 524.4761 524.6208 524.8792 525.3524 526.1662 527.6259 529.1989 530.6302 531.5152 531.1762 529.8681 527.951 526.1331 525.1403 524.6666 524.5035 524.5032 524.5815 524.6947 524.8066 524.8883 524.9517 525.0104 525.1328 525.3269 525.8005 526.595 527.6319 528.7161 529.4418 529.5767 528.7641 527.486 526.7178 526.3013 526.1301 526.1169 526.1971 526.3354 526.521 526.7509 527.0162 527.2997 527.5826 527.8805 528.1963 528.5167 528.8283 529.1183 529.4509 529.8369 530.3058 530.8976 531.6927 532.3442 532.876 533.3578 534.0898 535.3796 537.5691 539.879 541.2924 540.5133 538.2718 535.3351 533.3848 532.5582 532.3431 532.2682 532.0094 531.2926 529.9343 528.444 527.4581 526.8555 526.5016 526.1757 525.6036 524.3997 523.6362 523.1837 522.9227 522.7273 522.4298 522.2018 522.2597 522.8383 524.2037 525.7836 527.2507 528.3085 528.9409 529.6732 530.3441 530.9316 531.3859 531.7272 531.881 531.963 532.1625 532.4972 533.0947 535.3735 538.1922 540.4216 541.9116 542.8859 -9999 -9999 -9999 -9999 -9999 -9999 -9999 -9999 -9999 -9999 -9999 -9999 -9999 -9999 -9999 -9999 -9999 -9999 -9999 -9999 -9999 -9999 -9999 -9999 -9999 -9999 -9999 -9999 -9999 -9999 -9999 -9999 -9999 -9999 -9999 -9999 -9999 -9999 -9999 -9999 -9999 -9999 -9999 -9999 -9999 -9999 -9999 -9999 -9999 -9999 -9999 -9999 -9999 -9999 -9999 -9999 -9999 -9999 -9999 -9999 -9999 -9999 -9999 -9999 -9999 -9999 -9999 -9999 -9999 -9999 -9999 -9999 -9999 -9999 -9999 -9999 -9999 -9999 -9999 -9999 -9999 -9999 -9999 -9999 -9999 -9999 -9999 -9999 -9999 -9999 -9999 -9999 -9999 -9999 -9999 -9999 -9999 -9999 -9999 -9999 -9999 -9999 -9999 -9999 -9999 -9999 -9999 -9999 -9999 -9999 -9999
-9999 -9999 -9999 -9999 -9999 -9999 -9999 -9999 -9999 -9999 -9999 -9999 -9999 -9999 -9999 -9999 538.6731 538.6748 537.9988 536.4735 534.2729 532.5204 531.6192 530.3313 528.9852 528.0362 527.1243 525.8989 525.142 524.661 524.2433 523.6855 523.1824 522.782 522.5444 521.9412 521.3058 520.8547 520.496 520.1663 519.7896 519.3754 519.1185 519.4811 520.0103 520.7314 521.5026 522.4991 523.0383 523.282 523.3451 523.4853 523.6365 523.7887 523.9387 524.0787 524.1939 524.2604 524.3517 524.474 524.6641 524.9912 525.5774 526.5919 528.2178 529.8936 531.3773 531.8677 531.2412 529.5759 527.6018 525.9709 525.0853 524.6693 524.5297 524.5233 524.5816 524.69 524.8384 524.995 525.1871 525.3842 525.7104 525.9847 526.5795 527.4778 528.5451 529.4001 530.0072 530.1678 529.1416 527.7175 526.8359 526.3339 526.1124 526.0785 526.1577 526.3041 526.4987 526.7352 527.0068 527.2995 527.5927 527.8922 528.2019 528.5144 528.8281 529.1558 529.5452 529.988 530.4675 531.2463 532.0687 532.9109 533.6255 534.2914 535.418 537.4465 539.6141 541.3578 541.8014 540.5181 537.7874 534.8193 533.2334 532.506 532.1901 531.9671 531.5006 530.3058 528.8054 527.5186 526.8364 526.509 526.3545 526.1486 525.6235 524.4131 523.63 523.1714 522.917 522.7281 522.4014 522.1608 522.2303 522.8295 524.1938 525.7907 527.3427 528.6104 529.2556 529.8217 530.3611 530.9221 531.3909 531.7159 531.88 531.7109 531.7124 532.1025 533.1732 535.5949 538.1924 540.0947 541.3995 542.2517 -9999 -9999 -9999 -9999 -9999 -9999 -9999 -9999 -9999 -9999 -9999 -9999 -9999 -9999 -9999 -9999 -9999 -9999 -9999 -9999 -9999 -9999 -9999 -9999 -9999 -9999 -9999 -9999 -9999 -9999 -9999 -9999 -9999 -9999 -9999 -9999 -9999 -9999 -9999 -9999 -9999 -9999 -9999 -9999 -9999 -9999 -9999 -9999 -9999 -9999 -9999 -9999 -9999 -9999 -9999 -9999 -9999 -9999 -9999 -9999 -9999 -9999 -9999 -9999 -9999 -9999 -9999 -9999 -9999 -9999 -9999 -9999 -9999 -9999 -9999 -9999 -9999 -9999 -9999 -9999 -9999 -9999 -9999 -9999 -9999 -9999 -9999 -9999 -9999 -9999 -9999 -9999 -9999 -9999 -9999 -9999 -9999 -9999 -9999 -9999 -9999 -9999 -9999 -9999 -9999 -9999 -9999 -9999 -9999 -9999 -9999
-9999 -9999 -9999 -9999 -9999 -9999 -9999 -9999 -9999 -9999 -9999 -9999 -9999 -9999 -9999 -9999 538.7866 538.6542 537.9302 536.4202 534.3704 532.5491 531.6168 530.3162 528.9687 528.0207 527.1091 525.8819 525.1073 524.6267 524.268 523.9496 523.6147 523.3524 523.1277 522.67 522.0049 521.381 520.8325 520.36 519.8955 519.4965 519.3035 519.4841 519.8667 520.436 521.1537 521.9669 522.6559 523.0519 523.2427 523.3923 523.5438 523.6961 523.8481 523.9977 524.1381 524.2591 524.3287 524.4685 524.6847 525.0253 525.5872 526.5076 527.8976 529.274 530.469 530.8637 529.8459 528.133 526.5943 525.6628 525.0764 524.7875 524.6978 524.6943 524.743 524.877 525.1157 525.3881 525.7855 526.1072 526.6748 527.1602 527.6669 528.5565 529.3925 529.9872 530.4223 530.5541 529.801 528.2912 527.1372 526.4699 526.1599 526.0811 526.1405 526.2816 526.478 526.7189 526.9967 527.2995 527.6062 527.918 528.2281 528.5289 528.8287 529.2336 529.7192 530.2848 530.908 531.7665 532.7205 533.7563 534.7305 535.736 537.667 539.7863 541.3627 542.0762 541.6482 539.7505 536.97 534.5574 533.1422 532.4484 532.0112 531.4399 530.5562 529.1641 527.7886 526.9113 526.4678 526.3146 526.2779 526.1363 525.6306 524.4175 523.6195 523.1395 522.8737 522.713 522.3458 522.1055 522.2001 522.8248 524.1887 525.7884 527.3745 528.7214 529.4309 529.9208 530.3666 530.9109 531.3898 531.7257 531.88 531.7053 531.61 531.9957 533.1997 535.8278 538.4028 539.9315 541.1085 542.0444 542.8025 543.2202 -9999 -9999 -9999 -9999 -9999 -9999 -9999 -9999 -9999 -9999 -9999 -9999 -9999 -9999 -9999 -9999 -9999 -9999 -9999 -9999 -9999 -9999 -9999 -9999 -9999 -9999 -9999 -9999 -9999 -9999 -9999 -9999 -9999 -9999 -9999 -9999 -9999 -9999 -9999 -9999 -9999 -9999 -9999 -9999 -9999 -9999 -9999 -9999 -9999 -9999 -9999 -9999 -9999 -9999 -9999 -9999 -9999 -9999 -9999 -9999 -9999 -9999 -9999 -9999 -9999 -9999 -9999 -9999 -9999 -9999 -9999 -9999 -9999 -9999 -9999 -9999 -9999 -9999 -9999 -9999 -9999 -9999 -9999 -9999 -9999 -9999 -9999 -9999 -9999 -9999 -9999 -9999 -9999 -9999 -9999 -9999 -9999 -9999 -9999 -9999 -9999 -9999 -9999 -9999 -9999 -9999 -9999 -9999 -9999
-9999 -9999 -9999 -9999 -9999 -9999 -9999 -9999 -9999 -9999 -9999 -9999 -9999 -9999 -9999 -9999 538.5154 538.3824 537.714 536.1899 534.5128 532.63 531.6205 530.3041 528.9708 528.0363 527.0992 525.8818 525.1394 524.6998 524.4315 524.2458 523.9888 523.8444 523.713 523.4173 522.8585 522.3434 521.4892 520.803 520.2034 519.7467 519.5262 519.5675 519.7659 520.1473 520.6805 521.3004 522.011 522.6434 522.9886 523.1791 523.3727 523.5507 523.7191 523.8826 524.0366 524.1663 524.2615 524.4492 524.6841 524.9917 525.4277 526.0661 527.2036 528.2103 528.8611 528.8621 527.7867 526.5328 526.0737 525.7393 525.3481 525.1411 525.0922 525.0907 525.1409 525.3464 525.7766 526.1994 526.9647 527.5092 528.1691 528.6713 529.0403 529.674 530.3645 530.7026 531.0904 531.1057 530.3325 528.8713 527.4684 526.6694 526.2662 526.1263 526.1511 526.2747 526.4641 526.7048 526.9868 527.2997 527.6253 527.9623 528.2981 528.6079 528.8598 529.3569 529.9168 530.4734 531.2709 532.1401 533.2683 534.4598 535.7783 537.2294 539.6107 541.3217 542.1906 542.0307 540.785 538.5555 535.8968 534.0619 532.9359 532.2905 531.7467 530.8666 529.5316 528.3724 527.3348 526.6486 526.3141 526.2361 526.2468 526.1259 525.6261 524.415 523.611 523.0864 522.7368 522.4994 522.1957 522.0142 522.1589 522.82 524.1887 525.7867 527.3773 528.7487 529.4965 529.961 530.3641 530.8846 531.3599 531.713 531.8799 531.8077 531.6884 532.0055 533.1228 535.5765 538.0353 539.4025 540.6337 541.7468 542.4718 542.8754 543.0226 542.8595 -9999 -9999 -9999 -9999 -9999 -9999 -9999 -9999 -9999 -9999 -9999 -9999 -9999 -9999 -9999 -9999 541.8671 543.31 544.5331 545.592 546.6539 548.0948 549.6343 550.8844 -9999 -9999 -9999 -9999 -9999 -9999 -9999 -9999 -9999 -9999 -9999 -9999 -9999 -9999 -9999 -9999 -9999 -9999 -9999 -9999 -9999 -9999 -9999 -9999 -9999 -9999 -9999 -9999 -9999 -9999 -9999 -9999 -9999 -9999 -9999 -9999 -9999 -9999 -9999 -9999 -9999 -9999 -9999 -9999 -9999 -9999 -9999 -9999 -9999 -9999 -9999 -9999 -9999 -9999 -9999 -9999 -9999 -9999 -9999 -9999 -9999 -9999 -9999 -9999 -9999 -9999 -9999 -9999 -9999 -9999 -9999 -9999 -9999 -9999 -9999 -9999 -9999 -9999 -9999 -9999 -9999 -9999 -9999
-9999 -9999 -9999 -9999 -9999 -9999 -9999 -9999 -9999 -9999 -9999 -9999 -9999 -9999 -9999 -9999 538.0464 537.9699 537.3744 536.1633 534.6481 532.6887 531.6326 530.3278 529.0663 528.1761 527.1683 526.0037 525.3221 524.9028 524.6531 524.4583 524.2722 524.2582 524.2581 524.1652 523.7179 523.2521 522.4647 521.5086 520.7357 520.1685 519.8885 519.8331 519.8232 519.9866 520.3259 520.7783 521.3051 521.9415 522.4532 522.7211 523.0631 523.3252 523.5433 523.7412 523.928 524.1005 524.2602 524.4644 524.6954 524.9733 525.3407 525.8293 526.4735 527.0112 527.1516 526.8818 526.1389 525.8521 526.4504 526.5159 526.0442 525.7775 525.7232 525.7366 525.8315 526.1757 526.9581 527.5953 528.5196 529.2237 529.9476 530.3043 530.4891 530.8218 531.5115 531.7686 531.8851 531.8062 531.0088 529.5322 527.9229 526.9617 526.4337 526.2122 526.1885 526.2855 526.4612 526.6964 526.9796 527.2999 527.6437 528.0116 528.403 528.8084 529.1093 529.6088 530.2643 530.9333 531.7614 532.6285 533.5928 534.4523 535.3371 537.8866 540.5897 542.073 542.3698 541.5178 539.5367 536.9475 534.5868 533.4649 532.6373 532.0299 531.4324 530.3629 529.0399 528.0391 527.2407 526.618 526.3053 526.235 526.2488 526.1271 525.6301 524.4514 523.6698 523.1138 522.7211 522.3832 522.0865 521.9427 522.1265 522.8174 524.1944 525.7911 527.3748 528.7276 529.48 529.9543 530.3602 530.8469 531.2859 531.6512 531.8604 531.8792 531.7769 531.9931 532.8629 534.6224 536.9032 538.6291 539.782 540.7982 541.6201 542.0927 542.4368 542.3916 541.9322 541.3328 -9999 -9999 -9999 -9999 -9999 -9999 -9999 -9999 -9999 -9999 -9999 537.4672 537.9296 538.6156 539.5455 540.7978 541.9993 543.0989 544.3185 545.8487 547.5299 549.0199 549.9935 550.5691 -9999 -9999 -9999 -9999 -9999 -9999 -9999 -9999 -9999 -9999 -9999 -9999 -9999 -9999 -9999 -9999 -9999 -9999 -9999 -9999 -9999 -9999 -9999 -9999 -9999 -9999 -9999 -9999 -9999 -9999 -9999 -9999 -9999 -9999 -9999 -9999 -9999 -9999 -9999 -9999 -9999 -9999 -9999 -9999 -9999 -9999 -9999 -9999 -9999 -9999 -9999 -9999 -9999 -9999 -9999 -9999 -9999 -9999 -9999 -9999 -9999 -9999 -9999 -9999 -9999 -9999 -9999 -9999 -9999 -9999 -9999 -9999 -9999 -9999 -9999 -9999 -9999 -9999 -9999 -9999 -9999
-9999 -9999 -9999 -9999 -9999 -9999 -9999 -9999 -9999 -9999 -9999 -9999 -9999 -9999 -9999 -9999 537.7167 537.4991 536.9788 535.9349 534.3464 532.5592 531.6297 530.4251 529.3882 528.5569 527.4803 526.5129 525.7953 525.3206 525.0535 524.8149 524.666 524.6429 524.6315 524.5583 524.3136 524.092 523.3956 522.4947 521.5147 520.7831 520.4337 520.3754 520.2672 520.0593 520.1891 520.4769 520.8177 521.1935 521.4478 521.943 522.6235 523.0299 523.3317 523.5806 523.8129 524.0425 524.2619 524.4763 524.6833 524.9116 525.2185 525.6406 525.7598 525.8453 525.8449 525.8109 526.1215 527.0591 528.0233 528.059 527.2974 526.619 526.372 526.5107 526.9108 527.5368 528.4595 529.1695 530.1279 530.8772 531.471 531.6616 531.7185 531.7949 531.9463 532.1112 532.2395 532.203 531.6193 530.1955 528.584 527.3172 526.62 526.3124 526.2416 526.3107 526.4691 526.6945 526.9752 527.2996 527.6481 528.0231 528.4187 528.8297 529.2369 529.7648 530.4073 531.2654 532.0165 532.9138 533.7703 534.5083 535.3281 538.0283 540.7712 542.1376 541.9465 540.4401 537.9911 535.2646 533.7077 533.0405 532.2571 531.5113 530.6971 530.0175 528.9239 528.0211 527.2615 526.6818 526.3795 526.2943 526.292 526.175 525.7162 524.6843 523.875 523.2159 522.722 522.3561 522.0571 521.9215 522.1179 522.8201 524.2039 525.7955 527.3397 528.6168 529.3052 529.8815 530.3539 530.7787 531.1838 531.5273 531.7936 531.88 531.8019 531.8762 532.3357 533.3321 535.1375 536.8409 538.0366 539.0414 539.9037 540.6069 541.2621 541.428 540.9547 540.2972 540.1858 540.8947 -9999 -9999 -9999 -9999 -9999 538.7177 537.8022 537.0129 536.2282 536.1226 536.4901 536.7548 537.3533 538.316 539.3966 540.4193 541.6802 543.1634 544.9115 546.6429 548.0575 549.2024 550.216 551.1737 -9999 -9999 -9999 -9999 -9999 -9999 -9999 -9999 -9999 -9999 -9999 -9999 -9999 -9999 -9999 -9999 -9999 -9999 -9999 -9999 -9999 -9999 -9999 -9999 -9999 -9999 -9999 -9999 -9999 -9999 -9999 -9999 -9999 -9999 -9999 -9999 -9999 -9999 -9999 -9999 -9999 -9999 -9999 -9999 -9999 -9999 -9999 -9999 -9999 -9999 -9999 -9999 -9999 -9999 -9999 -9999 -9999 -9999 -9999 -9999 -9999 -9999 -9999 -9999 -9999 -9999 -9999 -9999 -9999 -9999 -9999 -9999 -9999 -9999 -9999 -9999 -9999 -9999 -9999
-9999 -9999 -9999 -9999 -9999 -9999 -9999 -9999 -9999 -9999 -9999 -9999 -9999 -9999 -9999 -9999 537.1411 536.8885 536.5024 535.6314 534.0842 532.4498 531.6441 530.5753 529.679 528.874 528.0522 527.245 526.5265 525.9775 525.6842 525.3315 525.1631 525.0891 524.9893 524.9189 524.826 524.6805 524.2196 523.473 522.5884 521.5918 521.0631 520.9556 520.5825 520.2906 520.2753 520.4357 520.6108 520.8247 521.0162 521.326 522.1371 522.7362 523.1296 523.4147 523.6756 523.9559 524.2516 524.4373 524.595 524.7004 524.7883 524.89 525.0247 525.3098 525.7167 526.358 527.5551 528.9615 529.7686 529.3964 528.428 527.4282 527.0947 527.4756 528.2437 529.1078 530.0318 530.6381 531.4313 531.9724 532.2949 532.1778 532.0449 531.9556 531.903 532.0377 532.1945 532.2544 531.7874 530.4328 528.8287 527.4435 526.713 526.3833 526.2933 526.3445 526.4865 526.6991 526.9733 527.2992 527.6503 528.0236 528.4103 528.829 529.3412 529.9642 530.6556 531.6631 532.2717 532.8597 533.215 533.7126 534.9595 537.7288 540.3585 541.7111 541.074 539.1373 536.4516 533.9883 532.8651 532.314 531.637 530.7037 530.418 530.1857 529.2411 528.3422 527.4498 526.8765 526.5501 526.4259 526.3988 526.3176 526.0129 525.3692 524.2639 523.4032 522.7734 522.4456 522.1208 521.9567 522.1366 522.8297 524.2154 525.785 527.2298 528.2747 528.9742 529.7057 530.3068 530.6416 530.998 531.3702 531.6877 531.88 531.8591 531.8445 531.9932 532.4408 533.3361 534.644 535.4931 536.679 537.5763 538.3198 539.0659 539.5672 539.5612 539.2147 539.14 539.9185 540.9019 541.4868 541.0308 539.7207 538.0988 536.6595 535.8466 535.1713 534.6708 534.9686 535.5129 535.6165 535.9133 536.2095 536.897 537.7227 538.8787 540.2073 541.9782 543.965 545.8768 547.6104 549.1238 550.4824 551.7535 -9999 -9999 -9999 -9999 -9999 -9999 -9999 -9999 -9999 -9999 -9999 -9999 -9999 -9999 -9999 -9999 -9999 -9999 -9999 -9999 -9999 -9999 -9999 -9999 -9999 -9999 -9999 -9999 -9999 -9999 -9999 -9999 -9999 -9999 -9999 -9999 -9999 -9999 -9999 -9999 -9999 -9999 -9999 -9999 -9999 -9999 -9999 -9999 -9999 -9999 -9999 -9999 -9999 -9999 -9999 -9999 -9999 -9999 -9999 -9999 -9999 -9999 -9999 -9999 -9999 -9999 -9999 -9999 -9999 -9999 -9999 -9999 -9999 -9999 -9999 -9999 -9999 -9999
-9999 -9999 -9999 -9999 -9999 -9999 -9999 -9999 -9999 -9999 -9999 -9999 -9999 -9999 -9999 -9999 536.2414 536.0524 535.856 535.1166 533.8715 532.4617 531.7155 530.9514 530.0593 529.3214 528.717 528.0551 527.4697 527.0094 526.4813 526.035 525.8729 525.7099 525.4163 525.3015 525.2843 525.2347 524.9958 524.4961 523.8198 522.7463 521.7252 521.2473 520.871 520.6305 520.5719 520.627 520.7246 520.8806 521.0956 521.331 522.1414 522.7187 523.0408 523.2698 523.4925 523.7477 524.0261 524.2592 524.4362 524.454 524.3839 524.2843 524.6262 525.4198 526.4714 527.8962 529.4517 530.8138 531.301 530.5557 529.3204 528.3138 527.9993 528.6947 529.8108 530.699 531.4429 531.8262 532.2494 532.8706 533.4611 533.085 532.5383 532.3103 532.1016 532.0027 532.0023 532.0936 531.6672 530.3757 528.8145 527.4487 526.7443 526.4308 526.3441 526.387 526.5137 526.7098 526.9728 527.2991 527.6654 528.0516 528.4321 528.8368 529.4769 530.2945 531.1771 531.8781 532.2255 532.4333 532.5812 533.0898 535.064 537.7488 539.9589 540.7289 539.8246 537.6128 534.9743 533.1606 532.2841 531.775 531.0897 530.3926 530.3494 530.3334 530.0196 529.1077 528.1249 527.3444 526.8766 526.6427 526.5463 526.4513 526.1912 525.6094 524.4467 523.6252 523.0385 522.6911 522.2495 522.0204 522.1698 522.8455 524.2277 525.7629 527.0929 527.9933 528.8234 529.4963 530.0106 530.3594 530.7177 531.1259 531.5453 531.873 531.922 531.8931 531.9027 532.0615 532.5677 533.3755 533.9635 534.4078 535.347 535.7383 536.3356 537.2352 537.7498 537.9369 537.9828 538.6833 539.5134 539.6783 538.902 537.6041 536.0869 534.8469 534.2661 533.8369 533.6514 533.9622 534.3737 534.3673 534.3512 534.1719 534.4721 535.1185 536.1302 537.2061 538.9012 541.0698 543.3541 545.5584 547.5785 549.3667 550.8 551.6662 551.9147 -9999 -9999 -9999 -9999 -9999 -9999 -9999 -9999 -9999 -9999 -9999 -9999 -9999 -9999 -9999 -9999 -9999 -9999 -9999 -9999 -9999 -9999 -9999 -9999 -9999 -9999 -9999 -9999 -9999 -9999 -9999 -9999 -9999 -9999 -9999 -9999 -9999 -9999 -9999 -9999 -9999 -9999 -9999 -9999 -9999 -9999 -9999 -9999 -9999 -9999 -9999 -9999 -9999 -9999 -9999 -9999 -9999 -9999 -9999 -9999 -9999 -9999 -9999 -9999 -9999 -9999 -9999 -9999 -9999 -9999 -9999 -9999 -9999 -9999 -9999 -9999
-9999 -9999 -9999 -9999 -9999 -9999 -9999 -9999 -9999 -9999 -9999 -9999 -9999 -9999 -9999 -9999 -9999 535.175 534.993 534.5795 533.7864 532.7133 531.9133 531.2062 530.3351 529.6777 529.2235 528.8392 528.5272 528.0073 527.5365 527.288 527.072 526.5568 525.9879 525.7906 525.771 525.783 525.7567 525.5646 524.9784 524.1202 522.9855 522.0565 521.6306 521.4003 521.2916 521.2277 521.2058 521.2197 521.4056 521.9027 522.6011 522.8939 523.0411 523.1556 523.295 523.4831 523.7173 523.9747 524.2322 524.2551 524.2565 524.2424 524.8188 526.2193 527.8945 529.4931 530.8419 531.9346 532.3362 531.7775 530.5939 529.629 529.6265 530.3632 531.2344 531.7563 532.3018 532.7022 533.1126 533.6841 534.1028 533.9947 533.8042 533.6096 533.0409 532.3484 532.0079 531.8086 531.1279 529.9506 528.5126 527.3355 526.722 526.4618 526.3983 526.4419 526.5538 526.729 526.9747 527.3002 527.7049 528.1389 528.5443 528.8847 529.578 530.4874 531.6334 532.0601 532.1425 532.163 532.4048 533.3322 535.4949 537.8866 539.6121 539.7296 538.4884 536.0782 533.7225 532.4469 531.8197 531.3202 530.7875 530.3511 530.2904 530.3501 530.371 529.9615 528.924 527.9985 527.3469 526.9475 526.7351 526.5711 526.3023 525.7376 524.699 523.888 523.2228 522.7255 522.2753 522.0428 522.1868 522.8539 524.2152 525.6851 526.8044 527.6071 528.6245 529.2151 529.6533 530.0116 530.3606 530.7694 531.2292 531.6418 531.8753 531.9341 531.9507 532.0024 532.3486 532.9894 533.6563 534.3283 534.7203 534.3621 534.1121 535.2056 535.99 536.6271 536.706 537.317 537.824 537.7896 537.0505 535.814 534.509 533.7053 533.3958 532.9138 532.7751 533.0001 533.3687 533.1584 532.9377 532.5571 532.7921 533.3417 534.2027 534.7234 535.8804 537.9942 540.4262 542.9044 545.2484 547.3167 548.9947 549.8611 549.9632 549.5209 -9999 -9999 -9999 -9999 -9999 -9999 -9999 -9999 -9999 -9999 -9999 -9999 -9999 -9999 -9999 -9999 -9999 -9999 -9999 -9999 -9999 -9999 -9999 -9999 -9999 -9999 -9999 -9999 -9999 -9999 -9999 -9999 -9999 -9999 -9999 -9999 -9999 -9999 -9999 -9999 -9999 -9999 -9999 -9999 -9999 -9999 -9999 -9999 -9999 -9999 -9999 -9999 -9999 -9999 -9999 -9999 -9999 -9999 -9999 -9999 -9999 -9999 -9999 -9999 -9999 -9999 -9999 -9999 -9999 -9999 -9999 -9999 -9999 -9999 -9999
-9999 -9999 -9999 -9999 -9999 -9999 -9999 -9999 -9999 -9999 -9999 -9999 -9999 -9999 -9999 -9999 -9999 534.1678 534.0377 533.9334 533.4873 532.352 531.9594 531.6304 530.6415 530.0541 529.7545 529.5665 529.3848 529.072 528.8987 528.8079 528.5452 527.7934 527.0664 526.5646 526.323 526.2516 526.2184 526.1282 525.8101 525.3646 524.4954 523.6866 523.3486 522.9789 522.6824 522.3797 522.2121 522.096 522.4147 522.7001 523.0029 523.0913 523.0938 523.1021 523.152 523.2522 523.3999 523.5839 523.7814 523.9209 524.1493 524.6506 525.9175 527.6727 529.382 530.4994 531.8452 532.9766 533.7678 533.3007 532.2416 531.3965 531.3594 531.7248 532.251 532.5864 533.1206 533.594 534.0088 534.4058 534.5839 534.3868 534.0585 533.7557 533.3977 532.3087 531.7899 531.1784 530.2963 529.0675 527.7644 527.0212 526.6373 526.486 526.4657 526.5153 526.6123 526.7617 526.9835 527.3026 527.7546 528.2722 528.79 529.1244 529.7046 530.5483 531.7433 532.0792 532.0264 531.988 532.3601 533.6085 535.7598 537.7428 538.8436 538.6196 536.8622 534.4493 532.8419 531.951 531.4503 531.0294 530.6374 530.3494 530.256 530.3508 530.5657 530.3965 529.6022 528.6692 527.9893 527.3538 526.9802 526.7196 526.4624 526.0518 525.3755 524.2718 523.3879 522.7285 522.2595 522.0264 522.1604 522.8099 524.105 525.5577 526.5862 527.3905 528.2388 528.8284 529.2439 529.6404 530.002 530.3683 530.8145 531.2595 531.5978 531.8708 531.9928 532.0359 532.307 532.84 533.3284 533.8066 534.1379 533.9364 534.0565 534.7791 534.2544 534.8245 535.2951 535.7479 535.9434 535.8558 535.3411 534.2852 533.342 532.7341 532.4598 532.0787 532.0034 532.0543 532.1878 532.2635 532.1641 531.968 531.8746 531.9584 532.2528 532.5837 533.5167 535.0866 537.3008 539.7533 542.2146 544.4125 546.3685 547.4605 547.7039 547.2281 -9999 -9999 -9999 -9999 -9999 -9999 -9999 -9999 -9999 -9999 -9999 -9999 -9999 -9999 -9999 -9999 -9999 -9999 -9999 -9999 -9999 -9999 -9999 -9999 -9999 -9999 -9999 -9999 -9999 -9999 -9999 -9999 -9999 -9999 -9999 -9999 -9999 -9999 -9999 -9999 -9999 -9999 -9999 -9999 -9999 -9999 -9999 -9999 -9999 -9999 -9999 -9999 -9999 -9999 -9999 -9999 -9999 -9999 -9999 -9999 -9999 -9999 -9999 -9999 -9999 -9999 -9999 -9999 -9999 -9999 -9999 -9999 -9999 -9999 -9999
-9999 -9999 -9999 -9999 -9999 -9999 -9999 -9999 -9999 -9999 -9999 -9999 -9999 -9999 -9999 -9999 -9999 533.2111 533.032 533.0121 532.715 532.052 531.9416 531.8422 531.2233 530.6708 530.5222 530.5005 530.4884 530.4285 530.4071 530.4061 530.1795 529.4108 528.4212 527.5445 526.9741 526.7355 526.5961 526.5068 526.2195 525.7343 525.0633 524.5155 524.9048 524.695 524.3516 524.0455 523.6838 523.4557 523.4335 523.4877 523.5139 523.3884 523.2637 523.1962 523.181 523.2051 523.2671 523.3827 523.5858 523.9237 524.5504 525.7467 527.4426 529.3267 530.5458 531.5356 532.8556 534.3504 535.3054 535.0054 533.9152 533.1886 533.0303 533.2183 533.6484 534.0353 534.3216 534.5887 534.8555 535.0426 534.9482 534.4112 533.6471 532.9694 532.4179 531.8885 531.1954 530.3835 529.457 528.3963 527.364 526.8458 526.6203 526.555 526.5679 526.6173 526.6946 526.8138 527.0042 527.3032 527.7645 528.3027 528.8273 529.2367 529.7897 530.5699 531.7482 532.0181 531.8982 531.834 532.2763 533.8497 535.798 537.1906 537.6353 536.8456 535.0097 533.1571 532.2483 531.8045 531.3081 530.8988 530.5709 530.3488 530.2308 530.3607 530.8541 530.9711 530.3253 529.3374 528.7328 527.8893 527.2682 526.8647 526.5849 526.2271 525.6075 524.4295 523.4886 522.7331 522.2548 521.9802 522.0439 522.5953 523.6821 525.1632 526.2405 527.1606 527.8815 528.465 528.8812 529.3231 529.6851 530.0103 530.3705 530.7872 531.1021 531.4973 531.8347 531.8842 532.1388 532.4468 532.7961 533.1239 533.3536 533.4063 533.6791 533.7062 533.1219 532.8978 533.1185 533.5563 533.8444 533.8698 533.6316 533.0123 532.4639 532.0509 531.9849 531.7968 531.7388 531.777 531.8744 531.941 531.885 531.852 531.5122 531.3042 531.2891 531.4279 532.017 533.1506 534.7496 536.5989 538.8939 541.202 543.2853 544.733 545.4958 545.5025 545.2069 -9999 -9999 -9999 -9999 -9999 -9999 -9999 -9999 -9999 -9999 -9999 -9999 -9999 -9999 -9999 -9999 -9999 -9999 -9999 -9999 -9999 -9999 -9999 -9999 -9999 -9999 -9999 -9999 -9999 -9999 -9999 -9999 -9999 -9999 -9999 -9999 -9999 -9999 -9999 -9999 -9999 -9999 -9999 -9999 -9999 -9999 -9999 -9999 -9999 -9999 -9999 -9999 -9999 -9999 -9999 -9999 -9999 -9999 -9999 -9999 -9999 -9999 -9999 -9999 -9999 -9999 -9999 -9999 -9999 -9999 -9999 -9999 -9999 -9999
-9999 -9999 -9999 -9999 -9999 -9999 -9999 -9999 -9999 -9999 -9999 -9999 -9999 -9999 -9999 -9999 -9999 532.1763 532.0934 532.2936 532.2502 532.0369 532 531.9457 531.8438 531.7465 531.7486 531.7986 531.8486 531.8099 531.7126 531.7141 531.5578 530.8906 529.9509 528.8295 527.8305 527.3831 527.054 526.9216 526.5396 525.9602 525.5709 525.253 525.5804 525.6799 525.6432 525.4589 525.0431 524.7768 524.4963 524.3735 524.1899 523.8434 523.6429 523.5583 523.526 523.5115 523.5187 523.6024 523.8861 524.5074 525.6292 527.218 529.1454 530.8007 531.3987 532.2281 533.7813 535.2654 535.2015 535.4476 535.2412 535.1534 535.1124 535.2681 535.4902 535.5965 535.4641 535.4513 535.5493 535.599 535.3251 534.3833 533.101 532.2292 531.9922 531.6043 530.5908 529.614 528.6573 527.6128 527.0696 526.8032 526.7006 526.6872 526.7122 526.75 526.8014 526.8869 527.0394 527.3031 527.7433 528.278 528.8266 529.2845 529.8945 530.6673 531.7472 531.9528 531.8168 531.7792 532.2918 533.9257 535.5989 536.3694 536.0596 534.8468 533.3397 532.3761 531.8937 531.5652 531.1722 530.8096 530.5276 530.3488 530.2506 530.4817 531.3083 531.7441 531.1938 530.2554 529.2538 528.3159 527.4614 526.9999 526.6923 526.3412 525.7388 524.6761 523.7195 522.8491 522.348 521.9299 521.835 522.218 523.0519 524.3376 525.5477 526.5808 527.4351 528.1923 528.7792 529.1345 529.4236 529.6722 529.9676 530.2977 530.4615 530.8937 531.2644 531.4603 531.8143 531.8892 532.0046 532.3723 532.6044 532.8286 532.9763 532.8413 532.4125 532.0998 532.0686 532.189 532.2247 532.2278 532.1728 532.0596 531.9805 531.8247 531.8115 531.7667 531.7672 531.8126 531.8862 531.8777 531.7172 531.5488 531.2437 530.9922 530.8752 530.9031 531.2452 531.9703 533.0535 534.4684 536.2463 538.0646 540.0929 541.9138 543.3099 543.941 544.0651 -9999 -9999 -9999 -9999 -9999 -9999 -9999 -9999 -9999 -9999 -9999 -9999 -9999 -9999 -9999 -9999 -9999 -9999 -9999 -9999 -9999 -9999 -9999 -9999 -9999 -9999 -9999 -9999 -9999 -9999 -9999 -9999 -9999 -9999 -9999 -9999 -9999 -9999 -9999 -9999 -9999 -9999 -9999 -9999 -9999 -9999 -9999 -9999 -9999 -9999 -9999 -9999 -9999 -9999 -9999 -9999 -9999 -9999 -9999 -9999 -9999 -9999 -9999 -9999 -9999 -9999 -9999 -9999 -9999 -9999 -9999 -9999 -9999 -9999
-9999 -9999 -9999 -9999 -9999 -9999 -9999 -9999 -9999 -9999 -9999 -9999 -9999 -9999 -9999 -9999 -9999 531.6493 531.6637 531.9642 532.0741 532.1581 532.1954 532.0338 532.0101 532.0571 532.3767 532.6964 532.8948 532.7323 532.2026 532.0017 531.9543 531.7566 531.1028 530.15 529.1084 528.4327 527.6776 527.4724 526.8585 526.3472 526.1103 525.991 526.1461 526.2644 526.2876 526.1791 525.9437 525.7685 525.6403 525.4648 524.9853 524.5129 524.3646 524.3378 524.3327 524.3195 524.3105 524.3964 524.8066 525.7505 527.0895 528.8 530.4874 531.5829 531.5894 532.4126 534.1326 535.6606 535.7526 535.9688 536.0334 536.0289 535.9316 536.1634 536.2833 536.2034 535.9923 535.9025 535.9501 535.9852 535.759 534.5303 532.7726 532.0785 531.8315 531.0902 530.0234 528.9404 528.0752 527.3397 527.0799 526.9413 526.8826 526.875 526.8878 526.9034 526.9257 526.9761 527.0882 527.3024 527.6863 528.1854 528.765 529.2527 530.0572 530.9949 531.7398 531.9282 531.8248 531.8313 532.3869 533.8779 535.0781 535.4641 534.6631 533.3138 532.4803 532.0406 531.8568 531.4839 531.0883 530.7399 530.4855 530.3499 530.3533 530.8741 531.7647 532.1342 531.8528 531.1272 530.1649 529.0735 528.1017 527.3779 526.9314 526.556 526.0804 525.3661 524.2422 523.2896 522.6088 521.871 521.5712 521.8527 522.5972 523.5869 524.7047 525.9484 527.0698 527.847 528.4397 528.8353 529.126 529.2844 529.5189 529.7578 529.9971 530.3674 530.7394 530.9445 531.2506 531.393 531.5609 531.8396 531.9653 532.3153 532.3657 532.2684 532.0487 531.8193 531.6903 531.6405 531.5964 531.5859 531.6133 531.6661 531.7529 531.7703 531.8163 531.8402 531.8703 531.88 531.8755 531.6776 531.4092 531.1139 530.9117 530.7446 530.6622 530.6937 530.8802 531.3487 532.0152 533.0397 534.4741 536.0889 537.3575 539.2903 541.2678 542.6794 543.4821 543.8428 -9999 -9999 -9999 -9999 -9999 -9999 -9999 -9999 -9999 -9999 -9999 -9999 -9999 -9999 -9999 -9999 -9999 -9999 -9999 -9999 -9999 -9999 -9999 -9999 -9999 -9999 -9999 -9999 -9999 -9999 -9999 -9999 -9999 -9999 -9999 -9999 -9999 -9999 -9999 -9999 -9999 -9999 -9999 -9999 -9999 -9999 -9999 -9999 -9999 -9999 -9999 -9999 -9999 -9999 -9999 -9999 -9999 -9999 -9999 -9999 -9999 -9999 -9999 -9999 -9999 -9999 -9999 -9999 -9999 -9999 -9999 -9999 -9999
-9999 -9999 -9999 -9999 -9999 -9999 -9999 -9999 -9999 -9999 -9999 -9999 -9999 -9999 -9999 -9999 -9999 -9999 531.3101 531.6165 531.9989 532.4848 532.7911 532.6522 532.5306 532.6056 532.9606 533.4521 533.8777 533.7331 532.9254 532.1156 531.941 531.9364 531.7861 531.1605 530.2933 529.4377 528.5462 527.6766 527.104 526.8584 526.7097 526.6505 526.7062 526.7494 526.7714 526.7224 526.6196 526.5355 526.4579 526.2997 525.9669 525.7581 525.7066 525.7134 525.7198 525.7124 525.7215 525.882 526.464 527.3857 528.7088 530.1952 531.4273 531.6068 531.277 532.5737 534.437 535.8722 536.2573 536.4445 536.6205 536.7023 536.6798 536.7594 536.6766 536.3794 536.0067 535.9597 536.0177 536.002 535.7891 534.8168 532.8314 532.0912 531.6762 530.5269 529.2695 528.3971 527.7664 527.3701 527.2955 527.1761 527.104 527.0756 527.066 527.0562 527.0509 527.0695 527.1432 527.3011 527.5779 527.9578 528.4379 529.0182 530.1222 531.2018 531.8759 532.0514 531.972 532.0049 532.6671 533.7927 534.3991 534.2141 533.5291 532.6249 532.115 531.8813 531.6998 531.3682 530.9918 530.6603 530.434 530.3496 530.3681 531.024 531.8576 532.2739 532.2109 531.7602 530.9437 529.9834 528.9094 528.0081 527.2805 526.7939 526.3347 525.6761 524.5599 523.5681 522.6281 521.6447 521.2206 521.4534 522.0703 522.9619 524.1334 525.3809 526.4407 527.2892 527.9514 528.4467 528.7965 528.8624 529.1019 529.2699 529.5391 529.8917 530.2815 530.4056 530.722 530.9049 531.136 531.3816 531.5908 531.8608 531.8902 531.8871 531.9026 531.814 531.7026 531.6001 531.5286 531.5051 531.5443 531.6396 531.758 531.8207 531.8748 531.88 531.879 531.7645 531.564 531.2178 530.8499 530.4236 530.2256 530.1934 530.2603 530.4677 530.6474 530.9923 531.4318 532.0631 533.0936 534.3068 535.0217 536.9031 539.4148 541.6823 543.2194 543.9599 -9999 -9999 -9999 -9999 -9999 -9999 -9999 -9999 -9999 -9999 -9999 -9999 -9999 -9999 -9999 -9999 -9999 -9999 -9999 -9999 -9999 -9999 -9999 -9999 -9999 -9999 -9999 -9999 -9999 -9999 -9999 -9999 -9999 -9999 -9999 -9999 -9999 -9999 -9999 -9999 -9999 -9999 -9999 -9999 -9999 -9999 -9999 -9999 -9999 -9999 -9999 -9999 -9999 -9999 -9999 -9999 -9999 -9999 -9999 -9999 -9999 -9999 -9999 -9999 -9999 -9999 -9999 -9999 -9999 -9999 -9999 -9999 -9999
-9999 -9999 -9999 -9999 -9999 -9999 -9999 -9999 -9999 -9999 -9999 -9999 -9999 -9999 -9999 -9999 -9999 -9999 531.141 531.4801 532.0837 533.0323 533.685 533.4499 533.1808 533.2104 533.5269 534.0896 534.6631 534.6296 533.8716 532.7001 532.1345 531.9742 531.9495 531.7763 531.1594 530.3369 529.4271 528.5344 527.7081 527.4458 527.3768 527.3101 527.2988 527.333 527.4247 527.4525 527.4402 527.4311 527.425 527.3936 527.3123 527.2678 527.2628 527.2722 527.272 527.2648 527.288 527.4896 528.1417 528.8749 529.9796 531.0864 531.8292 531.9622 532.0353 533.5228 535.2394 536.2333 536.6516 536.8945 537.1129 537.2905 537.3535 537.2776 536.9984 536.5236 536.0212 535.945 536 535.9696 535.6277 534.686 532.7725 531.9888 531.3478 530.0604 528.8465 528.0518 527.5713 527.339 527.3109 527.2997 527.2561 527.2281 527.2111 527.1826 527.1555 527.1473 527.1863 527.2988 527.458 527.7397 528.2065 528.9703 530.2993 531.6081 532.1841 532.3187 532.2471 532.1979 532.7487 533.3923 533.6716 533.0917 532.3854 532.0621 531.9323 531.8779 531.6365 531.2722 530.886 530.5624 530.3507 530.2745 530.4005 531.1157 531.8595 532.2941 532.3212 531.9444 531.3767 530.4718 529.5803 528.5969 527.5726 527.0084 526.554 525.9591 525.0289 523.8659 522.6246 521.4429 521.0884 521.2062 521.6706 522.526 523.455 524.4795 525.5783 526.5359 527.3088 527.9109 528.3347 528.5686 528.8095 528.8554 529.103 529.3544 529.7027 529.9517 530.266 530.3951 530.7017 530.9297 531.1969 531.4348 531.5778 531.7169 531.8775 531.88 531.8368 531.7598 531.7054 531.6814 531.7019 531.7721 531.8793 531.88 531.8797 531.7902 531.6493 531.4 531.0016 530.4624 530.009 529.3618 528.9464 528.8821 529.1426 529.8567 530.2322 530.6261 531.0641 531.5153 532.0939 532.842 533.5223 535.0065 537.8096 540.7409 542.9147 543.8793 544.0004 -9999 -9999 -9999 -9999 -9999 -9999 -9999 -9999 -9999 -9999 -9999 -9999 -9999 -9999 -9999 -9999 -9999 -9999 -9999 -9999 -9999 -9999 -9999 -9999 -9999 -9999 -9999 -9999 -9999 -9999 -9999 -9999 -9999 -9999 -9999 -9999 -9999 -9999 -9999 -9999 -9999 -9999 -9999 -9999 -9999 -9999 -9999 -9999 -9999 -9999 -9999 -9999 -9999 -9999 -9999 -9999 -9999 -9999 -9999 -9999 -9999 -9999 -9999 -9999 -9999 -9999 -9999 -9999 -9999 -9999 -9999 -9999
-9999 -9999 -9999 -9999 -9999 -9999 -9999 -9999 -9999 -9999 -9999 -9999 -9999 -9999 -9999 -9999 -9999 -9999 -9999 531.7436 532.5308 533.7532 534.4302 534.2212 533.8663 533.9331 534.239 534.9059 535.5301 535.7526 535.2615 534.149 533.2122 532.4471 532.1406 531.9822 531.7547 531.1039 530.3069 529.5371 528.9363 528.6622 528.4943 528.1761 528.0853 528.2391 528.6287 528.7792 528.8173 528.8353 528.8436 528.853 528.8597 528.8558 528.8121 528.7687 528.7122 528.6771 528.6789 528.8176 529.2876 529.8693 530.7154 531.6395 532.0388 532.4617 533.3042 534.4886 535.7831 536.453 536.8419 537.1716 537.4758 537.7672 537.959 537.7441 537.349 -9999 -9999 536 535.9999 535.8583 535.2498 534.0369 532.5132 531.7327 530.6218 529.2893 528.3711 527.7605 527.4075 527.259 527.2509 527.2808 527.3 527.3 527.2999 527.2656 527.2246 527.1887 527.1754 527.2064 527.2996 527.5266 528.0002 528.8967 530.2942 531.7244 532.3671 532.5688 532.6782 532.9575 532.8637 532.8655 532.6788 532.1583 531.8747 531.8266 531.8799 531.879 531.5825 531.1693 530.7698 530.4756 530.3492 530.3489 530.6939 531.3653 531.9202 532.3617 532.4769 532.2499 531.7634 530.8124 530.0641 529.0157 528.1008 527.301 526.7849 526.269 525.4984 524.1794 522.7669 521.6653 521.197 521.0691 521.275 521.9495 522.7243 523.5856 524.5675 525.681 526.5819 527.3041 527.832 528.1879 528.4573 528.6132 528.815 528.8664 529.1684 529.3761 529.6042 529.8878 530.2515 530.4 530.7406 530.9875 531.226 531.4445 531.6634 531.795 531.8796 531.88 531.8798 531.8798 531.8798 531.8803 531.9104 531.8523 531.7263 531.4999 531.188 530.7986 530.1664 529.3832 528.677 527.9092 527.4016 527.3152 527.6436 528.523 529.1987 530.0287 530.6953 531.2418 531.7953 532.1831 532.7473 533.9584 536.5178 539.5764 542.072 543.569 543.8878 -9999 -9999 -9999 -9999 -9999 -9999 -9999 -9999 -9999 -9999 -9999 -9999 -9999 -9999 -9999 -9999 -9999 -9999 -9999 -9999 -9999 -9999 -9999 -9999 -9999 -9999 -9999 -9999 -9999 -9999 -9999 -9999 -9999 -9999 -9999 -9999 -9999 -9999 -9999 -9999 -9999 -9999 -9999 -9999 -9999 -9999 -9999 -9999 -9999 -9999 -9999 -9999 -9999 -9999 -9999 -9999 -9999 -9999 -9999 -9999 -9999 -9999 -9999 -9999 -9999 -9999 -9999 -9999 -9999 -9999 -9999 -9999
-9999 -9999 -9999 -9999 -9999 -9999 -9999 -9999 -9999 -9999 -9999 -9999 -9999 -9999 -9999 -9999 -9999 -9999 -9999 -9999 533.6563 534.8082 535.5707 535.419 534.7697 534.9459 535.4471 536.053 536.4874 536.8041 536.6072 535.913 534.9864 533.9008 532.9465 532.4641 532.2798 531.8096 531.1317 530.587 530.2305 529.7605 529.429 529.0796 529.0071 529.2305 529.886 530.1885 530.3336 530.4278 530.4248 530.4071 530.4166 530.38 530.1864 530.0086 529.7827 529.6638 529.6366 529.7711 530.21 530.6873 531.5103 532.019 532.5217 533.4185 534.1472 535.0377 535.9257 536.3649 536.77 -9999 -9999 -9999 -9999 -9999 -9999 -9999 -9999 536.0044 535.9997 535.8302 535.011 533.5588 532.4548 531.6725 530.3709 528.9955 528.1298 527.5961 527.3038 527.1858 527.1785 527.2157 527.2584 527.2906 527.3107 527.3 527.264 527.21 527.1498 527.1034 527.1211 527.2933 527.728 528.6906 530.0701 531.6586 532.3456 532.4991 532.4958 532.649 532.4788 532.3198 532.0388 531.8097 531.7368 531.8033 531.8986 531.8715 531.4849 531.0237 530.6226 530.3515 530.2559 530.394 531.0057 531.7559 532.2046 532.5316 532.6159 532.3831 531.7852 530.6527 530.0306 529.3137 528.5523 527.4558 526.9056 526.4213 525.6564 524.2928 522.8428 521.7847 521.2149 521.0407 521.1973 521.5625 522.1046 522.7917 523.7054 524.8214 525.8162 526.6736 527.3101 527.7628 528.0958 528.3335 528.5228 528.6311 528.8104 528.8366 528.9152 529.2673 529.5419 529.765 530.2089 530.41 530.7505 531.0229 531.3047 531.519 531.697 531.8108 531.8948 531.9448 531.959 531.9355 531.8724 531.7069 531.4223 531.0071 530.4685 529.8992 528.9113 527.9358 527.1121 526.3056 525.9085 525.8661 526.2172 527.1484 528.0846 529.1017 530.1474 530.8966 531.4694 531.9116 532.5581 533.7048 535.4356 538.3146 541.053 542.8755 543.7474 -9999 -9999 -9999 -9999 -9999 -9999 -9999 -9999 -9999 -9999 -9999 -9999 -9999 -9999 -9999 -9999 -9999 -9999 -9999 -9999 -9999 -9999 -9999 -9999 -9999 -9999 -9999 -9999 -9999 -9999 -9999 -9999 -9999 -9999 -9999 -9999 -9999 -9999 -9999 -9999 -9999 -9999 -9999 -9999 -9999 -9999 -9999 -9999 -9999 -9999 -9999 -9999 -9999 -9999 -9999 -9999 -9999 -9999 -9999 -9999 -9999 -9999 -9999 -9999 -9999 -9999 -9999 -9999 -9999 -9999 -9999 -9999
-9999 -9999 -9999 -9999 -9999 -9999 -9999 -9999 -9999 -9999 -9999 -9999 -9999 -9999 -9999 -9999 -9999 -9999 -9999 -9999 -9999 -9999 -9999 536.561 -9999 -9999 -9999 -9999 538.1269 538.2982 538.2462 537.8961 537.1757 535.9995 534.8608 534.0305 533.401 532.692 531.935 531.6711 531.4296 530.7853 530.5295 530.3864 530.3531 530.4883 530.9329 531.3383 531.7136 532.0108 531.9291 531.7509 531.6956 531.6257 531.2732 531.0616 530.6986 530.5572 530.5029 530.5797 531.0299 531.6429 532.2568 532.6653 533.4548 533.9299 534.527 535.1991 535.7479 536.0214 -9999 -9999 -9999 -9999 -9999 -9999 -9999 -9999 536.5965 536.0375 536.0003 535.9031 534.9371 533.1616 532.3315 531.6501 530.3168 528.9412 528.0725 527.554 527.2746 527.1552 527.1339 527.1622 527.2108 527.2629 527.3052 527.3199 527.3 527.2406 527.1494 527.0345 526.9646 527.042 527.4106 528.4578 529.9044 531.56 532.2196 532.2559 532.0258 532.1176 532.0148 531.9988 531.8716 531.7856 531.7933 531.8629 531.8802 531.6821 531.2584 530.8146 530.4872 530.3494 530.3651 530.7512 531.3584 531.9247 532.3828 532.6482 532.6675 532.3856 531.7409 530.5739 529.9525 529.3784 528.666 527.4985 526.946 526.4686 525.6921 524.318 522.8634 521.814 521.2172 520.9713 520.9984 521.2123 521.601 522.1322 522.8595 523.8749 524.9931 526.0291 526.7888 527.316 527.7181 528.0234 528.2401 528.3522 528.4336 528.4403 528.5254 528.7756 528.8503 528.9684 529.4131 529.7093 530.1099 530.4 530.7789 531.0452 531.3246 531.5472 531.7307 531.8481 531.889 531.8503 531.713 531.4269 530.9735 530.3521 529.5641 528.6107 527.4003 526.3422 525.6512 525.1336 524.9031 524.9292 525.3301 526.1016 527.0891 528.2537 529.5031 530.4946 531.21 531.8184 532.4954 533.6393 534.5378 537.2317 540.1869 542.4856 544.0163 544.7979 -9999 -9999 -9999 -9999 -9999 -9999 -9999 -9999 -9999 -9999 -9999 -9999 -9999 -9999 -9999 -9999 -9999 -9999 -9999 -9999 -9999 -9999 -9999 -9999 -9999 -9999 -9999 -9999 -9999 -9999 -9999 -9999 -9999 -9999 -9999 -9999 -9999 -9999 -9999 -9999 -9999 -9999 -9999 -9999 -9999 -9999 -9999 -9999 -9999 -9999 -9999 -9999 -9999 -9999 -9999 -9999 -9999 -9999 -9999 -9999 -9999 -9999 -9999 -9999 -9999 -9999 -9999 -9999 -9999 -9999 -9999
-9999 -9999 -9999 -9999 -9999 -9999 -9999 -9999 -9999 -9999 -9999 -9999 -9999 -9999 -9999 -9999 -9999 -9999 -9999 -9999 -9999 -9999 -9999 -9999 -9999 -9999 -9999 -9999 -9999 540.1813 540.1047 539.8142 539.194 538.0574 536.8557 535.8513 534.9698 533.7766 532.5894 532.1546 532.0288 531.778 531.6992 531.6727 531.6368 531.6686 531.9009 532.3543 532.8855 533.4108 533.0497 532.361 532.0552 531.9951 531.9698 531.9285 531.7964 531.7235 531.6492 531.6757 532.0079 532.7233 533.6276 533.9171 534.0972 534.1635 534.7089 535.3091 535.7092 -9999 -9999 -9999 -9999 -9999 -9999 -9999 -9999 -9999 536.8379 536.3372 536.0172 535.6043 534.4208 532.9659 532.1948 531.5117 530.1971 528.9142 528.0908 527.5918 527.3134 527.181 527.1404 527.1545 527.201 527.2635 527.323 527.3574 527.352 527.3001 527.2027 527.035 526.9087 526.9506 527.3239 528.2931 529.701 531.3663 532.0784 532.1644 532.0001 532 532 531.9675 531.9169 531.8944 531.9104 531.9306 531.8657 531.4602 530.9689 530.5659 530.3498 530.364 530.7348 531.2783 531.8456 532.2622 532.5613 532.6803 532.5675 532.1821 531.5075 530.4409 529.782 529.23 528.5665 527.4764 526.9272 526.4384 525.6654 524.2796 522.8164 521.731 521.1815 520.8635 520.7964 520.9199 521.205 521.6117 522.1761 522.9753 524.1125 525.3228 526.2126 526.8514 527.3165 527.6874 527.9427 528.0469 528.0673 528.0603 528.0975 528.2232 528.33 528.4888 528.7776 528.8812 529.0938 529.5821 530.0612 530.3149 530.7414 531.0627 531.3633 531.554 531.6268 531.5789 531.3906 530.9856 530.3594 529.524 528.4775 527.2092 525.9516 525.0718 524.4614 524.2328 524.1985 524.2839 524.7725 525.5759 526.2582 527.5195 528.9108 530.1136 530.8716 531.465 532.0082 532.8873 533.9665 536.7064 539.963 542.7292 544.8037 545.9694 -9999 -9999 -9999 -9999 -9999 -9999 -9999 -9999 -9999 -9999 -9999 -9999 -9999 -9999 -9999 -9999 -9999 -9999 -9999 -9999 -9999 -9999 -9999 -9999 -9999 -9999 -9999 -9999 -9999 -9999 -9999 -9999 -9999 -9999 -9999 -9999 -9999 -9999 -9999 -9999 -9999 -9999 -9999 -9999 -9999 -9999 -9999 -9999 -9999 -9999 -9999 -9999 -9999 -9999 -9999 -9999 -9999 -9999 -9999 -9999 -9999 -9999 -9999 -9999 -9999 -9999 -9999 -9999 -9999 -9999 -9999
-9999 -9999 -9999 -9999 -9999 -9999 -9999 -9999 -9999 -9999 -9999 -9999 -9999 -9999 -9999 -9999 -9999 -9999 -9999 -9999 -9999 -9999 -9999 -9999 -9999 -9999 -9999 -9999 -9999 -9999 -9999 541.2684 540.5801 539.5889 538.3738 537.1949 536.0623 534.8185 533.6232 532.7797 532.564 532.0806 531.9528 532.199 532.2024 532.2571 532.663 533.48 533.8175 534.0799 533.8836 533.2167 532.575 532.0825 532.0697 532.0233 532.0369 532.0591 532.1276 532.4322 533.1481 534.1982 535.1364 535.1216 534.8245 534.6257 535.0172 535.5879 -9999 -9999 -9999 -9999 -9999 -9999 -9999 -9999 -9999 -9999 537.0216 536.5723 536.0796 535.3583 533.7997 532.45 531.8694 531.0673 529.8481 528.839 528.1382 527.6863 527.4159 527.2729 527.2159 527.2178 527.2609 527.3279 527.3952 527.4357 527.4343 527.389 527.2974 527.0769 526.9203 526.9506 527.3008 528.1052 529.3087 530.9207 531.874 532.0843 532.0001 532 532.0121 532.0155 532.0181 532.0165 531.9884 531.8826 531.6129 531.1291 530.6391 530.3492 530.3492 530.707 531.2748 531.8412 532.2584 532.5262 532.6439 532.568 532.2482 531.6293 530.725 529.972 529.3651 528.7792 528.0781 527.3039 526.76 526.2217 525.4307 524.0151 522.5748 521.4199 520.9153 520.6526 520.5764 520.6563 520.8712 521.2009 521.6316 522.2362 523.0861 524.2497 525.4072 526.2568 526.8743 527.3173 527.6261 527.7038 527.6947 527.6675 527.6752 527.7371 527.8917 528.053 528.2164 528.2999 528.4626 528.7866 528.988 529.2469 529.9416 530.3159 530.7736 531.0307 531.133 531.079 530.873 530.3583 529.5557 528.4914 527.1642 525.8 524.6884 524.1365 523.7139 523.5472 523.5553 523.7174 524.2093 524.9486 525.8882 527.2319 528.5694 529.7078 530.5599 531.2325 531.8472 532.6044 533.9655 536.5788 540.0468 543.0662 545.7894 547.3019 -9999 -9999 -9999 -9999 -9999 -9999 -9999 -9999 -9999 -9999 -9999 -9999 -9999 -9999 -9999 -9999 -9999 -9999 -9999 -9999 -9999 -9999 -9999 -9999 -9999 -9999 -9999 -9999 -9999 -9999 -9999 -9999 -9999 -9999 -9999 -9999 -9999 -9999 -9999 -9999 -9999 -9999 -9999 -9999 -9999 -9999 -9999 -9999 -9999 -9999 -9999 -9999 -9999 -9999 -9999 -9999 -9999 -9999 -9999 -9999 -9999 -9999 -9999 -9999 -9999 -9999 -9999 -9999 -9999 -9999 -9999
-9999 -9999 -9999 -9999 -9999 -9999 -9999 -9999 -9999 -9999 -9999 -9999 -9999 -9999 -9999 -9999 -9999 -9999 -9999 -9999 -9999 -9999 -9999 -9999 -9999 -9999 -9999 -9999 -9999 -9999 -9999 -9999 541.3826 540.3298 539.2916 537.9953 536.8512 535.8025 534.8879 534.1779 533.5973 532.3889 532.1664 533.2112 533.2803 533.3276 533.7419 534.007 534.1366 534.2813 534.236 533.8967 533.2717 532.722 532.5551 532.5778 532.7374 532.8893 533.1576 533.7661 534.598 535.5309 535.9837 535.8895 535.376 535.048 535.3484 -9999 -9999 -9999 -9999 -9999 -9999 -9999 -9999 -9999 -9999 537.5321 537.1605 536.6448 535.8883 534.7264 532.9949 532.1892 531.7976 530.9116 529.7999 528.8663 528.2583 527.8508 527.5917 527.4457 527.3815 527.3781 527.4202 527.4873 527.5493 527.5695 527.5354 527.4463 527.2997 527.0789 526.9282 526.9689 527.2991 527.9907 529.0687 530.5598 531.7304 531.9659 532.0005 532.0002 532.0142 532.056 532.0989 532.0978 532.0181 531.8492 531.3577 530.8086 530.3617 530.2238 530.455 531.159 531.8217 532.2612 532.535 532.6438 532.5742 532.292 531.7423 530.8033 530.0563 529.4 528.7756 528.0989 527.4185 526.8589 526.3191 525.6583 524.7006 523.2615 522.038 521.1679 520.6804 520.4437 520.371 520.4253 520.5887 520.8494 521.2003 521.6516 522.2782 523.1307 524.2803 525.4309 526.2787 526.8839 527.267 527.3163 527.3106 527.3052 527.3021 527.3222 527.5433 527.6783 527.7593 527.8052 527.9139 528.1597 528.3314 528.5295 528.9041 529.2648 529.9703 530.2485 530.3817 530.2953 530.1208 529.5183 528.534 527.223 525.8135 524.6003 523.8416 523.4426 523.1833 523.0555 523.0586 523.1836 523.6483 524.4742 525.7451 527.1766 528.4547 529.5658 530.4534 531.0945 531.7495 532.42 533.9293 536.592 540.3691 543.9633 546.6907 547.7444 -9999 -9999 -9999 -9999 -9999 -9999 -9999 -9999 -9999 -9999 -9999 -9999 -9999 -9999 -9999 -9999 -9999 -9999 -9999 -9999 -9999 -9999 -9999 -9999 -9999 -9999 -9999 -9999 -9999 -9999 -9999 -9999 -9999 -9999 -9999 -9999 -9999 -9999 -9999 -9999 -9999 -9999 -9999 -9999 -9999 -9999 -9999 -9999 -9999 -9999 -9999 -9999 -9999 -9999 -9999 -9999 -9999 -9999 -9999 -9999 -9999 -9999 -9999 -9999 -9999 -9999 -9999 -9999 -9999 -9999 -9999
-9999 -9999 -9999 -9999 -9999 -9999 -9999 -9999 -9999 -9999 -9999 -9999 -9999 -9999 -9999 -9999 -9999 -9999 -9999 -9999 -9999 -9999 -9999 -9999 -9999 -9999 -9999 -9999 -9999 -9999 -9999 -9999 -9999 540.303 539.0629 538.0245 537.1425 536.4101 535.8165 535.3121 534.6536 533.1056 532.6515 533.5554 533.9526 533.8684 533.9431 533.9996 534.0032 534.1664 534.3279 534.281 533.9504 533.4818 533.321 533.4555 533.7982 534.0357 534.4355 535.014 535.7599 536.2756 536.3759 536.0192 535.6484 535.4352 -9999 -9999 -9999 -9999 -9999 -9999 -9999 -9999 -9999 -9999 -9999 537.72 537.3478 536.6675 535.6652 534.2562 532.5608 532.0271 531.7255 530.86 530.0098 528.9901 528.4767 528.1053 527.8651 527.7335 527.6766 527.6753 527.7157 527.7751 527.8163 527.7815 527.6769 527.5126 527.2993 527.0548 526.9054 526.9624 527.3019 527.9468 528.9913 530.3573 531.3602 531.5557 531.8543 531.8963 531.9067 532.0258 532.1234 532.0997 531.8913 531.5376 531.015 530.5618 530.3492 530.4293 531.0453 531.7722 532.2368 532.5137 532.6369 532.5807 532.3232 531.8506 531.1334 530.2584 529.4534 528.7685 528.0686 527.3888 526.8339 526.2993 525.6698 524.8412 523.7222 522.4601 521.3729 520.7443 520.3969 520.2325 520.1871 520.2317 520.3574 520.5604 520.8406 521.202 521.6656 522.2893 523.1262 524.2873 525.4103 526.1866 526.6672 526.9069 527.0048 527.0349 527.0533 527.11 527.2755 527.3007 527.2994 527.2991 527.3594 527.6456 527.8018 527.9211 528.1446 528.4868 528.9083 529.1422 529.426 529.1745 528.9706 528.438 527.3064 525.9754 524.717 523.8662 523.3362 523.0493 522.8751 522.7318 522.7129 522.7456 523.2399 524.2974 525.7363 527.1864 528.3719 529.4423 530.3214 530.931 531.4188 532.1019 533.7481 536.4402 540.3531 544.2218 546.9014 547.5641 547.8211 -9999 -9999 -9999 -9999 -9999 -9999 -9999 -9999 -9999 -9999 -9999 -9999 -9999 -9999 -9999 -9999 -9999 -9999 -9999 -9999 -9999 -9999 -9999 -9999 -9999 -9999 -9999 -9999 -9999 -9999 -9999 -9999 -9999 -9999 -9999 -9999 -9999 -9999 -9999 -9999 -9999 -9999 -9999 -9999 -9999 -9999 -9999 -9999 -9999 -9999 -9999 -9999 -9999 -9999 -9999 -9999 -9999 -9999 -9999 -9999 -9999 -9999 -9999 -9999 -9999 -9999 -9999 -9999 -9999 -9999
-9999 -9999 -9999 -9999 -9999 -9999 -9999 -9999 -9999 -9999 -9999 -9999 -9999 -9999 -9999 -9999 -9999 -9999 -9999 -9999 -9999 -9999 -9999 -9999 -9999 -9999 -9999 -9999 -9999 -9999 -9999 -9999 -9999 -9999 538.564 537.758 537.0288 536.4327 535.915 535.3548 534.2935 533.2526 533.4103 534.2465 534.6572 534.2245 533.9559 533.8391 533.8335 534.0082 534.4215 534.7143 534.7141 534.4091 534.3784 534.6162 535.0298 535.2925 535.7275 536.103 536.6368 536.9832 536.8861 536.3208 535.8838 -9999 -9999 -9999 -9999 -9999 -9999 -9999 -9999 -9999 -9999 -9999 -9999 537.993 537.6049 536.6487 535.3563 533.6747 532.279 531.8582 531.3076 530.4927 529.8365 529.1752 528.7995 528.454 528.2701 528.1996 528.1749 528.179 528.2025 528.228 528.226 528.0872 527.8747 527.6057 527.2988 526.9965 526.825 526.8872 527.261 527.8876 529.0138 530.1802 530.4862 530.7636 531.014 531.0723 531.5599 531.9137 532.1031 532.0737 531.8114 531.215 530.663 530.3497 530.3776 531.0007 531.7369 532.2 532.4521 532.5582 532.5443 532.3195 531.8637 531.1985 530.3762 529.498 528.6806 528.0089 527.3434 526.7611 526.2328 525.625 524.8259 523.7676 522.5977 521.4854 520.752 520.3362 520.1254 520.0397 520.0298 520.0748 520.1732 520.3299 520.5509 520.8403 521.2035 521.645 522.1853 523.0744 524.1816 525.1533 525.7441 526.2131 526.4454 526.5331 526.5778 526.619 526.6824 526.6847 526.6682 526.6757 526.7766 527.0513 527.1329 527.1881 527.3843 527.7881 528.1354 528.4355 528.6346 528.4542 528.0617 527.3275 526.1946 525.087 524.178 523.5071 523.0941 522.8609 522.7214 522.495 522.375 522.4274 522.9231 524.2125 525.7423 527.152 528.1779 529.1304 530.2299 530.7952 531.2457 531.976 533.6079 536.147 539.9262 543.8623 546.5985 547.1131 547.8502 -9999 -9999 -9999 -9999 -9999 -9999 -9999 -9999 -9999 -9999 -9999 -9999 -9999 -9999 -9999 -9999 -9999 -9999 -9999 -9999 -9999 -9999 -9999 -9999 -9999 -9999 -9999 -9999 -9999 -9999 -9999 -9999 -9999 -9999 -9999 -9999 -9999 -9999 -9999 -9999 -9999 -9999 -9999 -9999 -9999 -9999 -9999 -9999 -9999 -9999 -9999 -9999 -9999 -9999 -9999 -9999 -9999 -9999 -9999 -9999 -9999 -9999 -9999 -9999 -9999 -9999 -9999 -9999 -9999 -9999
