ncols         203
nrows         62
xllcorner     496200
yllcorner     6178150
cellsize      50
NODATA_value  -9999
-9999 -9999 -9999 -9999 -9999 -9999 -9999 -9999 -9999 -9999 -9999 -9999 -9999 -9999 -9999 -9999 -9999 -9999 -9999 -9999 -9999 -9999 -9999 -9999 -9999 -9999 -9999 -9999 -9999 -9999 -9999 -9999 -9999 -9999 -9999 -9999 -9999 -9999 -9999 -9999 -9999 -9999 -9999 -9999 -9999 -9999 -9999 -9999 -9999 -9999 -9999 -9999 -9999 -9999 -9999 -9999 -9999 -9999 -9999 -9999 -9999 -9999 -9999 -9999 -9999 -9999 -9999 -9999 -9999 -9999 -9999 -9999 -9999 -9999 -9999 -9999 -9999 -9999 -9999 -9999 -9999 -9999 -9999 -9999 -9999 -9999 -9999 -9999 -9999 -9999 -9999 659.8769 659.963 659.0215 657.3353 655.3738 653.4252 651.6703 650.3124 649.4875 648.9832 648.6281 648.3617 648.1368 647.9695 647.8442 647.7896 647.8113 647.8823 647.9496 647.9999 647.9999 647.9531 647.8779 647.7791 647.6838 647.599 647.5028 647.3929 647.2574 647.153 647.0103 646.9896 646.8508 646.7804 646.719 646.574 646.4043 646.1999 645.9994 645.8059 645.6316 645.4945 645.3447 645.1669 644.9204 644.4135 644.0005 643.6635 643.3719 643.15 643.0017 642.9991 643.0458 643.2448 643.5366 643.8251 644.0077 644.2305 644.4615 644.7161 644.9976 645.2793 645.6068 646.0103 646.5329 646.9887 647.1262 647.2107 647.4144 647.8596 648.488 649.462 650.8452 652.6543 654.9227 657.3937 659.7028 661.4136 662.0494 661.9871 -9999 -9999 -9999 -9999 -9999 -9999 -9999 -9999 -9999 -9999 -9999 -9999 -9999 -9999 -9999 -9999 -9999 -9999 -9999 -9999 -9999 -9999 -9999 -9999 -9999 -9999 -9999 -9999 -9999 -9999 -9999 -9999
-9999 -9999 -9999 -9999 -9999 -9999 -9999 -9999 -9999 -9999 -9999 -9999 -9999 -9999 -9999 -9999 -9999 -9999 -9999 -9999 -9999 -9999 -9999 -9999 -9999 -9999 -9999 -9999 -9999 -9999 -9999 -9999 -9999 -9999 -9999 -9999 -9999 -9999 -9999 -9999 -9999 -9999 -9999 -9999 -9999 -9999 -9999 -9999 -9999 -9999 -9999 -9999 -9999 -9999 -9999 -9999 -9999 -9999 -9999 -9999 -9999 -9999 -9999 -9999 -9999 -9999 -9999 -9999 -9999 -9999 -9999 -9999 -9999 -9999 -9999 -9999 -9999 -9999 -9999 -9999 -9999 -9999 -9999 -9999 -9999 -9999 -9999 -9999 -9999 658.5612 660.0786 661.1551 660.8741 659.4626 657.3741 655.0684 652.861 650.9348 649.6888 648.9911 648.6057 648.3787 648.231 648.1196 648.0225 647.9501 647.9282 647.9559 647.9998 648 647.9705 647.9086 647.8081 647.6822 647.5449 647.4238 647.329 647.2266 647.1427 647.0098 646.9937 646.8733 646.795 646.6777 646.5802 646.4834 646.3457 646.1812 646.0012 645.8313 645.6688 645.5193 645.3835 645.2304 645.0105 644.6428 644.0886 643.7185 643.4017 643.1429 642.9987 642.9023 642.9086 643.002 643.2831 643.6413 643.9813 644.1281 644.2954 644.4938 644.7259 644.9974 645.3033 645.6402 646.0125 646.5267 646.9764 647.0859 647.1318 647.2369 647.4969 647.9415 648.655 649.7906 651.2914 652.9088 655.1201 657.6268 659.8101 661.03 661.5186 661.741 -9999 -9999 -9999 -9999 -9999 -9999 -9999 -9999 -9999 -9999 -9999 -9999 -9999 -9999 -9999 -9999 -9999 -9999 -9999 -9999 -9999 -9999 -9999 -9999 -9999 -9999 -9999 -9999 -9999 -9999 -9999
-9999 -9999 -9999 -9999 -9999 -9999 -9999 -9999 -9999 -9999 -9999 -9999 -9999 -9999 -9999 -9999 -9999 -9999 -9999 -9999 -9999 -9999 -9999 -9999 -9999 -9999 -9999 -9999 -9999 -9999 -9999 -9999 -9999 -9999 -9999 -9999 -9999 -9999 -9999 -9999 -9999 -9999 -9999 -9999 -9999 -9999 -9999 -9999 -9999 -9999 -9999 -9999 -9999 -9999 -9999 -9999 -9999 -9999 -9999 -9999 -9999 -9999 -9999 -9999 -9999 -9999 -9999 -9999 -9999 -9999 -9999 -9999 -9999 -9999 -9999 -9999 -9999 -9999 -9999 -9999 -9999 -9999 -9999 -9999 -9999 -9999 -9999 -9999 657.9535 659.0646 660.8435 661.9499 661.0143 659.0992 656.6558 654.1371 651.8974 650.1774 649.1346 648.6265 648.3672 648.2296 648.153 648.1029 648.0564 648.0156 648 647.9999 647.9731 647.9197 647.844 647.744 647.6163 647.4707 647.3173 647.1879 647.1122 647.0058 646.996 646.8915 646.8269 646.7228 646.6205 646.5055 646.3955 646.2843 646.1519 646.0006 645.8479 645.7018 645.5619 645.4277 645.2948 645.1484 644.9636 644.5222 644.0101 643.6084 643.2711 643.0065 642.9252 642.866 642.8917 643.0119 643.3437 643.705 643.9973 644.1769 644.3451 644.5324 644.7463 645.0002 645.3652 645.7349 646.0424 646.5001 646.8669 647.001 647.0565 647.1063 647.241 647.5396 648.0931 649.0934 650.4994 651.6013 653.2721 655.649 658.145 659.9055 660.8514 661.3463 661.7462 -9999 -9999 -9999 -9999 -9999 -9999 -9999 -9999 -9999 -9999 -9999 -9999 -9999 -9999 -9999 -9999 -9999 -9999 -9999 -9999 -9999 -9999 -9999 -9999 -9999 -9999 -9999 -9999 -9999 -9999
-9999 -9999 -9999 -9999 -9999 -9999 -9999 -9999 -9999 -9999 -9999 -9999 -9999 -9999 -9999 -9999 -9999 -9999 -9999 -9999 -9999 -9999 -9999 -9999 -9999 -9999 -9999 -9999 -9999 -9999 -9999 -9999 -9999 -9999 -9999 -9999 -9999 -9999 -9999 -9999 -9999 -9999 -9999 -9999 -9999 -9999 -9999 -9999 -9999 -9999 -9999 -9999 -9999 -9999 -9999 -9999 -9999 -9999 -9999 -9999 -9999 -9999 -9999 -9999 -9999 -9999 -9999 -9999 -9999 -9999 -9999 -9999 -9999 -9999 -9999 -9999 -9999 -9999 -9999 -9999 -9999 -9999 -9999 -9999 -9999 -9999 -9999 659.5182 658.1913 659.0618 660.5325 660.8783 659.7472 657.6081 655.0952 652.6802 650.8115 649.5071 648.8363 648.485 648.289 648.1769 648.1148 648.0792 648.0447 647.9999 647.9554 647.9109 647.8463 647.7599 647.6564 647.5388 647.4078 647.2756 647.1285 647.004 646.9969 646.9084 646.855 646.7675 646.6818 646.5777 646.4657 646.3479 646.2333 646.123 646 645.8649 645.7289 645.5984 645.4713 645.3411 645.1959 645.0106 644.782 644.401 643.9991 643.6106 643.2896 643.072 642.9983 642.9257 642.9994 643.1855 643.4973 643.8108 644.0065 644.203 644.39 644.5927 644.8158 645.0477 645.504 645.9455 646.2355 646.5803 646.8638 646.9995 647.0297 647.0344 647.0869 647.2778 647.6632 648.3327 649.3436 650.3141 651.6825 653.9078 656.5414 658.7547 660.056 660.8791 661.5935 -9999 -9999 -9999 -9999 -9999 -9999 -9999 -9999 -9999 -9999 -9999 -9999 -9999 -9999 -9999 -9999 -9999 -9999 -9999 -9999 -9999 -9999 -9999 -9999 -9999 -9999 -9999 -9999 -9999 -9999
-9999 -9999 -9999 -9999 -9999 -9999 -9999 -9999 -9999 -9999 -9999 -9999 -9999 -9999 -9999 -9999 -9999 -9999 -9999 -9999 -9999 -9999 -9999 -9999 -9999 -9999 -9999 -9999 -9999 -9999 -9999 -9999 -9999 -9999 -9999 -9999 -9999 -9999 -9999 -9999 -9999 -9999 -9999 -9999 -9999 -9999 -9999 -9999 -9999 -9999 -9999 -9999 -9999 -9999 -9999 -9999 -9999 -9999 -9999 -9999 -9999 -9999 -9999 -9999 -9999 -9999 -9999 -9999 -9999 -9999 -9999 -9999 -9999 -9999 -9999 -9999 -9999 -9999 -9999 -9999 -9999 -9999 -9999 -9999 -9999 -9999 662.2221 660.2019 658.5317 658.6127 659.2574 658.8524 657.4211 655.2997 653.1364 651.2806 650.0945 649.3939 648.9057 648.5656 648.3377 648.1913 648.1032 648.0497 647.9998 647.9286 647.8516 647.7695 647.6757 647.57 647.449 647.3217 647.2 647.118 647.0002 646.9022 646.8621 646.7955 646.7287 646.6439 646.5514 646.4471 646.3336 646.2148 646.0985 645.9998 645.8878 645.7637 645.637 645.5143 645.3936 645.2667 645.1283 644.9778 644.6378 644.2588 643.9749 643.6271 643.3424 643.1508 643.0536 643.0049 643.1552 643.394 643.6924 643.9838 644.113 644.262 644.4443 644.6779 644.9793 645.283 645.7024 646.0333 646.3728 646.6845 646.9142 647.0002 647.0183 647.0016 647.009 647.13 647.406 647.8878 648.5317 649.3665 650.6 652.4331 654.8723 657.3315 658.9326 660.3611 661.6411 662.7976 -9999 -9999 -9999 -9999 -9999 -9999 -9999 -9999 -9999 -9999 -9999 -9999 -9999 -9999 -9999 -9999 -9999 -9999 -9999 -9999 -9999 -9999 -9999 -9999 -9999 -9999 -9999 -9999 -9999
-9999 -9999 -9999 -9999 -9999 -9999 -9999 -9999 -9999 -9999 -9999 -9999 -9999 -9999 -9999 -9999 -9999 -9999 -9999 -9999 -9999 -9999 -9999 -9999 -9999 -9999 -9999 -9999 -9999 -9999 -9999 -9999 -9999 -9999 -9999 -9999 -9999 -9999 -9999 -9999 -9999 -9999 -9999 -9999 -9999 -9999 -9999 -9999 -9999 -9999 -9999 -9999 -9999 -9999 -9999 -9999 -9999 -9999 -9999 -9999 -9999 -9999 -9999 -9999 -9999 -9999 -9999 -9999 -9999 -9999 -9999 -9999 -9999 -9999 -9999 -9999 -9999 -9999 -9999 -9999 -9999 -9999 -9999 -9999 -9999 664.1229 662.6741 660.5209 658.5718 657.6933 657.2278 656.1807 654.6743 652.9172 651.3882 650.6348 650.4349 649.7552 649.1838 648.7428 648.4166 648.2019 648.0779 647.9996 647.9165 647.8237 647.7236 647.6172 647.504 647.3875 647.261 647.1271 647.0051 646.9965 646.8956 646.8025 646.7402 646.676 646.6074 646.5253 646.4333 646.3334 646.2274 646.1171 646.0015 645.9159 645.8113 645.6918 645.5679 645.4465 645.3246 645.1865 645.0064 644.8011 644.4408 644.0352 643.8209 643.5916 643.3915 643.2565 643.1998 643.2241 643.3831 643.6093 643.8345 644.0042 644.1504 644.2943 644.4685 644.6979 645.0092 645.4478 645.9427 646.2406 646.533 646.8014 646.9979 647.031 647.016 646.9814 646.9631 647.0264 647.2042 647.5007 647.9673 648.6958 649.797 651.1442 653.3218 656.1432 658.5893 660.6401 662.2442 663.3199 -9999 -9999 -9999 -9999 -9999 -9999 -9999 -9999 -9999 -9999 -9999 -9999 -9999 -9999 -9999 -9999 -9999 -9999 -9999 -9999 -9999 -9999 -9999 -9999 -9999 -9999 -9999 -9999 -9999
-9999 -9999 -9999 -9999 -9999 -9999 -9999 -9999 -9999 -9999 -9999 -9999 -9999 -9999 -9999 -9999 -9999 -9999 -9999 -9999 -9999 -9999 -9999 -9999 -9999 -9999 -9999 -9999 -9999 -9999 -9999 -9999 -9999 -9999 -9999 -9999 -9999 -9999 -9999 -9999 -9999 -9999 -9999 -9999 -9999 -9999 -9999 -9999 -9999 -9999 -9999 -9999 -9999 -9999 -9999 -9999 -9999 -9999 -9999 -9999 -9999 -9999 -9999 -9999 -9999 -9999 -9999 -9999 -9999 -9999 -9999 -9999 -9999 -9999 -9999 -9999 -9999 -9999 -9999 -9999 -9999 -9999 -9999 -9999 665.3577 664.2461 662.5706 660.2592 657.9835 656.2635 654.9029 653.5867 652.238 650.9737 650.208 649.9128 649.9063 649.6696 649.238 648.785 648.4064 648.1459 647.9998 647.901 647.8059 647.7021 647.5896 647.472 647.3518 647.2336 647.1161 646.9998 646.8997 646.8533 646.7732 646.6899 646.6208 646.5562 646.489 646.4128 646.3267 646.2356 646.1461 646.0682 645.9988 645.8843 645.7646 645.64 645.514 645.3925 645.2756 645.1538 644.9981 644.7244 644.3601 644.0005 643.7725 643.5938 643.459 643.3835 643.3793 643.4547 643.6202 643.8289 643.9975 644.0996 644.2037 644.3278 644.4915 644.7103 645.0116 645.507 645.9895 646.3417 646.6329 646.8624 647 647.0135 646.9838 646.9445 646.9174 646.9461 647.0622 647.248 647.5967 648.2518 649.3809 650.3834 652.1186 654.9247 657.9146 660.5478 662.4322 663.16 664.0205 -9999 -9999 -9999 -9999 -9999 -9999 -9999 -9999 -9999 -9999 -9999 -9999 -9999 -9999 -9999 -9999 -9999 -9999 -9999 -9999 -9999 -9999 -9999 -9999 -9999 -9999 -9999 -9999
-9999 -9999 -9999 -9999 -9999 -9999 -9999 -9999 -9999 -9999 -9999 -9999 -9999 -9999 -9999 -9999 -9999 -9999 -9999 -9999 -9999 -9999 -9999 -9999 -9999 -9999 -9999 -9999 -9999 -9999 -9999 -9999 -9999 -9999 -9999 -9999 -9999 -9999 -9999 -9999 -9999 -9999 -9999 -9999 -9999 -9999 -9999 -9999 -9999 -9999 -9999 -9999 -9999 -9999 -9999 -9999 -9999 -9999 -9999 -9999 -9999 -9999 -9999 -9999 -9999 -9999 -9999 -9999 -9999 -9999 -9999 -9999 -9999 -9999 -9999 -9999 -9999 -9999 -9999 -9999 -9999 -9999 -9999 665.6966 664.8866 663.6858 661.8174 659.2951 656.6902 654.414 652.6932 651.425 650.5196 649.9282 649.53 649.3353 649.2889 649.2028 648.9976 648.6099 648.2513 648.0043 647.8766 647.782 647.6852 647.576 647.4582 647.3377 647.2203 647.1073 646.9999 646.8971 646.807 646.738 646.6605 646.5811 646.509 646.4436 646.3785 646.3095 646.2319 646.1483 646.0658 646.0001 645.9328 645.8308 645.7139 645.5895 645.4617 645.3368 645.2191 645.1078 644.9893 644.6846 644.3275 644.001 643.7813 643.6341 643.5449 643.516 643.5507 643.6495 643.8073 643.9941 644.0952 644.1689 644.2523 644.371 644.5464 644.7858 645.0793 645.6154 646.033 646.4125 646.7021 646.9021 646.9999 646.9793 646.9264 646.8851 646.8602 646.8741 646.9661 647.1058 647.3657 647.8987 648.7126 649.6879 651.1718 653.6143 656.6078 659.54 661.8354 663.0494 663.8484 664.2357 -9999 -9999 -9999 -9999 -9999 -9999 -9999 -9999 -9999 -9999 -9999 -9999 -9999 -9999 -9999 -9999 -9999 -9999 -9999 -9999 -9999 -9999 -9999 -9999 -9999 -9999 -9999
-9999 -9999 -9999 -9999 -9999 -9999 -9999 -9999 -9999 -9999 -9999 -9999 -9999 -9999 -9999 -9999 -9999 -9999 -9999 -9999 -9999 -9999 -9999 -9999 -9999 -9999 -9999 -9999 -9999 -9999 -9999 -9999 -9999 -9999 -9999 -9999 -9999 -9999 -9999 -9999 -9999 -9999 -9999 -9999 -9999 -9999 -9999 -9999 -9999 -9999 -9999 -9999 -9999 -9999 -9999 -9999 -9999 -9999 -9999 -9999 -9999 -9999 -9999 -9999 -9999 -9999 -9999 -9999 -9999 -9999 -9999 -9999 -9999 -9999 -9999 -9999 -9999 -9999 -9999 -9999 -9999 -9999 666.2435 665.3098 664.272 662.7758 660.5629 657.7869 654.9606 652.5069 650.822 649.9201 649.8728 649.5323 649.2496 649.0178 648.8329 648.6953 648.5446 648.2806 648.0124 647.8573 647.7562 647.6662 647.5662 647.4523 647.331 647.214 647.1035 646.9999 646.9003 646.8074 646.7228 646.6458 646.5667 646.4877 646.4137 646.3465 646.2838 646.2207 646.1544 646.0812 646.0005 645.9425 645.8691 645.7704 645.656 645.5327 645.4037 645.2728 645.1421 645.0041 644.8685 644.6038 644.288 644.0012 643.8101 643.6934 643.6382 643.6409 643.6963 643.7919 643.9025 644.002 644.116 644.2 644.2856 644.4152 644.6326 644.973 645.3909 645.9139 646.2466 646.5448 646.7822 646.9398 647 646.9462 646.8635 646.8118 646.7925 646.8054 646.8804 647.0142 647.1954 647.5651 648.1949 649.2068 650.5706 652.2803 654.7928 657.7308 660.4171 662.358 663.4928 664.005 664.1115 -9999 -9999 -9999 -9999 -9999 -9999 -9999 -9999 -9999 -9999 -9999 -9999 -9999 -9999 -9999 -9999 -9999 -9999 -9999 -9999 -9999 -9999 -9999 -9999 -9999 -9999
-9999 -9999 -9999 -9999 -9999 -9999 -9999 -9999 -9999 -9999 -9999 -9999 -9999 -9999 -9999 -9999 -9999 -9999 -9999 -9999 -9999 -9999 -9999 -9999 -9999 -9999 -9999 -9999 -9999 -9999 -9999 -9999 -9999 -9999 -9999 -9999 -9999 -9999 -9999 -9999 -9999 -9999 -9999 -9999 -9999 -9999 -9999 -9999 -9999 -9999 -9999 -9999 -9999 -9999 -9999 -9999 -9999 -9999 -9999 -9999 -9999 -9999 -9999 -9999 -9999 -9999 -9999 -9999 -9999 -9999 -9999 -9999 -9999 -9999 -9999 -9999 -9999 -9999 -9999 -9999 -9999 666.0388 665.9127 664.8724 663.4303 661.4518 658.8724 655.9209 653.1345 650.9513 649.4981 649.0222 649.3065 649.1807 649.0258 648.841 648.5816 648.351 648.1897 648.0054 647.8563 647.7472 647.6547 647.5598 647.4523 647.3318 647.209 647.0997 647 646.9054 646.8145 646.728 646.6477 646.5702 646.4908 646.4124 646.3381 646.2696 646.208 646.1504 646.0969 646.0483 645.9995 645.9137 645.8193 645.7124 645.5958 645.4723 645.3433 645.213 645.0914 644.9951 644.7943 644.5305 644.2474 644.0009 643.8444 643.7574 643.7283 643.7515 643.819 643.9127 643.9998 644.0726 644.1554 644.2283 644.3077 644.434 644.6573 645.027 645.5933 646.0393 646.3981 646.6649 646.8563 646.9727 647 646.9285 646.8225 646.7483 646.7269 646.7452 646.8019 646.9324 647.0959 647.3777 647.9281 648.8286 650.1003 651.1619 652.8958 655.5229 658.3733 660.8668 662.6772 663.6411 664.0063 663.9932 -9999 -9999 -9999 -9999 -9999 -9999 -9999 -9999 -9999 -9999 -9999 -9999 -9999 -9999 -9999 -9999 -9999 -9999 -9999 -9999 -9999 -9999 -9999 -9999 -9999
-9999 -9999 -9999 -9999 -9999 -9999 -9999 -9999 -9999 -9999 -9999 -9999 -9999 -9999 -9999 -9999 -9999 -9999 -9999 -9999 -9999 -9999 -9999 -9999 -9999 -9999 -9999 -9999 -9999 -9999 -9999 -9999 -9999 -9999 -9999 -9999 -9999 -9999 -9999 -9999 -9999 -9999 -9999 -9999 -9999 -9999 -9999 -9999 -9999 -9999 -9999 -9999 -9999 -9999 -9999 -9999 -9999 -9999 -9999 -9999 -9999 -9999 -9999 -9999 -9999 -9999 -9999 -9999 -9999 -9999 -9999 -9999 -9999 -9999 -9999 -9999 -9999 -9999 -9999 -9999 -9999 665.6044 665.3158 663.9841 662.0828 659.6735 656.8425 653.9564 651.6073 649.8842 648.7809 648.3413 648.4943 648.6796 648.6458 648.5951 648.4092 648.1615 647.9987 647.8644 647.7554 647.6598 647.5632 647.4585 647.3432 647.2179 647.094 646.9999 646.9124 646.8274 646.7433 646.6613 646.5825 646.5068 646.4297 646.3525 646.2794 646.2119 646.1498 646.0943 646.043 646 645.9474 645.8639 645.7644 645.6534 645.5345 645.4114 645.2832 645.1476 645.0027 644.8923 644.6978 644.4521 644.2041 644.0005 643.8782 643.8163 643.8055 643.8394 643.9089 643.9991 644.067 644.1325 644.1988 644.261 644.3334 644.452 644.6735 645.0807 645.8356 646.2584 646.5613 646.7749 646.918 646.9999 647.0096 646.941 646.8262 646.7263 646.6865 646.7014 646.7551 646.8392 646.9879 647.1923 647.545 648.1312 648.9786 649.8256 651.1556 653.3787 656.0701 658.7761 661.1292 662.777 663.6021 663.761 663.0618 -9999 -9999 -9999 -9999 -9999 -9999 -9999 -9999 -9999 -9999 -9999 -9999 -9999 -9999 -9999 -9999 -9999 -9999 -9999 -9999 -9999 -9999 -9999 -9999
-9999 -9999 -9999 -9999 -9999 -9999 -9999 -9999 -9999 -9999 -9999 -9999 -9999 -9999 -9999 -9999 -9999 -9999 -9999 -9999 -9999 -9999 -9999 -9999 -9999 -9999 -9999 -9999 -9999 -9999 -9999 -9999 -9999 -9999 -9999 -9999 -9999 -9999 -9999 -9999 -9999 -9999 -9999 -9999 -9999 -9999 -9999 -9999 -9999 -9999 -9999 -9999 -9999 -9999 -9999 -9999 -9999 -9999 -9999 -9999 -9999 -9999 -9999 -9999 -9999 -9999 -9999 -9999 -9999 -9999 -9999 -9999 -9999 -9999 -9999 -9999 -9999 -9999 -9999 664.1406 664.9931 665.0059 664.1501 662.4835 660.258 657.6391 654.8126 652.4007 650.5919 649.5182 648.6957 648.1372 647.9785 648.0698 648.2014 648.2595 648.182 648.005 647.8756 647.7686 647.6723 647.5754 647.4705 647.3588 647.2438 647.1239 647.0016 646.9253 646.8475 646.7679 646.6881 646.6082 646.5294 646.4534 646.3788 646.3046 646.2335 646.1682 646.1085 646.0532 646.0002 645.9557 645.8931 645.8065 645.704 645.5918 645.4734 645.3538 645.2361 645.1204 644.9998 644.8352 644.6171 644.376 644.157 644.0005 643.9073 643.8636 643.8634 643.8983 643.952 644.0006 644.0903 644.17 644.2379 644.3004 644.3755 644.4946 644.707 645.0985 645.899 646.3682 646.6631 646.8451 646.9492 647.0001 647.022 646.9809 646.8798 646.7664 646.6956 646.6915 646.7337 646.797 646.8745 647.0027 647.2106 647.5405 648.046 648.7134 649.7606 651.4611 653.8097 656.3619 658.9808 661.1458 662.5609 662.9999 662.7679 662.3186 -9999 -9999 -9999 -9999 -9999 -9999 -9999 -9999 -9999 -9999 -9999 -9999 -9999 -9999 -9999 -9999 -9999 -9999 -9999 -9999 -9999 -9999 -9999
-9999 -9999 -9999 -9999 -9999 -9999 -9999 -9999 -9999 -9999 -9999 -9999 -9999 -9999 -9999 -9999 -9999 -9999 -9999 -9999 -9999 -9999 -9999 -9999 -9999 -9999 -9999 -9999 -9999 -9999 -9999 -9999 -9999 -9999 -9999 -9999 -9999 -9999 -9999 -9999 -9999 -9999 -9999 -9999 -9999 -9999 -9999 -9999 -9999 -9999 -9999 -9999 -9999 -9999 -9999 -9999 -9999 -9999 -9999 -9999 -9999 -9999 -9999 -9999 -9999 -9999 -9999 -9999 -9999 -9999 -9999 -9999 -9999 -9999 -9999 -9999 -9999 -9999 663.7897 664.4093 664.7821 664.1069 662.6189 660.5564 658.2006 655.761 653.2982 651.4716 650.421 649.7175 649.0815 648.4454 647.9861 647.835 647.939 648.0498 648.0016 647.9031 647.7972 647.6941 647.594 647.4899 647.3773 647.2638 647.1609 647.0719 646.999 646.899 646.8085 646.7252 646.6451 646.5663 646.4871 646.4098 646.3354 646.264 646.1962 646.1345 646.0798 646.0333 645.9998 645.9297 645.8457 645.7484 645.641 645.5267 645.4098 645.2936 645.1832 645.084 644.9959 644.7881 644.5426 644.296 644.0959 643.9992 643.9237 643.8931 643.9013 643.9412 643.9998 644.0433 644.1193 644.1992 644.2716 644.344 644.437 644.5804 644.806 645.1538 645.9218 646.4071 646.7046 646.875 646.9603 647.0001 647.0382 647.0343 646.968 646.8642 646.7695 646.7314 646.7493 646.7894 646.8259 646.8755 646.9672 647.1411 647.4507 647.9565 648.7743 650.077 651.8203 653.9799 656.582 659.0178 660.9352 662.0784 662.7829 663.2363 664.0073 -9999 -9999 -9999 -9999 -9999 -9999 -9999 -9999 -9999 -9999 -9999 -9999 -9999 -9999 -9999 -9999 -9999 -9999 -9999 -9999 -9999 -9999
-9999 -9999 -9999 -9999 -9999 -9999 -9999 -9999 -9999 -9999 -9999 -9999 -9999 -9999 -9999 -9999 -9999 -9999 -9999 -9999 -9999 -9999 -9999 -9999 -9999 -9999 -9999 -9999 -9999 -9999 -9999 -9999 -9999 -9999 -9999 -9999 -9999 -9999 -9999 -9999 -9999 -9999 -9999 -9999 -9999 -9999 -9999 -9999 -9999 -9999 -9999 -9999 -9999 -9999 -9999 -9999 -9999 -9999 -9999 -9999 -9999 -9999 -9999 -9999 -9999 -9999 -9999 -9999 -9999 -9999 -9999 -9999 -9999 -9999 -9999 -9999 -9999 663.6877 664.0067 664.0714 663.8145 662.5798 660.6308 658.3309 656.0579 654.1325 652.0405 651.2459 650.5612 649.9702 649.3987 648.8622 648.3057 647.9573 647.9351 647.9997 647.9365 647.835 647.7257 647.6177 647.5112 647.4008 647.2831 647.1691 647.0765 647.0001 646.936 646.8531 646.7682 646.686 646.6071 646.5291 646.4513 646.373 646.2977 646.2274 646.1627 646.1048 646.0529 646.0002 645.9596 645.8859 645.7933 645.6877 645.5752 645.4595 645.3428 645.228 645.1158 645.002 644.901 644.7061 644.4623 644.2124 644.0033 643.9384 643.9045 643.8969 643.9139 643.9518 644.0001 644.0531 644.1276 644.2097 644.2887 644.374 644.4925 644.6831 644.9814 645.3491 645.9769 646.424 646.7094 646.8752 646.958 647.0001 647.0554 647.0869 647.0676 646.9937 646.9011 646.8312 646.8113 646.8207 646.8263 646.8308 646.8546 646.9293 647.1202 647.5066 648.1768 649.2783 650.6798 652.1779 654.3467 656.7795 659.0706 660.9617 662.6948 663.9786 664.8513 665.3482 -9999 -9999 -9999 -9999 -9999 -9999 -9999 -9999 -9999 -9999 -9999 -9999 -9999 -9999 -9999 -9999 -9999 -9999 -9999 -9999 -9999
-9999 -9999 -9999 -9999 -9999 -9999 -9999 -9999 -9999 -9999 -9999 -9999 -9999 -9999 -9999 -9999 -9999 -9999 -9999 -9999 -9999 -9999 -9999 -9999 -9999 -9999 -9999 -9999 -9999 -9999 -9999 -9999 -9999 -9999 -9999 -9999 -9999 -9999 -9999 -9999 -9999 -9999 -9999 -9999 -9999 -9999 -9999 -9999 -9999 -9999 -9999 -9999 -9999 -9999 -9999 -9999 -9999 -9999 -9999 -9999 -9999 -9999 -9999 -9999 -9999 -9999 -9999 -9999 -9999 -9999 -9999 -9999 -9999 -9999 -9999 -9999 664.4113 664.2012 663.967 663.4187 662.3907 660.5972 658.3041 655.8977 653.7228 651.9156 650.4562 650.0725 649.8448 649.5708 649.2285 648.8727 648.4667 648.1138 647.9976 647.9246 647.8338 647.7289 647.6204 647.5143 647.4109 647.3041 647.1891 647.0778 647 646.935 646.8735 646.8016 646.7245 646.6462 646.5685 646.4919 646.4154 646.3387 646.2631 646.1924 646.1298 646.0774 646.0375 645.9998 645.9283 645.8391 645.7358 645.6243 645.5081 645.3914 645.2769 645.168 645.0724 644.9978 644.845 644.6398 644.4059 644.1777 643.9998 643.9199 643.8916 643.8926 643.9137 643.9512 643.9999 644.0394 644.1127 644.1968 644.279 644.3673 644.4893 644.6831 644.9825 645.351 645.9771 646.4089 646.6838 646.8517 646.9454 647.0001 647.0695 647.1315 647.1608 647.1346 647.0608 646.9822 646.927 646.8944 646.8687 646.8458 646.8372 646.8605 646.9836 647.2996 647.902 648.8123 650.0428 650.9252 652.3663 654.5339 657.0555 659.6515 662.075 663.8022 664.7499 664.9285 -9999 -9999 -9999 -9999 -9999 -9999 -9999 -9999 -9999 -9999 -9999 -9999 -9999 -9999 -9999 -9999 -9999 -9999 -9999 -9999 -9999
-9999 -9999 -9999 -9999 -9999 -9999 -9999 -9999 -9999 -9999 -9999 -9999 -9999 -9999 -9999 -9999 -9999 -9999 -9999 -9999 -9999 -9999 -9999 -9999 -9999 -9999 -9999 -9999 -9999 -9999 -9999 -9999 -9999 -9999 -9999 -9999 -9999 -9999 -9999 -9999 -9999 -9999 -9999 -9999 -9999 -9999 -9999 -9999 -9999 -9999 -9999 -9999 -9999 -9999 -9999 -9999 -9999 -9999 -9999 -9999 -9999 -9999 -9999 -9999 -9999 -9999 -9999 -9999 -9999 -9999 -9999 -9999 -9999 -9999 -9999 665.7101 665.2873 664.5063 663.7059 662.468 660.6783 658.3772 655.8742 653.5711 651.6167 650.1019 649.2247 649.0295 649.042 648.9945 648.8239 648.5834 648.2855 648.0073 647.8579 647.7542 647.6602 647.5665 647.4719 647.3802 647.2928 647.2035 647.1046 647.0009 646.9418 646.8842 646.8235 646.7551 646.6818 646.606 646.5289 646.4525 646.3772 646.3021 646.2281 646.1576 646.0939 646.0392 646 645.9525 645.8764 645.781 645.673 645.5574 645.4398 645.324 645.2119 645.1041 645.0013 644.9209 644.7737 644.5787 644.3631 644.1586 644.0001 643.9174 643.8868 643.8874 643.9057 643.9349 643.9683 644.0003 644.0825 644.1676 644.2463 644.3256 644.4276 644.5803 644.8108 645.1561 645.9131 646.3486 646.6242 646.8046 646.922 647.0002 647.077 647.1674 647.2432 647.272 647.2376 647.1613 647.0857 647.0154 646.9498 646.899 646.8719 646.866 646.9286 647.1337 647.5374 648.1251 648.9227 649.6462 650.7531 652.433 654.7899 657.71 660.5845 662.7957 663.8546 663.7164 662.8986 -9999 -9999 -9999 -9999 -9999 -9999 -9999 -9999 -9999 -9999 -9999 -9999 -9999 -9999 -9999 -9999 -9999 -9999 -9999 -9999
-9999 -9999 -9999 -9999 -9999 -9999 -9999 -9999 -9999 -9999 -9999 -9999 -9999 -9999 -9999 -9999 -9999 -9999 -9999 -9999 -9999 -9999 -9999 -9999 -9999 -9999 -9999 -9999 -9999 -9999 -9999 -9999 -9999 -9999 -9999 -9999 -9999 -9999 -9999 -9999 -9999 -9999 -9999 -9999 -9999 -9999 -9999 -9999 -9999 -9999 -9999 -9999 -9999 -9999 -9999 -9999 -9999 -9999 -9999 -9999 -9999 -9999 -9999 -9999 -9999 -9999 -9999 -9999 -9999 -9999 -9999 -9999 -9999 -9999 665.2454 666.0887 665.8675 664.7661 663.2086 661.1676 658.7325 656.1051 653.6476 651.5957 650.1003 649.0942 648.5099 648.371 648.4573 648.5111 648.429 648.2418 648.0111 647.825 647.6857 647.5759 647.4828 647.3987 647.3195 647.2452 647.1783 647.1161 647.0549 646.9996 646.9246 646.8549 646.7872 646.7166 646.6425 646.5665 646.4892 646.412 646.3363 646.2627 646.191 646.1233 646.061 646.0002 645.9583 645.8999 645.8173 645.7169 645.6056 645.4889 645.3721 645.2599 645.1558 645.0643 644.9987 644.874 644.7129 644.5248 644.327 644.1434 644.0001 643.9203 643.8876 643.8852 643.9003 643.9256 643.9583 644 644.0671 644.1395 644.2073 644.2744 644.3597 644.4902 644.7064 645.0841 645.832 646.2297 646.5225 646.7319 646.882 646.9988 647.0658 647.1899 647.3195 647.4054 647.4207 647.3647 647.2752 647.1743 647.069 646.9823 646.9338 646.9047 646.9198 647.0229 647.2421 647.5703 648.0429 648.6324 649.5207 650.923 652.878 655.4814 658.4529 660.952 662.2152 662.0535 661.0468 -9999 -9999 -9999 -9999 -9999 -9999 -9999 -9999 -9999 -9999 -9999 -9999 -9999 -9999 -9999 -9999 -9999 -9999 -9999 -9999
-9999 -9999 -9999 -9999 -9999 -9999 -9999 -9999 -9999 -9999 -9999 -9999 -9999 -9999 -9999 -9999 -9999 -9999 -9999 -9999 -9999 -9999 -9999 -9999 -9999 -9999 -9999 -9999 -9999 -9999 -9999 -9999 -9999 -9999 -9999 -9999 -9999 -9999 -9999 -9999 -9999 -9999 -9999 -9999 -9999 -9999 -9999 -9999 -9999 -9999 -9999 -9999 -9999 -9999 -9999 -9999 -9999 -9999 -9999 -9999 -9999 -9999 -9999 -9999 -9999 -9999 -9999 -9999 -9999 -9999 -9999 -9999 -9999 663.2494 664.7573 665.6814 665.4803 664.1041 661.9678 659.3535 656.6135 653.9989 651.7545 650.2079 649.4657 648.8189 648.3044 648.1268 648.1497 648.2034 648.1575 648.0029 647.8307 647.6798 647.5526 647.444 647.3513 647.2726 647.2039 647.1428 647.0901 647.0432 647.0001 646.9589 646.8972 646.8281 646.7566 646.6829 646.6064 646.5282 646.4496 646.3711 646.2946 646.2211 646.1518 646.09 646.0417 645.9998 645.9307 645.8517 645.758 645.6515 645.537 645.4196 645.3049 645.1978 645.0989 645.001 644.9321 644.8103 644.6515 644.4735 644.2933 644.129 644.0001 643.925 643.8917 643.8864 643.8988 643.9232 643.9572 644 644.053 644.1129 644.1714 644.2317 644.312 644.4409 644.6586 645.0226 645.6077 646.0315 646.394 646.6418 646.804 646.9159 647.0033 647.1951 647.3907 647.5402 647.6071 647.5845 647.4946 647.3694 647.2252 647.0966 647.0165 646.9673 646.9485 646.9817 647.0663 647.209 647.4926 647.9576 648.6987 649.9114 651.6084 653.4794 656.1106 658.7067 660.2585 660.2792 659.3389 658.2129 -9999 -9999 -9999 -9999 -9999 -9999 -9999 -9999 -9999 -9999 -9999 -9999 -9999 -9999 -9999 -9999 -9999 -9999 -9999
-9999 -9999 -9999 -9999 -9999 -9999 -9999 -9999 -9999 -9999 -9999 -9999 -9999 -9999 -9999 -9999 -9999 -9999 -9999 -9999 -9999 -9999 -9999 -9999 -9999 -9999 -9999 -9999 -9999 -9999 -9999 -9999 -9999 -9999 -9999 -9999 -9999 -9999 -9999 -9999 -9999 -9999 -9999 -9999 -9999 -9999 -9999 -9999 -9999 -9999 -9999 -9999 -9999 -9999 -9999 -9999 -9999 -9999 -9999 -9999 -9999 -9999 -9999 -9999 -9999 -9999 -9999 -9999 -9999 -9999 -9999 -9999 -9999 662.6639 663.6768 664.3347 663.9866 662.3947 659.9658 657.1755 654.5625 652.1604 650.2767 649.4617 649.4404 648.8936 648.3713 648.1332 648.0751 648.0562 647.9996 647.8702 647.7175 647.575 647.4538 647.3517 647.2661 647.1951 647.1353 647.0837 647.0404 647.0001 646.9663 646.9247 646.8679 646.8006 646.7272 646.6503 646.571 646.4904 646.4097 646.3302 646.2531 646.1795 646.1091 646.0453 646 645.9518 645.8806 645.7939 645.694 645.5839 645.4677 645.3502 645.2382 645.14 645.0646 644.999 644.8894 644.7523 644.5933 644.4246 644.2604 644.1144 644.0001 643.9303 643.8965 643.8884 643.898 643.9214 643.9564 643.9999 644.0334 644.0846 644.1399 644.2006 644.285 644.4231 644.6516 645.0087 645.5186 645.9915 646.3459 646.5883 646.7484 646.8682 647.0007 647.2271 647.4661 647.67 647.7941 647.8114 647.737 647.6006 647.4244 647.2509 647.1271 647.0541 647.0138 647.0104 647.0169 647.0383 647.1859 647.528 648.1187 649.208 650.8243 651.9785 653.9861 656.4528 658.214 658.5646 657.9193 657.159 -9999 -9999 -9999 -9999 -9999 -9999 -9999 -9999 -9999 -9999 -9999 -9999 -9999 -9999 -9999 -9999 -9999 -9999 -9999
-9999 -9999 -9999 -9999 -9999 -9999 -9999 -9999 -9999 -9999 -9999 -9999 -9999 -9999 -9999 -9999 -9999 -9999 -9999 -9999 -9999 -9999 -9999 -9999 -9999 -9999 -9999 -9999 -9999 -9999 -9999 -9999 -9999 -9999 -9999 -9999 -9999 -9999 -9999 -9999 -9999 -9999 -9999 -9999 -9999 -9999 -9999 -9999 -9999 -9999 -9999 -9999 -9999 -9999 -9999 -9999 -9999 -9999 -9999 -9999 -9999 -9999 -9999 -9999 -9999 -9999 -9999 -9999 -9999 -9999 -9999 -9999 661.936 662.2575 662.3997 662.4921 661.7952 660.0059 657.5382 654.9889 652.6718 650.6588 649.1801 648.6307 648.75 648.7748 648.3611 648.1436 648.0519 648.0001 647.9117 647.7805 647.6345 647.4961 647.377 647.28 647.2029 647.1421 647.0933 647.0532 647.0239 646.9999 646.9513 646.8983 646.8384 646.7706 646.6959 646.6167 646.5347 646.4515 646.3688 646.2884 646.2124 646.141 646.0713 646.0004 645.9536 645.895 645.8179 645.7262 645.6232 645.5121 645.3967 645.2807 645.1686 645.069 645 644.9293 644.8218 644.6862 644.533 644.3751 644.2263 644.0985 644.0001 643.9357 643.9004 643.8883 643.8937 643.9128 643.9423 643.9747 644.0001 644.0531 644.1106 644.1747 644.2651 644.4122 644.6512 645.0077 645.4795 645.9896 646.3383 646.5651 646.7171 646.8434 647.0015 647.2588 647.5383 647.7869 647.9632 648.0327 647.9873 647.8582 647.6656 647.4534 647.28 647.1725 647.1125 647.0968 647.0806 647.0442 647.1 647.3419 647.7315 648.439 649.7465 650.9713 652.4632 654.4284 656.2007 656.9609 656.767 656.3127 656.4369 -9999 -9999 -9999 -9999 -9999 -9999 -9999 -9999 -9999 -9999 -9999 -9999 -9999 -9999 -9999 -9999 -9999 -9999
-9999 -9999 -9999 -9999 -9999 -9999 -9999 -9999 -9999 -9999 -9999 -9999 -9999 -9999 -9999 -9999 -9999 -9999 -9999 -9999 -9999 -9999 -9999 -9999 -9999 -9999 -9999 -9999 -9999 -9999 -9999 -9999 -9999 -9999 -9999 -9999 -9999 -9999 -9999 -9999 -9999 -9999 -9999 -9999 -9999 -9999 -9999 -9999 -9999 -9999 -9999 -9999 -9999 -9999 -9999 -9999 -9999 -9999 -9999 -9999 -9999 -9999 -9999 -9999 -9999 -9999 -9999 -9999 -9999 -9999 -9999 662.0232 662.241 661.8345 660.9557 660.3879 659.248 657.3331 655.0803 652.8746 650.9767 649.4918 648.4463 647.9864 648.0408 648.1526 648.0891 648.0537 648.0002 647.9475 647.8424 647.7015 647.5542 647.4202 647.3082 647.2195 647.1515 647.0996 647.059 647.025 647 646.971 646.9238 646.8677 646.8052 646.7365 646.6614 646.5807 646.4965 646.4105 646.3253 646.2438 646.1699 646.106 646.05 645.9996 645.921 645.8384 645.7485 645.6505 645.5456 645.436 645.3247 645.2146 645.1063 645.001 644.9344 644.8541 644.746 644.6146 644.4692 644.3226 644.1883 644.0787 644.0001 643.9402 643.9014 643.8842 643.8845 643.8995 643.9265 643.9615 643.9999 644.0321 644.0839 644.1471 644.2368 644.3813 644.6168 644.9712 645.3896 645.9753 646.3303 646.5472 646.6939 646.8267 647.0022 647.2874 647.6001 647.8856 648.1064 648.2242 648.2235 648.1185 647.9337 647.6984 647.4822 647.3297 647.2441 647.2225 647.2155 647.189 647.2123 647.4099 647.6904 648.1255 649.2322 650.5195 651.6959 652.6475 654.301 655.4898 655.8591 655.8443 656.0446 -9999 -9999 -9999 -9999 -9999 -9999 -9999 -9999 -9999 -9999 -9999 -9999 -9999 -9999 -9999 -9999 -9999 -9999
-9999 -9999 -9999 -9999 -9999 -9999 -9999 -9999 -9999 -9999 -9999 -9999 -9999 -9999 -9999 -9999 -9999 -9999 -9999 -9999 -9999 -9999 -9999 -9999 -9999 -9999 -9999 -9999 -9999 -9999 -9999 -9999 -9999 -9999 -9999 -9999 -9999 -9999 -9999 -9999 -9999 -9999 -9999 -9999 -9999 -9999 -9999 -9999 -9999 -9999 -9999 -9999 -9999 -9999 -9999 -9999 -9999 -9999 -9999 -9999 -9999 -9999 -9999 -9999 -9999 -9999 -9999 -9999 -9999 -9999 662.8419 663.2944 662.8265 661.3903 659.4167 658.3849 656.6961 654.7599 652.7849 651.0044 649.6209 648.7706 648.1628 647.798 647.7579 647.8419 647.9226 648.004 647.9998 647.9023 647.7615 647.6077 647.463 647.3392 647.2402 647.165 647.1088 647.0664 647.0325 647.0001 646.9755 646.9407 646.8914 646.8329 646.7681 646.698 646.6223 646.5411 646.4554 646.3673 646.2789 646.1941 646.1184 646.0576 646 645.9399 645.8585 645.7669 645.6688 645.5662 645.4607 645.3547 645.2513 645.1546 645.0696 644.999 644.8962 644.7901 644.6726 644.5424 644.4039 644.267 644.1438 644.0496 643.9998 643.9379 643.8943 643.8722 643.868 643.8788 643.9027 643.9362 643.9716 644.0001 644.0547 644.1139 644.1936 644.3165 644.5071 644.7848 645.1668 645.9137 646.2885 646.5077 646.6628 646.8096 647.0024 647.3079 647.6482 647.9613 648.2159 648.3751 648.4185 648.3514 648.1944 647.9651 647.7209 647.5277 647.4077 647.3662 647.3818 647.3868 647.4374 647.631 647.9495 648.2164 649.1586 650.4586 651.3672 651.3172 652.678 654.1915 655.0009 655.3973 655.7189 -9999 -9999 -9999 -9999 -9999 -9999 -9999 -9999 -9999 -9999 -9999 -9999 -9999 -9999 -9999 -9999 -9999 -9999
-9999 -9999 -9999 -9999 -9999 -9999 -9999 -9999 -9999 -9999 -9999 -9999 -9999 -9999 -9999 -9999 -9999 -9999 -9999 -9999 -9999 -9999 -9999 -9999 -9999 -9999 -9999 -9999 -9999 -9999 -9999 -9999 -9999 -9999 -9999 -9999 -9999 -9999 -9999 -9999 -9999 -9999 -9999 -9999 -9999 -9999 -9999 -9999 -9999 -9999 -9999 -9999 -9999 -9999 -9999 -9999 -9999 -9999 -9999 -9999 -9999 -9999 -9999 -9999 -9999 -9999 -9999 -9999 -9999 663.7309 664.575 664.5739 663.447 661.4086 658.9484 656.7627 654.434 652.5285 650.8972 649.6262 648.8582 648.4106 648.2034 648.0051 647.8871 647.8801 647.9417 647.9998 647.928 647.7925 647.6356 647.4836 647.3533 647.2498 647.1716 647.1146 647.073 647.0421 647.0199 646.9999 646.9609 646.9138 646.8577 646.7944 646.7264 646.6543 646.5778 646.4966 646.411 646.322 646.2312 646.1411 646.0587 645.9999 645.9357 645.864 645.778 645.6819 645.5792 645.4735 645.3685 645.2668 645.1702 645.0807 645.0002 644.9276 644.8301 644.7198 644.5997 644.4717 644.3401 644.2122 644.0959 644.0004 643.9597 643.9125 643.8726 643.8488 643.8413 643.8484 643.8698 643.9045 643.9495 643.9999 644.0372 644.0813 644.1496 644.2554 644.4202 644.6775 645.0887 645.8386 646.1935 646.4326 646.6165 646.7887 647.0026 647.3199 647.6758 648.0093 648.2861 648.4782 648.5582 648.5303 648.4122 648.214 647.9711 647.7494 647.5982 647.5235 647.5368 647.5742 647.6299 647.7814 647.9951 648.235 649.0675 650.2177 650.3982 650.1902 651.4647 653.1367 654.2921 655.0404 655.5483 655.8499 -9999 -9999 -9999 -9999 -9999 -9999 -9999 -9999 -9999 -9999 -9999 -9999 -9999 -9999 -9999 -9999 -9999
-9999 -9999 -9999 -9999 -9999 -9999 -9999 -9999 -9999 -9999 -9999 -9999 -9999 -9999 -9999 -9999 -9999 -9999 -9999 -9999 -9999 -9999 -9999 -9999 -9999 -9999 -9999 -9999 -9999 -9999 -9999 -9999 -9999 -9999 -9999 -9999 -9999 -9999 -9999 -9999 -9999 -9999 -9999 -9999 -9999 -9999 -9999 -9999 -9999 -9999 -9999 -9999 -9999 -9999 -9999 -9999 -9999 -9999 -9999 -9999 -9999 -9999 -9999 -9999 -9999 -9999 -9999 -9999 664.2043 665.4717 665.9708 665.1877 663.3386 660.6796 657.7412 654.9924 652.6115 650.8802 649.685 649.0068 648.6293 648.4569 648.321 648.1686 648.0829 648.0298 647.9993 647.9163 647.7833 647.6262 647.4724 647.3397 647.2357 647.1595 647.1062 647.0692 647.0417 647.0187 647 646.9767 646.9355 646.882 646.8195 646.7509 646.6786 646.6039 646.5266 646.446 646.3619 646.2749 646.1855 646.0939 646.0007 645.9393 645.8666 645.7834 645.6904 645.5892 645.4832 645.3752 645.2711 645.1748 645.0844 645.0001 644.9232 644.8465 644.7539 644.647 644.5297 644.4064 644.2831 644.1682 644.0712 644 643.9432 643.8887 643.8436 643.8146 643.8025 643.8052 643.8225 643.855 643.9008 643.9536 643.9999 644.042 644.1123 644.2145 644.3743 644.6281 645.024 645.6191 646.0216 646.337 646.5675 646.7699 647.0025 647.3268 647.6859 648.0264 648.3152 648.5292 648.6395 648.6431 648.5614 648.4078 648.1934 647.97 647.7943 647.6939 647.676 647.7239 647.7813 647.8863 648.006 648.184 648.766 649.522 649.5321 649.4311 650.5617 652.268 653.7204 654.8315 655.6031 656.0582 -9999 -9999 -9999 -9999 -9999 -9999 -9999 -9999 -9999 -9999 -9999 -9999 -9999 -9999 -9999 -9999 -9999
-9999 -9999 -9999 -9999 -9999 -9999 -9999 -9999 -9999 -9999 -9999 -9999 -9999 -9999 -9999 -9999 -9999 -9999 -9999 -9999 -9999 -9999 -9999 -9999 -9999 -9999 -9999 -9999 -9999 -9999 -9999 -9999 -9999 -9999 -9999 -9999 -9999 -9999 -9999 -9999 -9999 -9999 -9999 -9999 -9999 -9999 -9999 -9999 -9999 -9999 -9999 -9999 -9999 -9999 -9999 -9999 -9999 -9999 -9999 -9999 -9999 -9999 -9999 -9999 -9999 -9999 -9999 -9999 665.8321 666.6779 666.3618 664.8525 662.2499 659.0608 655.9025 653.2172 651.1961 649.9983 649.4336 649.0582 648.814 648.655 648.4434 648.2296 648.0878 647.9995 647.8899 647.7494 647.5917 647.4377 647.3042 647.2006 647.1287 647.0823 647.0535 647.0349 647.0192 647 646.9814 646.9514 646.905 646.845 646.7753 646.7004 646.6232 646.5453 646.467 646.3876 646.306 646.2236 646.1421 646.0663 645.9991 645.8998 645.8014 645.7026 645.601 645.4951 645.3857 645.2759 645.1724 645.0833 645 644.9211 644.8453 644.767 644.6781 644.5767 644.4651 644.3481 644.2327 644.1276 644.0452 643.9998 643.9301 643.8634 643.808 643.7702 643.7504 643.7463 643.7573 643.7849 643.8291 643.8858 643.945 644.0005 644.0861 644.1914 644.3563 644.6177 645.007 645.5339 645.9898 646.3114 646.5508 646.7637 647.0025 647.3258 647.6791 648.0155 648.3032 648.5284 648.6611 648.6899 648.6351 648.5222 648.3527 648.1534 647.9733 647.8567 647.8072 647.8391 647.9016 647.9981 648.1066 648.2499 648.5964 649.0062 648.9667 649.0483 649.9712 651.5085 653.1013 654.5091 655.6956 656.4786 -9999 -9999 -9999 -9999 -9999 -9999 -9999 -9999 -9999 -9999 -9999 -9999 -9999 -9999 -9999 -9999 -9999
-9999 -9999 -9999 -9999 -9999 -9999 -9999 -9999 -9999 -9999 -9999 -9999 -9999 -9999 -9999 -9999 -9999 -9999 -9999 -9999 -9999 -9999 -9999 -9999 -9999 -9999 -9999 -9999 -9999 -9999 -9999 -9999 -9999 -9999 -9999 -9999 -9999 -9999 -9999 -9999 -9999 -9999 -9999 -9999 -9999 -9999 -9999 -9999 -9999 -9999 -9999 -9999 -9999 -9999 -9999 -9999 -9999 -9999 -9999 -9999 -9999 -9999 -9999 -9999 -9999 -9999 -9999 666.1212 666.8856 666.8643 665.7593 663.4734 660.331 656.9647 654.0323 651.8343 650.7258 650.3629 649.8395 649.4049 649.0546 648.6786 648.3937 648.183 647.9998 647.8542 647.7059 647.5503 647.3983 647.2644 647.1602 647.0887 647.0471 647.0272 647.0188 647.0151 647.0104 647 646.9694 646.9271 646.8716 646.8035 646.7261 646.6436 646.5603 646.4783 646.3985 646.3198 646.2404 646.1597 646.079 646.0001 645.9229 645.8246 645.7211 645.6165 645.511 645.4038 645.2939 645.1827 645.0782 644.9999 644.9232 644.8475 644.7718 644.6927 644.6064 644.5109 644.4067 644.2979 644.1898 644.0884 644.0004 643.9579 643.897 643.8278 643.7638 643.7151 643.6845 643.6703 643.6724 643.6927 643.7349 643.8005 643.8898 643.9985 644.0724 644.1686 644.3408 644.6152 645.0066 645.5144 645.9895 646.3144 646.5569 646.7673 647.0026 647.3129 647.6544 647.98 648.2573 648.4783 648.6268 648.6758 648.6403 648.5536 648.4296 648.2693 648.1086 647.983 647.9226 647.9163 647.9565 648 648.116 648.2855 648.5408 648.5336 648.5164 648.707 649.4392 650.8751 652.5235 654.027 655.437 656.6043 -9999 -9999 -9999 -9999 -9999 -9999 -9999 -9999 -9999 -9999 -9999 -9999 -9999 -9999 -9999 -9999 -9999
-9999 -9999 -9999 -9999 -9999 -9999 -9999 -9999 -9999 -9999 -9999 -9999 -9999 -9999 -9999 -9999 -9999 -9999 -9999 -9999 -9999 -9999 -9999 -9999 -9999 -9999 -9999 -9999 -9999 -9999 -9999 -9999 -9999 -9999 -9999 -9999 -9999 -9999 -9999 -9999 -9999 -9999 -9999 -9999 -9999 -9999 -9999 -9999 -9999 -9999 -9999 -9999 -9999 -9999 -9999 -9999 -9999 -9999 -9999 -9999 -9999 -9999 -9999 -9999 -9999 -9999 666.2562 666.9708 667.0002 666.1314 664.1847 661.3297 658.0327 654.9525 652.5143 651.0603 650.3401 650.056 649.7012 649.3093 648.9138 648.5458 648.1985 648.0006 647.8284 647.662 647.5001 647.3489 647.217 647.1133 647.0428 647.0045 646.9916 646.9937 647.0003 647.004 647 646.984 646.9485 646.8981 646.8339 646.7573 646.6718 646.5815 646.4911 646.4041 646.322 646.2435 646.1651 646.084 645.9999 645.9139 645.8265 645.7294 645.6276 645.5247 645.4218 645.3188 645.2147 645.1084 645.0011 644.9316 644.8578 644.7818 644.7051 644.6255 644.5407 644.4501 644.3541 644.2556 644.1602 644.0737 643.9999 643.9379 643.8662 643.7876 643.7126 643.6506 643.606 643.5782 643.5675 643.5767 643.6102 643.6731 643.767 643.885 643.9984 644.107 644.3032 644.6018 645.0072 645.5126 645.9914 646.3234 646.5697 646.7802 647.0007 647.2908 647.6097 647.9209 648.1851 648.3918 648.5402 648.6075 648.5886 648.5168 648.4242 648.3076 648.1764 648.0652 647.9918 647.976 648.0001 648.0142 648.0463 648.1566 648.2488 648.2404 648.2335 648.4658 649.1237 650.3813 651.9728 653.4342 654.8603 656.2034 -9999 -9999 -9999 -9999 -9999 -9999 -9999 -9999 -9999 -9999 -9999 -9999 -9999 -9999 -9999 -9999 -9999
-9999 -9999 -9999 -9999 -9999 -9999 -9999 -9999 -9999 -9999 -9999 -9999 -9999 -9999 -9999 -9999 -9999 -9999 -9999 -9999 -9999 -9999 -9999 -9999 -9999 -9999 -9999 -9999 -9999 -9999 -9999 -9999 -9999 -9999 -9999 -9999 -9999 -9999 -9999 -9999 -9999 -9999 -9999 -9999 -9999 -9999 -9999 -9999 -9999 -9999 -9999 -9999 -9999 -9999 -9999 -9999 -9999 -9999 -9999 -9999 -9999 -9999 -9999 -9999 -9999 665.983 666.922 667.0194 666.2655 664.506 661.8821 658.7924 655.8118 653.3851 651.7717 650.7341 650.125 649.7907 649.4778 649.1176 648.7251 648.3394 648.0217 647.8193 647.6422 647.47 647.309 647.1707 647.0643 646.9933 646.9564 646.9482 646.9595 646.9786 646.9945 647 646.9907 646.9656 646.9227 646.8641 646.7914 646.7065 646.6128 646.5148 646.4174 646.3248 646.2399 646.1617 646.0835 645.9999 645.9099 645.8168 645.7228 645.626 645.5278 645.4299 645.3336 645.2397 645.15 645.0685 644.999 644.899 644.8074 644.7238 644.6443 644.5646 644.4818 644.3951 644.306 644.2174 644.1343 644.0623 644.0001 643.9249 643.8368 643.7433 643.6544 643.5778 643.5173 643.4737 643.4469 643.4401 643.4579 643.5078 643.5936 643.7157 643.8579 644.0075 644.2423 644.5742 645.0056 645.5146 645.992 646.3323 646.587 646.7955 647.0004 647.25 647.5465 647.8405 648.0935 648.2836 648.4187 648.4946 648.4922 648.4329 648.3551 648.2738 648.1786 648.0852 648.0231 648 648.0396 648.0869 648.0822 648.1027 648.139 648.1552 648.2306 648.4816 649.057 650.201 651.7292 653.07 654.3145 655.6011 -9999 -9999 -9999 -9999 -9999 -9999 -9999 -9999 -9999 -9999 -9999 -9999 -9999 -9999 -9999 -9999 -9999
-9999 -9999 -9999 -9999 -9999 -9999 -9999 -9999 -9999 -9999 -9999 -9999 -9999 -9999 -9999 -9999 -9999 -9999 -9999 -9999 -9999 -9999 -9999 -9999 -9999 -9999 -9999 -9999 -9999 -9999 -9999 -9999 -9999 -9999 -9999 -9999 -9999 -9999 -9999 -9999 -9999 -9999 -9999 -9999 -9999 -9999 -9999 -9999 -9999 -9999 -9999 -9999 -9999 -9999 -9999 -9999 -9999 -9999 -9999 -9999 -9999 -9999 -9999 -9999 -9999 666.7141 667.0099 666.3738 664.7077 662.1884 659.1609 656.2593 653.9867 652.722 651.5916 650.6984 650.054 649.6139 649.2664 648.9186 648.5471 648.2191 647.9767 647.7101 647.4815 647.2969 647.1479 647.0329 646.9541 646.9127 646.9041 646.92 646.9488 646.9783 646.9972 647 646.9806 646.9447 646.8925 646.8253 646.7444 646.6516 646.5502 646.4451 646.3413 646.2433 646.155 646.0787 645.9999 645.9119 645.8162 645.7169 645.6179 645.5211 645.4269 645.3348 645.2454 645.1591 645.0768 645.0001 644.9292 644.8388 644.7487 644.6648 644.5858 644.5078 644.428 644.3453 644.2617 644.1801 644.1047 644.0427 643.9996 643.9083 643.802 643.6923 643.5886 643.4976 643.422 643.3626 643.3193 643.2947 643.2915 643.3226 643.3939 643.5261 643.7256 643.9795 644.1802 644.5341 645.0011 645.5189 645.9915 646.345 646.6138 646.821 646.9995 647.2254 647.4835 647.7542 647.9934 648.1697 648.2851 648.3533 648.3668 648.3203 648.2519 648.1906 648.126 648.0576 647.9997 647.9746 648.0075 648.1271 648.1887 648.199 648.207 648.2437 648.3673 648.6486 649.149 650.2192 651.7114 652.9167 653.9169 654.9721 656.2632 -9999 -9999 -9999 -9999 -9999 -9999 -9999 -9999 -9999 -9999 -9999 -9999 -9999 -9999 -9999 -9999
-9999 -9999 -9999 -9999 -9999 -9999 -9999 -9999 -9999 -9999 -9999 -9999 -9999 -9999 -9999 -9999 -9999 -9999 -9999 -9999 -9999 -9999 -9999 -9999 -9999 -9999 -9999 -9999 -9999 -9999 -9999 -9999 -9999 -9999 -9999 -9999 -9999 -9999 -9999 -9999 -9999 -9999 -9999 -9999 -9999 -9999 -9999 -9999 -9999 -9999 -9999 -9999 -9999 -9999 -9999 -9999 -9999 -9999 -9999 -9999 -9999 -9999 -9999 -9999 665.8748 666.9045 666.4445 664.9245 662.4639 659.4656 656.4067 654.0482 652.8932 652.5237 651.6236 650.7079 649.9705 649.431 649.0211 648.6595 648.3083 648.0045 647.7672 647.5255 647.3196 647.1516 647.0248 646.9377 646.8883 646.8734 646.8866 646.9181 646.956 646.9874 647 646.9911 646.9623 646.917 646.856 646.7806 646.6921 646.5925 646.4852 646.375 646.267 646.1646 646.0715 645.9999 645.9191 645.826 645.7241 645.6191 645.5164 645.4192 645.3282 645.2418 645.1586 645.078 645 644.925 644.8502 644.767 644.6832 644.6039 644.5287 644.4545 644.3783 644.3 644.2213 644.1445 644.0707 644.0003 643.9541 643.8676 643.7545 643.6325 643.5157 643.4124 643.3247 643.2526 643.1965 643.1586 643.1307 643.1409 643.1823 643.3041 643.5156 643.7732 644.027 644.4648 644.9929 645.538 645.9951 646.3745 646.6669 646.8763 647.0051 647.2195 647.4487 647.6817 647.8955 648.0603 648.1586 648.21 648.2259 648.1993 648.1431 648.092 648.0515 647.9999 647.9302 647.8973 647.9651 648.0776 648.2382 648.3308 648.3732 648.4309 648.5887 648.9293 649.3824 650.3297 651.7927 652.8431 653.5973 654.4113 655.6107 -9999 -9999 -9999 -9999 -9999 -9999 -9999 -9999 -9999 -9999 -9999 -9999 -9999 -9999 -9999 -9999
-9999 -9999 -9999 -9999 -9999 -9999 -9999 -9999 -9999 -9999 -9999 -9999 -9999 -9999 -9999 -9999 -9999 -9999 -9999 -9999 -9999 -9999 -9999 -9999 -9999 -9999 -9999 -9999 -9999 -9999 -9999 -9999 -9999 -9999 -9999 -9999 -9999 -9999 -9999 -9999 -9999 -9999 -9999 -9999 -9999 -9999 -9999 -9999 -9999 -9999 -9999 -9999 -9999 -9999 -9999 -9999 -9999 -9999 -9999 -9999 -9999 -9999 -9999 663.8104 665.5374 666.101 664.987 662.7169 659.7529 656.6639 653.9903 652.4789 651.8066 651.6163 651.2038 650.5178 649.7653 649.1588 648.7061 648.3387 648.012 647.7558 647.5421 647.345 647.1737 647.0411 646.9468 646.8883 646.8633 646.8683 646.8958 646.9351 646.974 647 646.9971 646.9741 646.9345 646.8801 646.8115 646.7289 646.6342 646.5293 646.4184 646.3065 646.1996 646.0996 646.0009 645.9323 645.8472 645.7463 645.6366 645.5255 645.4193 645.322 645.2345 645.1536 645.076 645 644.9251 644.8505 644.7747 644.6959 644.6183 644.545 644.475 644.4055 644.3338 644.2599 644.1864 644.1173 644.0559 644 643.9287 643.8275 643.7023 643.5674 643.4385 643.3254 643.2306 643.1509 643.0888 643.0538 643.0007 642.9991 643.0011 643.1065 643.3434 643.6447 643.9923 644.4451 645.0079 645.623 646.045 646.4522 646.7601 646.9918 647.1039 647.2681 647.4574 647.6431 647.8227 647.965 648.053 648.0884 648.0978 648.0856 648.0516 648.0201 648 647.973 647.9141 647.8643 647.9122 648.0588 648.2314 648.4034 648.5199 648.6031 648.7316 648.9958 649.4772 650.3647 651.7615 652.7903 653.3417 653.9739 654.8696 -9999 -9999 -9999 -9999 -9999 -9999 -9999 -9999 -9999 -9999 -9999 -9999 -9999 -9999 -9999 -9999
-9999 -9999 -9999 -9999 -9999 -9999 -9999 -9999 -9999 -9999 -9999 -9999 -9999 -9999 -9999 -9999 -9999 -9999 -9999 -9999 -9999 -9999 -9999 -9999 -9999 -9999 -9999 -9999 -9999 -9999 -9999 -9999 -9999 -9999 -9999 -9999 -9999 -9999 -9999 -9999 -9999 -9999 -9999 -9999 -9999 -9999 -9999 -9999 -9999 -9999 -9999 -9999 -9999 -9999 -9999 -9999 -9999 -9999 -9999 -9999 -9999 659.8549 661.3566 663.0977 664.3519 664.3088 662.6502 659.9728 656.8989 654.2018 652.2626 651.5195 651.0149 650.7429 650.4676 650.045 649.3937 648.8152 648.3597 648.007 647.7365 647.5212 647.3419 647.1869 647.0602 646.966 646.9052 646.8745 646.87 646.8879 646.9214 646.9597 646.9901 647 646.9822 646.9458 646.8954 646.8324 646.757 646.6691 646.5699 646.4622 646.3499 646.2393 646.1404 646.0637 645.9991 645.8966 645.7878 645.6722 645.5529 645.4354 645.3263 645.2299 645.1472 645.0723 645 644.9281 644.8557 644.782 644.707 644.632 644.5599 644.4926 644.4282 644.3635 644.2958 644.2256 644.1555 644.0907 644.0379 643.9996 643.908 643.7886 643.6486 643.5002 643.3597 643.2404 643.1448 643.0644 643.0005 642.9993 642.9398 642.9169 642.9249 643.0065 643.2793 643.6093 643.9852 644.4489 645.0573 645.835 646.2692 646.616 646.8528 647.0051 647.1618 647.3228 647.4888 647.6455 647.7825 647.9023 647.9761 648.0063 648.0073 648.0089 648 648 648.0193 648.0271 647.9967 647.9592 647.9708 648.0808 648.2653 648.4657 648.6298 648.7401 648.843 649.0259 649.5394 650.4153 651.7476 652.6846 653.1068 653.6312 654.2554 -9999 -9999 -9999 -9999 -9999 -9999 -9999 -9999 -9999 -9999 -9999 -9999 -9999 -9999 -9999 -9999
-9999 -9999 -9999 -9999 -9999 -9999 -9999 -9999 -9999 -9999 -9999 -9999 -9999 -9999 -9999 -9999 -9999 -9999 -9999 -9999 -9999 -9999 -9999 -9999 -9999 -9999 -9999 -9999 -9999 -9999 -9999 -9999 -9999 -9999 -9999 -9999 -9999 -9999 -9999 -9999 -9999 -9999 -9999 -9999 -9999 -9999 -9999 -9999 -9999 -9999 -9999 -9999 -9999 -9999 -9999 -9999 -9999 -9999 -9999 -9999 659.6434 660.3935 661.2873 662.1982 662.6197 661.8679 659.8403 657.0641 654.2578 652.2209 651.3508 651.2345 650.6432 650.1597 649.7551 649.3369 648.8448 648.3914 648.007 647.7166 647.4907 647.3125 647.1704 647.0571 646.9722 646.917 646.8885 646.8822 646.8938 646.9196 646.9534 646.9844 647 646.9884 646.9547 646.9055 646.8447 646.7736 646.6922 646.6005 646.4998 646.3918 646.2802 646.1693 646.0692 646 645.9313 645.8322 645.7177 645.5948 645.4692 645.348 645.2374 645.1429 645.0677 645 644.9331 644.8651 644.7952 644.7231 644.6503 644.5792 644.5124 644.4507 644.3917 644.3317 644.2677 644.1999 644.1305 644.0627 644.0002 643.9597 643.8734 643.748 643.5962 643.4342 643.2819 643.1583 643.0709 642.9997 642.9393 642.9229 642.904 642.9232 642.9992 643.1384 643.3981 643.7043 644.0253 644.4886 645.0869 645.9052 646.431 646.7979 647.0006 647.1356 647.2688 647.4058 647.5472 647.6785 647.7921 647.8801 647.9397 647.9733 647.973 648 648.0268 648.0596 648.1025 648.147 648.161 648.1538 648.172 648.2399 648.3744 648.5654 648.7537 648.8857 648.9958 649.1655 649.6603 650.5586 651.8412 652.8284 653.2346 653.5979 654.028 -9999 -9999 -9999 -9999 -9999 -9999 -9999 -9999 -9999 -9999 -9999 -9999 -9999 -9999 -9999 -9999
-9999 -9999 -9999 -9999 -9999 -9999 -9999 -9999 -9999 -9999 -9999 -9999 -9999 -9999 -9999 -9999 -9999 -9999 -9999 -9999 -9999 -9999 -9999 -9999 -9999 -9999 -9999 -9999 -9999 -9999 -9999 -9999 -9999 -9999 -9999 -9999 -9999 -9999 -9999 -9999 -9999 -9999 -9999 -9999 -9999 -9999 -9999 -9999 -9999 -9999 -9999 -9999 -9999 -9999 -9999 -9999 -9999 -9999 -9999 660.0025 660.8582 661.3391 661.4266 661.2168 660.5912 659.1623 656.988 654.3339 652.1558 650.9059 650.48 650.5456 650.2324 649.7589 649.2693 648.7898 648.3562 647.9962 647.6962 647.4591 647.2744 647.1334 647.0282 646.9534 646.9069 646.8862 646.8862 646.9004 646.9237 646.9525 646.9813 647 646.9935 646.9634 646.9148 646.8534 646.7826 646.7039 646.6174 646.5235 646.4236 646.3198 646.2141 646.1072 646.001 645.9345 645.8561 645.7545 645.6373 645.5118 645.3849 645.264 645.1552 645.0634 644.9999 644.9397 644.8785 644.8143 644.7468 644.677 644.6071 644.54 644.4786 644.4229 644.3692 644.3135 644.2529 644.1879 644.121 644.0565 643.9999 643.9466 643.8545 643.7199 643.5548 643.377 643.2089 643.076 642.9995 642.9301 642.8864 642.8862 642.9175 643.001 643.1572 643.3721 643.6581 643.9763 644.2842 644.7077 645.2531 646.0055 646.5731 646.9728 647.1512 647.278 647.3964 647.5131 647.6305 647.7403 647.8389 647.9152 647.9484 647.9997 648.0012 648.0672 648.125 648.1792 648.2412 648.3018 648.3558 648.3919 648.4319 648.4952 648.5868 648.725 648.8846 648.9985 649.0643 649.2372 649.7009 650.567 651.8533 652.8735 653.3138 653.6456 654.0001 -9999 -9999 -9999 -9999 -9999 -9999 -9999 -9999 -9999 -9999 -9999 -9999 -9999 -9999 -9999 -9999
-9999 -9999 -9999 -9999 -9999 -9999 -9999 -9999 -9999 -9999 -9999 -9999 -9999 -9999 -9999 -9999 -9999 -9999 -9999 -9999 -9999 -9999 -9999 -9999 -9999 -9999 -9999 -9999 -9999 -9999 -9999 -9999 -9999 -9999 -9999 -9999 -9999 -9999 -9999 -9999 -9999 -9999 -9999 -9999 -9999 -9999 -9999 -9999 -9999 -9999 -9999 -9999 -9999 -9999 -9999 -9999 -9999 -9999 659.327 660.6567 661.7037 661.5613 660.9429 659.7099 658.1666 656.3463 654.4662 652.14 650.6545 649.8958 649.6968 649.7654 649.6935 649.3693 648.9026 648.4105 648.0039 647.6865 647.4373 647.243 647.0961 646.9901 646.9191 646.878 646.8636 646.871 646.8933 646.9224 646.9525 646.9795 646.9982 647 646.9731 646.9259 646.8634 646.7906 646.7106 646.6249 646.5338 646.4386 646.3416 646.2459 646.1543 646.0709 645.9989 645.8938 645.7874 645.6733 645.5514 645.4255 645.3019 645.1877 645.0878 645.0005 644.9493 644.8966 644.8399 644.7787 644.713 644.6454 644.5789 644.5167 644.4611 644.4111 644.363 644.3118 644.2545 644.192 644.1269 644.062 644.0002 643.9569 643.8589 643.7144 643.5365 643.3427 643.155 643.0008 642.9263 642.8802 642.8648 642.9073 643.0009 643.1653 643.3907 643.6655 643.9824 644.3049 644.6773 645.1689 645.7988 646.3276 646.7437 647.0162 647.2395 647.3949 647.5215 647.6337 647.7336 647.8203 647.9151 647.9987 648.0021 648.0845 648.1531 648.2388 648.302 648.3516 648.4154 648.4886 648.5547 648.6172 648.6752 648.7415 648.8118 648.9004 648.9987 649.038 649.0983 649.2833 649.7116 650.4862 651.7913 652.7942 653.2407 653.6102 -9999 -9999 -9999 -9999 -9999 -9999 -9999 -9999 -9999 -9999 -9999 -9999 -9999 -9999 -9999 -9999 -9999
-9999 -9999 -9999 -9999 -9999 -9999 -9999 -9999 -9999 -9999 -9999 -9999 -9999 -9999 -9999 -9999 -9999 -9999 -9999 -9999 -9999 -9999 -9999 -9999 -9999 -9999 -9999 -9999 -9999 -9999 -9999 -9999 -9999 -9999 -9999 -9999 -9999 -9999 -9999 -9999 -9999 -9999 -9999 -9999 -9999 -9999 -9999 -9999 -9999 -9999 -9999 -9999 -9999 -9999 -9999 -9999 657.7407 658.0709 659.0099 660.0898 660.7802 660.3428 659.2228 657.4381 655.3264 653.4915 651.7968 650.2231 649.406 649.0587 649.0312 649.1316 649.127 648.8408 648.4478 648.0305 647.704 647.4437 647.2382 647.0809 646.9669 646.8912 646.8489 646.835 646.8445 646.8718 646.9084 646.9456 646.9762 646.996 647 646.9807 646.9379 646.8765 646.802 646.7192 646.6309 646.5387 646.4435 646.347 646.2528 646.1642 646.0801 646.0001 645.9226 645.8194 645.7056 645.5854 645.4615 645.3381 645.222 645.1223 645.0496 644.9997 644.9348 644.876 644.8188 644.7588 644.6949 644.6295 644.567 644.5103 644.4608 644.417 644.3745 644.3278 644.274 644.2144 644.1526 644.0935 644.0419 643.9993 643.8875 643.7366 643.5524 643.3513 643.1575 643.0004 642.922 642.8947 642.8999 642.9996 643.1653 643.3951 643.674 643.9875 644.3201 644.7046 645.1848 645.801 646.287 646.6835 646.9939 647.2025 647.3829 647.5269 647.6481 647.7625 647.8553 647.9062 648 648.0986 648.1664 648.2681 648.3738 648.4778 648.5356 648.5663 648.608 648.6763 648.7524 648.8249 648.8658 648.9115 648.9569 648.9998 649.0187 649.0603 649.1798 649.4441 649.9255 650.7071 651.8449 652.6158 653.0341 653.4508 -9999 -9999 -9999 -9999 -9999 -9999 -9999 -9999 -9999 -9999 -9999 -9999 -9999 -9999 -9999 -9999 -9999
-9999 -9999 -9999 -9999 -9999 -9999 -9999 -9999 -9999 -9999 -9999 -9999 -9999 -9999 -9999 -9999 -9999 -9999 -9999 -9999 -9999 -9999 -9999 -9999 -9999 -9999 -9999 -9999 -9999 -9999 -9999 -9999 -9999 -9999 -9999 -9999 -9999 -9999 -9999 -9999 -9999 -9999 -9999 -9999 -9999 -9999 -9999 -9999 -9999 -9999 -9999 -9999 -9999 -9999 -9999 -9999 657.1263 657.5336 658.1202 658.6871 658.8077 658.0443 656.5634 654.6685 652.691 651.1223 649.9131 648.953 648.4479 648.4089 648.5148 648.6254 648.6281 648.3596 648.0181 647.7186 647.4661 647.2588 647.0945 646.9713 646.8868 646.8372 646.8176 646.823 646.8483 646.8869 646.93 646.9679 646.9927 647 646.9847 646.9477 646.8907 646.8175 646.7329 646.6416 646.5464 646.4489 646.3503 646.2527 646.1605 646.0791 646 645.9203 645.8345 645.731 645.6154 645.4938 645.3711 645.2527 645.1448 645.0552 645 644.9623 644.9141 644.8632 644.8104 644.7534 644.6919 644.6296 644.5715 644.5208 644.4781 644.441 644.4042 644.3619 644.3114 644.2542 644.1941 644.134 644.0724 644.0006 643.9188 643.7855 643.608 643.4103 643.2235 643.0781 643.0007 642.9982 643.0058 643.1602 643.3893 643.6722 643.9881 644.3219 644.7111 645.1941 645.8126 646.3024 646.688 646.9959 647.2241 647.3929 647.5422 647.6689 647.7728 647.8912 647.9968 648.0036 648.1167 648.2485 648.3694 648.5002 648.6224 648.7449 648.7852 648.7952 648.8081 648.8448 648.9078 648.9977 648.9998 648.9999 649 648.9906 649.0186 649.136 649.3917 649.8315 650.4993 651.5049 652.2746 652.7166 653.0299 653.4115 -9999 -9999 -9999 -9999 -9999 -9999 -9999 -9999 -9999 -9999 -9999 -9999 -9999 -9999 -9999 -9999 -9999
-9999 -9999 -9999 -9999 -9999 -9999 -9999 -9999 -9999 -9999 -9999 -9999 -9999 -9999 -9999 -9999 -9999 -9999 -9999 -9999 -9999 -9999 -9999 -9999 -9999 -9999 -9999 -9999 -9999 -9999 -9999 -9999 -9999 -9999 -9999 -9999 -9999 -9999 -9999 -9999 -9999 -9999 -9999 -9999 -9999 -9999 -9999 -9999 -9999 -9999 -9999 -9999 -9999 -9999 -9999 656.8787 656.8413 656.9427 656.9399 656.7509 656.2221 655.0897 653.5291 651.9973 650.6769 649.59 648.7543 648.1658 647.9142 647.9546 648.1367 648.2594 648.2246 648.0082 647.7544 647.5144 647.308 647.1388 647.007 646.9119 646.8514 646.8219 646.8185 646.8363 646.8699 646.9124 646.9548 646.9871 647 646.9894 646.957 646.905 646.8356 646.7524 646.6594 646.5613 646.4609 646.3604 646.2607 646.1633 646.0717 645.9999 645.9249 645.8429 645.7505 645.644 645.5268 645.4049 645.2856 645.1761 645.0807 645.0003 644.9631 644.9346 644.9005 644.8606 644.8147 644.7616 644.7035 644.6451 644.5924 644.5483 644.5131 644.4832 644.4525 644.4147 644.3669 644.3118 644.2539 644.1962 644.1375 644.0734 643.9996 643.877 643.7069 643.5159 643.345 643.2216 643.1656 643.1837 643.2551 643.4157 643.6719 643.9853 644.3193 644.7102 645.1946 645.814 646.3055 646.6938 647.0001 647.2404 647.4214 647.563 647.6981 647.8175 647.8849 647.9995 648.1055 648.1764 648.2971 648.447 648.5909 648.7447 648.8523 648.9912 648.9997 648.9987 648.9986 648.999 649.0019 649.05 649.0398 649.0049 648.9756 648.984 649.0874 649.3357 649.7844 650.4802 651.4501 652.5074 652.9946 653.0962 653.3232 653.611 -9999 -9999 -9999 -9999 -9999 -9999 -9999 -9999 -9999 -9999 -9999 -9999 -9999 -9999 -9999 -9999 -9999
-9999 -9999 -9999 -9999 -9999 -9999 -9999 -9999 -9999 -9999 -9999 -9999 -9999 -9999 -9999 -9999 -9999 -9999 -9999 -9999 -9999 -9999 -9999 -9999 -9999 -9999 -9999 -9999 -9999 -9999 -9999 -9999 -9999 -9999 -9999 -9999 -9999 -9999 -9999 -9999 -9999 -9999 -9999 -9999 -9999 -9999 -9999 -9999 -9999 -9999 -9999 -9999 -9999 -9999 -9999 656.7548 656.6155 656.2928 655.6429 654.6813 653.6239 652.3783 651.075 650.0747 649.2733 648.6238 648.1163 647.7782 647.6748 647.7759 647.9576 648.0579 648.0001 647.8198 647.6049 647.3979 647.2182 647.0735 646.9647 646.8904 646.8478 646.8331 646.8408 646.8655 646.9016 646.9421 646.9783 647 646.9954 646.968 646.9205 646.8555 646.7754 646.6836 646.5841 646.481 646.3781 646.278 646.1826 646.0916 646.0007 645.9379 645.8638 645.7773 645.6786 645.5677 645.4478 645.3252 645.2097 645.1128 645.0444 644.9998 644.9554 644.927 644.9022 644.8724 644.8341 644.7845 644.7296 644.6761 644.6296 644.593 644.5655 644.5432 644.5193 644.4863 644.4404 644.387 644.3322 644.2789 644.2263 644.1703 644.1019 643.9988 643.8409 643.6574 643.5117 643.4183 643.3901 643.4429 643.5728 643.7157 643.9839 644.3087 644.704 645.1926 645.8124 646.3029 646.6918 647.0012 647.2485 647.4452 647.5953 647.7125 647.8528 647.9929 648.0096 648.1339 648.2592 648.3807 648.5171 648.6841 648.8125 648.9845 649.0085 649.0989 649.1234 649.1412 649.1686 649.187 649.1843 649.1797 649.133 649.0681 649.0322 649.0934 649.3112 649.7266 650.377 651.3109 652.5637 653.5233 653.8289 653.6975 653.7462 -9999 -9999 -9999 -9999 -9999 -9999 -9999 -9999 -9999 -9999 -9999 -9999 -9999 -9999 -9999 -9999 -9999 -9999
-9999 -9999 -9999 -9999 -9999 -9999 -9999 -9999 -9999 -9999 -9999 -9999 -9999 -9999 -9999 -9999 -9999 -9999 -9999 -9999 -9999 -9999 -9999 -9999 -9999 -9999 -9999 -9999 -9999 -9999 -9999 -9999 -9999 -9999 -9999 -9999 -9999 -9999 -9999 -9999 -9999 -9999 -9999 -9999 -9999 -9999 -9999 -9999 -9999 -9999 -9999 -9999 -9999 -9999 656.8312 656.8145 656.585 655.8472 654.5123 652.9147 651.561 650.3225 649.4095 648.7854 648.3634 648.058 647.8216 647.6732 647.6648 647.7904 647.9438 647.9997 647.8949 647.7137 647.5134 647.3265 647.1677 647.0425 646.9517 646.8934 646.8646 646.8604 646.8748 646.902 646.936 646.9698 646.9944 647 646.9791 646.9373 646.877 646.801 646.7122 646.6136 646.5093 646.4032 646.2997 646.2031 646.1193 646.0536 645.9995 645.9129 645.8234 645.7275 645.6226 645.5073 645.3844 645.2596 645.1436 645.0515 644.9999 644.9669 644.9409 644.9271 644.9183 644.9004 644.8706 644.8226 644.7706 644.7233 644.6846 644.6559 644.6364 644.6219 644.6053 644.5773 644.5317 644.479 644.4277 644.3802 644.3344 644.2841 644.2195 644.1263 643.996 643.8225 643.7227 643.6697 643.6642 643.7454 643.9532 644.0369 644.3037 644.688 645.1853 645.8085 646.2988 646.6887 647.002 647.2566 647.46 647.6339 647.7711 647.8512 648.0038 648.1744 648.2704 648.3707 648.4875 648.6373 648.77 648.9708 649.0332 649.2008 649.2676 649.3062 649.3153 649.356 649.4419 649.5115 649.5142 649.4781 649.3883 649.2955 649.2634 649.4042 649.7848 650.4059 651.2663 652.4761 653.552 654.1595 654.2858 654.0779 654.0304 -9999 -9999 -9999 -9999 -9999 -9999 -9999 -9999 -9999 -9999 -9999 -9999 -9999 -9999 -9999 -9999 -9999 -9999
-9999 -9999 -9999 -9999 -9999 -9999 -9999 -9999 -9999 -9999 -9999 -9999 -9999 -9999 -9999 -9999 -9999 -9999 -9999 -9999 -9999 -9999 -9999 -9999 -9999 -9999 -9999 -9999 -9999 -9999 -9999 -9999 -9999 -9999 -9999 -9999 -9999 -9999 -9999 -9999 -9999 -9999 -9999 -9999 -9999 -9999 -9999 -9999 -9999 -9999 -9999 -9999 -9999 -9999 657.1532 657.2115 656.9329 655.7842 653.8844 651.821 650.2347 649.0906 648.3823 647.9876 647.8107 647.7494 647.7224 647.7181 647.7783 647.9021 647.9998 647.9573 647.8177 647.6349 647.4469 647.2764 647.1348 647.0264 646.9514 646.9072 646.8897 646.8934 646.9119 646.9385 646.9673 646.9908 647 646.986 646.9508 646.8973 646.8273 646.743 646.6475 646.5441 646.4368 646.3295 646.2266 646.1328 646.0543 646 645.9494 645.8741 645.7866 645.6896 645.583 645.467 645.3435 645.2172 645.0974 645.0002 644.9576 644.9398 644.9325 644.937 644.9506 644.9445 644.9265 644.8749 644.8269 644.7887 644.7601 644.7404 644.7283 644.7211 644.7125 644.6901 644.6399 644.5863 644.5399 644.5007 644.4636 644.4207 644.3617 644.2743 644.1526 644.0128 643.998 644.0023 644.0051 644.0667 644.3363 644.4815 644.728 645.1795 645.7995 646.2902 646.6835 647.0038 647.2721 647.4861 647.6512 647.8234 647.9875 648.0291 648.2487 648.4482 648.6002 648.6714 648.7726 648.9662 649.0534 649.2928 649.4703 649.6381 649.7167 649.7153 649.6924 649.7583 649.9377 650.0952 650.0925 650.03 649.8828 649.7681 649.7325 649.973 650.5857 651.5423 652.4963 653.4912 654.1866 654.5875 654.6888 654.5845 -9999 -9999 -9999 -9999 -9999 -9999 -9999 -9999 -9999 -9999 -9999 -9999 -9999 -9999 -9999 -9999 -9999 -9999 -9999
-9999 -9999 -9999 -9999 -9999 -9999 -9999 -9999 -9999 -9999 -9999 -9999 -9999 -9999 -9999 -9999 -9999 -9999 -9999 -9999 -9999 -9999 -9999 -9999 -9999 -9999 -9999 -9999 -9999 -9999 -9999 -9999 -9999 -9999 -9999 -9999 -9999 -9999 -9999 -9999 -9999 -9999 -9999 -9999 -9999 -9999 -9999 -9999 -9999 -9999 -9999 -9999 -9999 -9999 658.0652 658.2126 657.7061 656.1304 653.7781 651.2978 649.4872 648.4011 647.8124 647.5503 647.5077 647.5937 647.7101 647.8077 647.9023 647.9995 647.9902 647.8903 647.733 647.5547 647.3824 647.2314 647.1088 647.017 646.9559 646.9233 646.9147 646.9241 646.9445 646.9685 646.9896 647 646.9895 646.9593 646.9118 646.849 646.7717 646.6819 646.5823 646.4765 646.3686 646.2628 646.1633 646.0746 646.0003 645.9554 645.9052 645.8378 645.7566 645.6641 645.5615 645.4501 645.3314 645.2097 645.094 645.0001 644.9545 644.9453 644.9468 644.9603 644.9998 645.0001 644.9995 644.9361 644.8997 644.8773 644.8622 644.8521 644.8464 644.8447 644.8438 644.8292 644.7618 644.7069 644.6697 644.6425 644.6178 644.588 644.5448 644.4819 644.4039 644.3428 644.3755 644.4622 644.5022 644.6049 644.892 645.0131 645.2406 645.7993 646.2766 646.6744 647.006 647.2877 647.5282 647.7177 647.8289 648.0035 648.2055 648.3776 648.6111 648.7743 648.9673 649.007 649.1034 649.366 649.5607 649.8362 650.111 650.325 650.4376 650.4218 650.3807 650.4639 650.7554 651.0818 651.0326 650.9011 650.6447 650.5507 650.5033 650.8197 651.6694 652.5515 653.2564 653.9451 654.4626 654.7993 654.9523 -9999 -9999 -9999 -9999 -9999 -9999 -9999 -9999 -9999 -9999 -9999 -9999 -9999 -9999 -9999 -9999 -9999 -9999 -9999 -9999
-9999 -9999 -9999 -9999 -9999 -9999 -9999 -9999 -9999 -9999 -9999 -9999 -9999 -9999 -9999 -9999 -9999 -9999 -9999 -9999 -9999 -9999 -9999 -9999 -9999 -9999 -9999 -9999 -9999 -9999 -9999 -9999 -9999 -9999 -9999 -9999 -9999 -9999 -9999 -9999 -9999 -9999 -9999 -9999 -9999 -9999 -9999 -9999 -9999 -9999 -9999 -9999 -9999 -9999 659.0584 659.0687 658.2916 656.5359 653.9109 651.1836 649.2255 648.0961 647.5505 647.3616 647.3865 647.5372 647.731 647.8836 647.9717 647.9999 647.9289 647.7972 647.6349 647.4678 647.3143 647.1846 647.0826 647.009 646.9625 646.9406 646.9384 646.9507 646.9703 646.9893 647 646.9934 646.967 646.9232 646.8649 646.7941 646.7114 646.6183 646.5171 646.4116 646.3061 646.2052 646.114 646.0415 645.9998 645.9397 645.8801 645.814 645.7384 645.6532 645.5592 645.4579 645.3506 645.2408 645.1367 645.0513 645.0003 644.9999 644.9999 645.0007 645.0485 645.0665 645.0555 645.0015 644.9999 645.0001 645.0001 645.0001 645.0004 645.0009 645.0014 644.9957 644.8882 644.8401 644.8197 644.808 644.7979 644.7844 644.7637 644.7329 644.698 644.6857 644.7561 644.9464 644.9894 645.0525 645.3049 645.5557 645.8924 646.2864 646.667 647.012 647.316 647.554 647.781 647.9816 648.0305 648.2452 648.4729 648.7199 648.9658 649.0079 649.1776 649.3845 649.6957 649.9724 650.1911 650.5435 650.9503 651.2466 651.4529 651.4982 651.6371 651.702 651.8616 652.0431 651.9662 651.8166 651.5861 651.6655 651.7809 652.0469 652.6558 653.1665 653.6017 654.0246 654.4931 654.8295 -9999 -9999 -9999 -9999 -9999 -9999 -9999 -9999 -9999 -9999 -9999 -9999 -9999 -9999 -9999 -9999 -9999 -9999 -9999 -9999 -9999
-9999 -9999 -9999 -9999 -9999 -9999 -9999 -9999 -9999 -9999 -9999 -9999 -9999 -9999 -9999 -9999 -9999 -9999 -9999 -9999 -9999 -9999 -9999 -9999 -9999 -9999 -9999 -9999 -9999 -9999 -9999 -9999 -9999 -9999 -9999 -9999 -9999 -9999 -9999 -9999 -9999 -9999 -9999 -9999 -9999 -9999 -9999 -9999 -9999 -9999 -9999 -9999 -9999 -9999 659.764 659.7506 658.7486 656.7885 654.0225 651.199 649.1774 648.0047 647.4614 647.3181 647.387 647.5643 647.7778 647.9448 648 647.9572 647.8433 647.6936 647.5335 647.3812 647.248 647.1395 647.0575 647.001 646.9679 646.9553 646.9584 646.9716 646.9882 647.0004 647 646.9775 646.9367 646.8805 646.8125 646.7347 646.6479 646.5531 646.4525 646.3499 646.2493 646.1555 646.0713 646.0002 645.9667 645.9189 645.8636 645.8021 645.7335 645.6577 645.5757 645.489 645.3988 645.3074 645.2217 645.1537 645.1155 645.1123 645.1191 645.1326 645.1677 645.1896 645.188 645.1656 645.1655 645.1721 645.1816 645.194 645.2079 645.2153 645.1989 645.1392 645.0096 644.9993 644.9997 644.9998 644.9998 644.9997 644.9995 644.9986 644.9968 644.9969 645.0339 645.2503 645.3838 645.5222 645.7031 645.9836 646.3102 646.6646 647.0153 647.36 647.6359 647.7966 648.0049 648.2252 648.3801 648.5864 648.7595 648.9946 649.1702 649.2278 649.394 649.7057 650.1321 650.601 650.8464 651.3524 651.9594 652.3137 652.6239 652.7292 652.7307 652.592 652.6459 652.8232 652.6533 652.4559 652.2609 652.4477 652.743 652.9309 653.2179 653.5088 653.7797 654.0602 654.5176 -9999 -9999 -9999 -9999 -9999 -9999 -9999 -9999 -9999 -9999 -9999 -9999 -9999 -9999 -9999 -9999 -9999 -9999 -9999 -9999 -9999 -9999
-9999 -9999 -9999 -9999 -9999 -9999 -9999 -9999 -9999 -9999 -9999 -9999 -9999 -9999 -9999 -9999 -9999 -9999 -9999 -9999 -9999 -9999 -9999 -9999 -9999 -9999 -9999 -9999 -9999 -9999 -9999 -9999 -9999 -9999 -9999 -9999 -9999 -9999 -9999 -9999 -9999 -9999 -9999 -9999 -9999 -9999 -9999 -9999 -9999 -9999 -9999 -9999 -9999 -9999 660.0226 659.9432 658.9611 656.8618 654.0483 651.2213 649.196 648.0265 647.4762 647.3489 647.4519 647.6467 647.8536 647.9994 647.9916 647.8981 647.7562 647.5968 647.4419 647.3044 647.1906 647.1021 647.0379 646.9962 646.9741 646.9685 646.9747 646.9865 646.9974 647 646.9858 646.9515 646.8993 646.8328 646.7561 646.672 646.5819 646.4866 646.3883 646.2905 646.198 646.1167 646.0509 646 645.9571 645.91 645.8584 645.8025 645.7419 645.6768 645.6086 645.5394 645.4696 645.4003 645.3367 645.2886 645.2654 645.2683 645.2844 645.3068 645.3376 645.3634 645.3749 645.371 645.3715 645.3778 645.3913 645.4143 645.4462 645.4728 645.4586 645.3953 645.286 645.2386 645.2215 645.2161 645.2155 645.2179 645.226 645.2438 645.2769 645.3306 645.4169 645.6082 645.7479 645.9513 646.0485 646.3205 646.6577 647.0223 647.3762 647.7094 647.9692 648.0244 648.2535 648.5002 648.7246 648.9639 649.0668 649.2961 649.4435 649.559 649.7998 650.2296 650.7208 651.2798 651.5983 652.3062 653.1174 653.4504 653.6697 653.5315 653.3119 653.0657 653.0544 653.2045 653.1577 653.107 653.0407 653.058 653.2211 653.3527 653.5248 653.7495 654.0087 654.3327 -9999 -9999 -9999 -9999 -9999 -9999 -9999 -9999 -9999 -9999 -9999 -9999 -9999 -9999 -9999 -9999 -9999 -9999 -9999 -9999 -9999 -9999 -9999
-9999 -9999 -9999 -9999 -9999 -9999 -9999 -9999 -9999 -9999 -9999 -9999 -9999 -9999 -9999 -9999 -9999 -9999 -9999 -9999 -9999 -9999 -9999 -9999 -9999 -9999 -9999 -9999 -9999 -9999 -9999 -9999 -9999 -9999 -9999 -9999 -9999 -9999 -9999 -9999 -9999 -9999 -9999 -9999 -9999 -9999 -9999 -9999 -9999 -9999 -9999 -9999 -9999 -9999 660.275 660.093 659.0649 656.9135 654.0899 651.2681 649.256 648.116 647.5775 647.4417 647.5459 647.7456 647.9269 648 647.9512 647.8306 647.6759 647.516 647.3692 647.2455 647.1479 647.0759 647.0264 646.9962 646.9822 646.9811 646.9879 646.9966 647 646.9904 646.9634 646.918 646.856 646.7808 646.6966 646.6069 646.5139 646.419 646.3241 646.2322 646.1481 646.079 646.0314 645.9999 645.955 645.9091 645.8623 645.8134 645.7616 645.7076 645.6541 645.6031 645.5553 645.5099 645.4695 645.4415 645.4337 645.4471 645.4727 645.5002 645.531 645.563 645.589 645.5935 645.5925 645.5954 645.6075 645.6354 645.6849 645.7473 645.7474 645.7014 645.5844 645.5083 645.4724 645.457 645.4506 645.4494 645.4573 645.4849 645.5497 645.6611 645.7641 645.9659 646.0358 646.2722 646.4733 646.6989 647.0465 647.448 647.7233 647.9927 648.1881 648.3093 648.5282 648.7642 648.9901 649.2604 649.5515 649.7604 649.8341 650.058 650.573 651.4108 652.1537 652.8209 653.24 653.7405 654.163 654.2961 654.2532 654.0153 653.7421 653.556 653.549 653.6892 653.879 653.911 653.8419 653.6484 653.6255 653.6646 653.7751 654.0063 -9999 -9999 -9999 -9999 -9999 -9999 -9999 -9999 -9999 -9999 -9999 -9999 -9999 -9999 -9999 -9999 -9999 -9999 -9999 -9999 -9999 -9999 -9999 -9999 -9999
-9999 -9999 -9999 -9999 -9999 -9999 -9999 -9999 -9999 -9999 -9999 -9999 -9999 -9999 -9999 -9999 -9999 -9999 -9999 -9999 -9999 -9999 -9999 -9999 -9999 -9999 -9999 -9999 -9999 -9999 -9999 -9999 -9999 -9999 -9999 -9999 -9999 -9999 -9999 -9999 -9999 -9999 -9999 -9999 -9999 -9999 -9999 -9999 -9999 -9999 -9999 -9999 -9999 -9999 660.5317 660.2343 659.1527 656.9986 654.1978 651.381 649.3803 648.2805 647.7533 647.5955 647.6721 647.8476 647.9991 647.9939 647.9015 647.7618 647.6046 647.4509 647.3154 647.2051 647.1213 647.062 647.0234 647.0012 646.992 646.9924 646.9978 647.0024 647 646.9751 646.9345 646.8784 646.8076 646.725 646.6344 646.5402 646.4449 646.3511 646.2604 646.175 646.0983 646.0365 646 645.9762 645.9447 645.9092 645.8715 645.8317 645.7897 645.7472 645.7076 645.6741 645.6473 645.6255 645.6086 645.6001 645.6058 645.63 645.6647 645.6917 645.7198 645.7583 645.8056 645.8115 645.8076 645.8061 645.8118 645.8318 645.8831 645.9935 646.0016 645.9883 645.8416 645.7655 645.7329 645.7183 645.7102 645.7056 645.7071 645.728 645.8033 645.9741 646.0281 646.2336 646.3917 646.653 646.937 647.1151 647.5309 647.9174 648.0204 648.2078 648.3821 648.5496 648.7745 648.9931 649.1458 649.4419 649.8989 650.305 650.3252 650.6939 651.6254 652.6311 653.5552 654.3443 654.8378 655.1705 655.2512 655.0823 654.7665 654.4645 654.1702 654.0338 -9999 -9999 -9999 -9999 654.2025 654.0574 654.0712 -9999 -9999 -9999 -9999 -9999 -9999 -9999 -9999 -9999 -9999 -9999 -9999 -9999 -9999 -9999 -9999 -9999 -9999 -9999 -9999 -9999 -9999 -9999 -9999 -9999 -9999 -9999 -9999
-9999 -9999 -9999 -9999 -9999 -9999 -9999 -9999 -9999 -9999 -9999 -9999 -9999 -9999 -9999 -9999 -9999 -9999 -9999 -9999 -9999 -9999 -9999 -9999 -9999 -9999 -9999 -9999 -9999 -9999 -9999 -9999 -9999 -9999 -9999 -9999 -9999 -9999 -9999 -9999 -9999 -9999 -9999 -9999 -9999 -9999 -9999 -9999 -9999 -9999 -9999 -9999 -9999 -9999 660.5629 660.2231 659.1433 657.0416 654.3149 651.5728 649.6139 648.5323 647.9874 647.7906 647.8113 647.929 648 647.9551 647.8412 647.6951 647.5419 647.3988 647.2761 647.1787 647.1067 647.0574 647.0265 647.0096 647.0026 647.0021 647.0034 647 646.9852 646.9497 646.8986 646.8334 646.7551 646.6663 646.5704 646.4724 646.376 646.2842 646.1992 646.1229 646.0558 646.0001 645.9751 645.9568 645.9356 645.9111 645.884 645.8546 645.823 645.7918 645.765 645.7466 645.7377 645.7369 645.7426 645.7528 645.7672 645.7987 645.8452 645.8628 645.8795 645.915 645.9969 646.0003 646 645.9999 645.9998 645.9993 646.0057 646.1144 646.1533 646.1248 646.0095 645.999 645.9996 646.0002 646.001 646.0018 646.0005 646.0026 646.0416 646.2324 646.3724 646.5742 646.7305 647.0073 647.3324 647.6167 647.9635 648.1849 648.2768 648.4077 648.5721 648.7681 649.0001 649.2267 649.343 649.6281 650.2163 650.9191 650.9318 651.6678 652.5832 653.5011 654.4913 655.439 656.1757 656.6124 656.5006 655.9878 655.3194 655.0042 -9999 -9999 -9999 -9999 -9999 -9999 -9999 -9999 -9999 -9999 -9999 -9999 -9999 -9999 -9999 -9999 -9999 -9999 -9999 -9999 -9999 -9999 -9999 -9999 -9999 -9999 -9999 -9999 -9999 -9999 -9999 -9999 -9999 -9999 -9999 -9999 -9999
-9999 -9999 -9999 -9999 -9999 -9999 -9999 -9999 -9999 -9999 -9999 -9999 -9999 -9999 -9999 -9999 -9999 -9999 -9999 -9999 -9999 -9999 -9999 -9999 -9999 -9999 -9999 -9999 -9999 -9999 -9999 -9999 -9999 -9999 -9999 -9999 -9999 -9999 -9999 -9999 -9999 -9999 -9999 -9999 -9999 -9999 -9999 -9999 -9999 -9999 -9999 -9999 -9999 -9999 660.2239 659.8745 658.7509 656.7731 654.2703 651.8021 649.9924 648.8615 648.2393 647.978 647.9403 647.9998 647.9872 647.9072 647.7819 647.6365 647.4913 647.3596 647.2491 647.1627 647.0999 647.0579 647.0321 647.0182 647.0117 647.0092 647.0068 647 646.9674 646.9187 646.8573 646.7839 646.6995 646.6054 646.5056 646.405 646.3082 646.2195 646.1421 646.079 646.031 645.9999 645.9685 645.948 645.9319 645.9163 645.8991 645.8799 645.8586 645.8378 645.822 645.8153 645.8196 645.8345 645.8602 645.8888 645.9019 645.9305 645.9984 646.0001 645.9997 646.0021 646.0887 646.1351 646.1607 646.1755 646.1838 646.1913 646.2124 646.2811 646.3202 646.3108 646.2661 646.2692 646.285 646.3035 646.3266 646.3526 646.3689 646.4063 646.502 646.6154 646.7371 646.9569 647.0499 647.3567 647.6929 647.9822 648.2058 648.3584 648.4562 648.578 648.7623 648.9904 649.2328 649.54 649.7411 649.9976 650.5642 651.3746 651.9146 652.5998 653.2534 654.053 655.1208 656.2745 657.3086 657.9228 657.613 656.8127 -9999 -9999 -9999 -9999 -9999 -9999 -9999 -9999 -9999 -9999 -9999 -9999 -9999 -9999 -9999 -9999 -9999 -9999 -9999 -9999 -9999 -9999 -9999 -9999 -9999 -9999 -9999 -9999 -9999 -9999 -9999 -9999 -9999 -9999 -9999 -9999 -9999 -9999 -9999
-9999 -9999 -9999 -9999 -9999 -9999 -9999 -9999 -9999 -9999 -9999 -9999 -9999 -9999 -9999 -9999 -9999 -9999 -9999 -9999 -9999 -9999 -9999 -9999 -9999 -9999 -9999 -9999 -9999 -9999 -9999 -9999 -9999 -9999 -9999 -9999 -9999 -9999 -9999 -9999 -9999 -9999 -9999 -9999 -9999 -9999 -9999 -9999 -9999 -9999 -9999 -9999 -9999 -9999 659.4887 659.1143 658.017 656.1662 653.9272 651.8347 650.4154 649.1312 648.4169 648.097 648.0058 648 647.9543 647.8596 647.7322 647.5928 647.4572 647.3362 647.2355 647.1571 647.1001 647.0619 647.0383 647.025 647.0172 647.0107 647 646.9811 646.9392 646.8811 646.8112 646.7312 646.6415 646.5438 646.4414 646.3395 646.2432 646.1577 646.0875 646.0364 646 645.9777 645.9563 645.941 645.9309 645.9232 645.9153 645.9055 645.8939 645.8823 645.8755 645.877 645.8887 645.9097 645.9501 645.9994 645.9999 646.001 646.0679 646.0992 646.116 646.139 646.2045 646.2631 646.3079 646.3408 646.3656 646.3892 646.4222 646.4739 646.5127 646.5245 646.5249 646.546 646.5682 646.5962 646.6405 646.7023 646.7284 646.7892 646.9578 646.9948 647.0309 647.2441 647.433 647.7098 647.9888 648.1917 648.3589 648.5094 648.647 648.7759 648.9967 649.2383 649.5297 649.9015 650.3411 650.7709 651.6002 652.3812 652.8355 653.2352 653.728 654.473 655.647 656.9355 -9999 -9999 -9999 -9999 -9999 -9999 -9999 -9999 -9999 -9999 -9999 -9999 -9999 -9999 -9999 -9999 -9999 -9999 -9999 -9999 -9999 -9999 -9999 -9999 -9999 -9999 -9999 -9999 -9999 -9999 -9999 -9999 -9999 -9999 -9999 -9999 -9999 -9999 -9999 -9999 -9999 -9999 -9999
-9999 -9999 -9999 -9999 -9999 -9999 -9999 -9999 -9999 -9999 -9999 -9999 -9999 -9999 -9999 -9999 -9999 -9999 -9999 -9999 -9999 -9999 -9999 -9999 -9999 -9999 -9999 -9999 -9999 -9999 -9999 -9999 -9999 -9999 -9999 -9999 -9999 -9999 -9999 -9999 -9999 -9999 -9999 -9999 -9999 -9999 -9999 -9999 -9999 -9999 -9999 -9999 -9999 -9999 658.1921 657.961 656.9922 655.3839 653.3836 651.4861 650.0737 649.0184 648.4067 648.1187 648.0252 647.9999 647.9324 647.8275 647.7009 647.5681 647.4419 647.3301 647.2367 647.163 647.1083 647.0702 647.0456 647.0303 647.02 647.0109 647 646.9618 646.9066 646.8389 646.7615 646.6759 646.5825 646.4827 646.3794 646.2778 646.1833 646.1014 646.0381 646 645.9747 645.9586 645.9454 645.9368 645.9326 645.9315 645.9313 645.9296 645.9261 645.9228 645.9236 645.9301 645.946 645.9592 646.0001 646.0542 646.082 646.1067 646.159 646.201 646.2346 646.2731 646.3311 646.3918 646.4474 646.4954 646.5363 646.5748 646.6168 646.6644 646.7059 646.7296 646.7548 646.7982 646.816 646.8369 646.8841 646.9907 646.9981 647.015 647.1858 647.2899 647.3842 647.5631 647.7637 647.9915 648.1774 648.3377 648.5095 648.728 648.9846 649.1367 649.4134 649.6693 649.985 650.4604 651.0941 651.8453 652.6021 653.0999 653.4346 653.7317 654.2349 655.0983 -9999 -9999 -9999 -9999 -9999 -9999 -9999 -9999 -9999 -9999 -9999 -9999 -9999 -9999 -9999 -9999 -9999 -9999 -9999 -9999 -9999 -9999 -9999 -9999 -9999 -9999 -9999 -9999 -9999 -9999 -9999 -9999 -9999 -9999 -9999 -9999 -9999 -9999 -9999 -9999 -9999 -9999 -9999 -9999 -9999
-9999 -9999 -9999 -9999 -9999 -9999 -9999 -9999 -9999 -9999 -9999 -9999 -9999 -9999 -9999 -9999 -9999 -9999 -9999 -9999 -9999 -9999 -9999 -9999 -9999 -9999 -9999 -9999 -9999 -9999 -9999 -9999 -9999 -9999 -9999 -9999 -9999 -9999 -9999 -9999 -9999 -9999 -9999 -9999 -9999 -9999 -9999 -9999 -9999 -9999 -9999 -9999 -9999 -9999 656.6166 656.496 655.8383 654.5164 652.7087 651.0087 649.5807 648.7501 648.2881 648.0793 648.0176 647.9998 647.9227 647.8145 647.6905 647.5642 647.4454 647.3403 647.2516 647.1799 647.1244 647.0836 647.0551 647.0352 647.0189 647 646.9784 646.9324 646.8682 646.7925 646.7089 646.6188 646.5229 646.4226 646.3206 646.2217 646.1316 646.0562 646.0001 645.9749 645.9583 645.9473 645.9399 645.9366 645.9376 645.9418 645.947 645.9512 645.9542 645.9569 645.9651 645.9733 645.9998 646.0002 646.0516 646.1139 646.1649 646.2112 646.2633 646.3107 646.354 646.4006 646.4565 646.5168 646.5768 646.6337 646.686 646.7356 646.7836 646.8291 646.8741 646.894 646.924 646.9972 647 646.9993 647.0026 647.1077 647.1797 647.2614 647.4136 647.5491 647.6759 647.8299 647.9966 648.1541 648.3108 648.4884 648.7297 649.1078 649.6338 649.958 650.1909 650.3806 650.6596 651.1762 651.929 652.6877 653.2328 653.6227 653.9573 654.278 654.9878 -9999 -9999 -9999 -9999 -9999 -9999 -9999 -9999 -9999 -9999 -9999 -9999 -9999 -9999 -9999 -9999 -9999 -9999 -9999 -9999 -9999 -9999 -9999 -9999 -9999 -9999 -9999 -9999 -9999 -9999 -9999 -9999 -9999 -9999 -9999 -9999 -9999 -9999 -9999 -9999 -9999 -9999 -9999 -9999 -9999 -9999
-9999 -9999 -9999 -9999 -9999 -9999 -9999 -9999 -9999 -9999 -9999 -9999 -9999 -9999 -9999 -9999 -9999 -9999 -9999 -9999 -9999 -9999 -9999 -9999 -9999 -9999 -9999 -9999 -9999 -9999 -9999 -9999 -9999 -9999 -9999 -9999 -9999 -9999 -9999 -9999 -9999 -9999 -9999 -9999 -9999 -9999 -9999 -9999 -9999 -9999 -9999 -9999 -9999 -9999 655.1751 655.142 654.7527 653.6622 652.0609 650.6034 649.2836 648.5576 648.1827 648.0322 648 647.982 647.9162 647.8155 647.6982 647.5786 647.4657 647.3647 647.2778 647.2053 647.1466 647.1007 647.0663 647.0411 647.0214 647 646.9611 646.9015 646.827 646.7435 646.6543 646.5608 646.4637 646.3646 646.266 646.1725 646.0908 646.0297 645.9999 645.9708 645.9532 645.9442 645.9404 645.9413 645.9463 645.9543 645.963 645.9701 645.978 645.9829 645.9999 646.0001 646.0353 646.066 646.1221 646.1897 646.255 646.3155 646.3729 646.4243 646.4719 646.5211 646.5752 646.6328 646.6915 646.7503 646.8077 646.8628 646.9125 646.947 646.9993 646.9999 647.0011 647.074 647.1026 647.111 647.1317 647.2191 647.3278 647.4576 647.6141 647.7587 647.8847 647.9988 648.1091 648.2463 648.4313 648.691 649.0746 649.754 650.6094 651.0934 651.2889 651.379 651.5712 652.0771 652.7273 653.229 653.6504 654.0336 654.49 655.0367 -9999 -9999 -9999 -9999 -9999 -9999 -9999 -9999 -9999 -9999 -9999 -9999 -9999 -9999 -9999 -9999 -9999 -9999 -9999 -9999 -9999 -9999 -9999 -9999 -9999 -9999 -9999 -9999 -9999 -9999 -9999 -9999 -9999 -9999 -9999 -9999 -9999 -9999 -9999 -9999 -9999 -9999 -9999 -9999 -9999 -9999 -9999
-9999 -9999 -9999 -9999 -9999 -9999 -9999 -9999 -9999 -9999 -9999 -9999 -9999 -9999 -9999 -9999 -9999 -9999 -9999 -9999 -9999 -9999 -9999 -9999 -9999 -9999 -9999 -9999 -9999 -9999 -9999 -9999 -9999 -9999 -9999 -9999 -9999 -9999 -9999 -9999 -9999 -9999 -9999 -9999 -9999 -9999 -9999 -9999 -9999 -9999 -9999 -9999 -9999 654.0562 654.1202 654.1342 653.8771 652.9279 651.463 650.1385 649.0725 648.4323 648.1107 648.001 648 647.9873 647.927 647.8322 647.7206 647.6059 647.4969 647.3981 647.3109 647.2358 647.1722 647.1196 647.0773 647.0441 647.019 646.9999 646.9427 646.8685 646.7836 646.6927 646.5985 646.5026 646.4058 646.3093 646.2162 646.1301 646.0562 646.0001 645.9812 645.964 645.9517 645.9457 645.9451 645.9493 645.9578 645.9692 645.9803 645.9866 646 646.0001 646.0259 646.05 646.0921 646.1411 646.2042 646.2769 646.3508 646.4203 646.4828 646.5369 646.5853 646.6334 646.6838 646.7359 646.7887 646.8427 646.8973 646.9515 646.9996 647.0003 647.045 647.0698 647.0963 647.1512 647.1853 647.2034 647.2382 647.3255 647.4552 647.6106 647.7694 647.9017 647.9993 648.0496 648.1337 648.2932 648.5533 648.9466 649.5236 650.4241 651.6066 652.3897 652.7009 652.7747 652.8546 653.0641 653.3826 653.6715 654.0173 654.4487 655.0227 -9999 -9999 -9999 -9999 -9999 -9999 -9999 -9999 -9999 -9999 -9999 -9999 -9999 -9999 -9999 -9999 -9999 -9999 -9999 -9999 -9999 -9999 -9999 -9999 -9999 -9999 -9999 -9999 -9999 -9999 -9999 -9999 -9999 -9999 -9999 -9999 -9999 -9999 -9999 -9999 -9999 -9999 -9999 -9999 -9999 -9999 -9999 -9999
-9999 -9999 -9999 -9999 -9999 -9999 -9999 -9999 -9999 -9999 -9999 -9999 -9999 -9999 -9999 -9999 -9999 -9999 -9999 -9999 -9999 -9999 -9999 -9999 -9999 -9999 -9999 -9999 -9999 -9999 -9999 -9999 -9999 -9999 -9999 -9999 -9999 -9999 -9999 -9999 -9999 -9999 -9999 -9999 -9999 -9999 -9999 -9999 -9999 -9999 -9999 -9999 -9999 653.4849 653.5806 653.6241 653.3418 652.4434 650.8932 649.6945 648.8784 648.3188 648.0408 647.9612 647.9811 648 647.948 647.8585 647.7516 647.6406 647.5338 647.435 647.346 647.267 647.1975 647.1375 647.0862 647.0415 647.0001 646.9694 646.9097 646.8292 646.7372 646.6404 646.5424 646.4451 646.3497 646.2576 646.1717 646.0966 646.0378 646 645.9783 645.9636 645.9543 645.9507 645.9526 645.9595 645.9707 645.9854 646 646 646.0195 646.0384 646.0717 646.1117 646.1633 646.2238 646.2933 646.3699 646.4484 646.5226 646.5879 646.6429 646.6904 646.7351 646.7798 646.8243 646.8677 646.9119 646.9568 647.0001 647.0389 647.0548 647.0892 647.1271 647.1725 647.2249 647.2614 647.2864 647.3309 647.4258 647.5685 647.7323 647.8788 647.9717 647.9999 648.0035 648.0891 648.3065 648.6635 649.1392 649.9718 651.1377 652.4709 653.3463 653.8046 653.9196 653.9816 654.0303 654.0864 654.1672 654.4482 654.8435 -9999 -9999 -9999 -9999 -9999 -9999 -9999 -9999 -9999 -9999 -9999 -9999 -9999 -9999 -9999 -9999 -9999 -9999 -9999 -9999 -9999 -9999 -9999 -9999 -9999 -9999 -9999 -9999 -9999 -9999 -9999 -9999 -9999 -9999 -9999 -9999 -9999 -9999 -9999 -9999 -9999 -9999 -9999 -9999 -9999 -9999 -9999 -9999 -9999
-9999 -9999 -9999 -9999 -9999 -9999 -9999 -9999 -9999 -9999 -9999 -9999 -9999 -9999 -9999 -9999 -9999 -9999 -9999 -9999 -9999 -9999 -9999 -9999 -9999 -9999 -9999 -9999 -9999 -9999 -9999 -9999 -9999 -9999 -9999 -9999 -9999 -9999 -9999 -9999 -9999 -9999 -9999 -9999 -9999 -9999 -9999 -9999 -9999 -9999 -9999 -9999 -9999 653.1765 653.3059 653.407 653.09 652.118 650.5106 649.2814 648.5739 648.1453 647.9467 647.911 647.957 648 647.9653 647.8856 647.7844 647.6768 647.5709 647.4711 647.379 647.2953 647.2198 647.153 647.0952 647.0458 647 646.9491 646.8777 646.7889 646.6901 646.5881 646.4871 646.3892 646.296 646.209 646.1309 646.0664 646.0211 646 645.9795 645.9664 645.9596 645.9583 645.9621 645.971 645.984 646 646.0175 646.0306 646.0551 646.0873 646.1309 646.1826 646.2433 646.3115 646.3856 646.4639 646.5433 646.6182 646.6836 646.7378 646.7828 646.8234 646.8621 646.898 646.9296 646.9635 647 647.0389 647.0737 647.099 647.1332 647.179 647.2357 647.2917 647.3318 647.3631 647.4164 647.5205 647.6715 647.8335 647.9573 648 647.9369 647.8964 648.0019 648.3229 648.8749 649.543 650.5462 651.9691 653.286 654.1804 654.614 654.7163 654.8699 654.9185 654.9219 654.9196 654.9829 -9999 -9999 -9999 -9999 -9999 -9999 -9999 -9999 -9999 -9999 -9999 -9999 -9999 -9999 -9999 -9999 -9999 -9999 -9999 -9999 -9999 -9999 -9999 -9999 -9999 -9999 -9999 -9999 -9999 -9999 -9999 -9999 -9999 -9999 -9999 -9999 -9999 -9999 -9999 -9999 -9999 -9999 -9999 -9999 -9999 -9999 -9999 -9999 -9999 -9999
-9999 -9999 -9999 -9999 -9999 -9999 -9999 -9999 -9999 -9999 -9999 -9999 -9999 -9999 -9999 -9999 -9999 -9999 -9999 -9999 -9999 -9999 -9999 -9999 -9999 -9999 -9999 -9999 -9999 -9999 -9999 -9999 -9999 -9999 -9999 -9999 -9999 -9999 -9999 -9999 -9999 -9999 -9999 -9999 -9999 -9999 -9999 -9999 -9999 -9999 -9999 -9999 653.0133 653.0021 653.162 653.3971 653.0231 651.7817 650.2083 649.033 648.3547 647.9965 647.8583 647.8632 647.9357 648 647.9802 647.9105 647.8154 647.7108 647.6053 647.5036 647.4077 647.3187 647.2368 647.163 647.0992 647.0469 647.0001 646.934 646.8486 646.7498 646.6439 646.5372 646.4338 646.3361 646.2455 646.164 646.0938 646.0381 646 645.9876 645.9764 645.9688 645.9656 645.9669 645.9731 645.9844 646 646.0194 646.042 646.0663 646.0992 646.1426 646.197 646.2591 646.3277 646.4015 646.4779 646.5552 646.6315 646.7031 646.7654 646.8167 646.8586 646.895 646.9283 646.9567 646.974 647 647.0317 647.0703 647.1079 647.1409 647.1793 647.2312 647.295 647.3556 647.3993 647.436 647.4971 647.6091 647.763 647.9142 648.0062 647.9977 647.8361 647.7562 647.8915 648.3112 649.0326 650.0646 651.3585 652.9448 654.3299 655.2421 655.4601 655.3005 655.4082 655.4449 655.4523 -9999 -9999 -9999 -9999 -9999 -9999 -9999 -9999 -9999 -9999 -9999 -9999 -9999 -9999 -9999 -9999 -9999 -9999 -9999 -9999 -9999 -9999 -9999 -9999 -9999 -9999 -9999 -9999 -9999 -9999 -9999 -9999 -9999 -9999 -9999 -9999 -9999 -9999 -9999 -9999 -9999 -9999 -9999 -9999 -9999 -9999 -9999 -9999 -9999 -9999 -9999 -9999
-9999 -9999 -9999 -9999 -9999 -9999 -9999 -9999 -9999 -9999 -9999 -9999 -9999 -9999 -9999 -9999 -9999 -9999 -9999 -9999 -9999 -9999 -9999 -9999 -9999 -9999 -9999 -9999 -9999 -9999 -9999 -9999 -9999 -9999 -9999 -9999 -9999 -9999 -9999 -9999 -9999 -9999 -9999 -9999 -9999 -9999 -9999 -9999 -9999 -9999 -9999 653.0066 652.9999 652.9647 653.0618 653.5527 653.1252 651.5648 649.8578 648.7915 648.184 647.8861 647.7937 647.8287 647.9208 647.9999 647.9921 647.9314 647.8422 647.7403 647.635 647.5313 647.4315 647.3369 647.2482 647.166 647.0936 647.0365 646.9997 646.9163 646.8176 646.7102 646.5988 646.4884 646.3833 646.2864 646.1993 646.124 646.0628 646.0198 646 645.9854 645.9766 645.9725 645.9725 645.9767 645.9857 646 646.0189 646.0427 646.0714 646.105 646.1473 646.201 646.2659 646.3372 646.4124 646.49 646.567 646.6407 646.7106 646.7748 646.8309 646.8773 646.9152 646.9472 646.9761 646.9999 647 647.0198 647.0516 647.095 647.1414 647.1846 647.2305 647.2882 647.3574 647.4222 647.4694 647.5098 647.575 647.6902 647.8396 647.9672 648 647.8806 647.6874 647.6223 647.8392 648.4238 649.4086 650.8758 652.4906 654.285 655.7712 656.5828 656.5319 656.1384 -9999 -9999 -9999 -9999 -9999 -9999 -9999 -9999 -9999 -9999 -9999 -9999 -9999 -9999 -9999 -9999 -9999 -9999 -9999 -9999 -9999 -9999 -9999 -9999 -9999 -9999 -9999 -9999 -9999 -9999 -9999 -9999 -9999 -9999 -9999 -9999 -9999 -9999 -9999 -9999 -9999 -9999 -9999 -9999 -9999 -9999 -9999 -9999 -9999 -9999 -9999 -9999 -9999 -9999 -9999
-9999 -9999 -9999 -9999 -9999 -9999 -9999 -9999 -9999 -9999 -9999 -9999 -9999 -9999 -9999 -9999 -9999 -9999 -9999 -9999 -9999 -9999 -9999 -9999 -9999 -9999 -9999 -9999 -9999 -9999 -9999 -9999 -9999 -9999 -9999 -9999 -9999 -9999 -9999 -9999 -9999 -9999 -9999 -9999 -9999 -9999 -9999 -9999 -9999 -9999 653.1055 653.001 652.9965 652.989 653.0874 653.6246 652.7068 651.1031 649.5146 648.5765 648.0593 647.8196 647.7616 647.8139 647.9143 647.9999 648.0002 647.9471 647.8635 647.7643 647.6593 647.5538 647.4507 647.3514 647.2563 647.1655 647.0792 647.0003 646.954 646.877 646.7787 646.6689 646.5547 646.4424 646.3368 646.2413 646.158 646.0889 646.0356 646 645.9886 645.9811 645.9772 645.9772 645.9807 645.9877 646 646.0181 646.0417 646.0709 646.1057 646.1472 646.1987 646.262 646.3355 646.4139 646.4937 646.5732 646.6492 646.7177 646.7784 646.8328 646.8804 646.9204 646.9531 646.9793 647 647.0144 647.0189 647.0358 647.0684 647.1179 647.1763 647.2336 647.2905 647.3542 647.4271 647.4961 647.5469 647.5895 647.6533 647.7631 647.9012 648.005 647.997 647.7797 647.5681 647.5581 647.9224 648.7816 650.1978 652.1465 654.0638 656.0673 657.5952 658.1348 657.7041 -9999 -9999 -9999 -9999 -9999 -9999 -9999 -9999 -9999 -9999 -9999 -9999 -9999 -9999 -9999 -9999 -9999 -9999 -9999 -9999 -9999 -9999 -9999 -9999 -9999 -9999 -9999 -9999 -9999 -9999 -9999 -9999 -9999 -9999 -9999 -9999 -9999 -9999 -9999 -9999 -9999 -9999 -9999 -9999 -9999 -9999 -9999 -9999 -9999 -9999 -9999 -9999 -9999 -9999 -9999 -9999
-9999 -9999 -9999 -9999 -9999 -9999 -9999 -9999 -9999 -9999 -9999 -9999 -9999 -9999 -9999 -9999 -9999 -9999 -9999 -9999 -9999 -9999 -9999 -9999 -9999 -9999 -9999 -9999 -9999 -9999 -9999 -9999 -9999 -9999 -9999 -9999 -9999 -9999 -9999 -9999 -9999 -9999 -9999 -9999 -9999 -9999 -9999 -9999 -9999 653.3504 653.2504 653.1109 653.0004 652.8909 652.779 652.6994 651.7071 650.2062 649.0829 648.3749 647.9786 647.7992 647.7653 647.821 647.9165 647.9999 648.0038 647.9575 647.8794 647.7831 647.6785 647.5717 647.4662 647.3639 647.2654 647.1711 647.0817 646.9999 646.9281 646.8427 646.7413 646.6294 646.5135 646.4001 646.2946 646.2009 646.1221 646.0604 646.0186 646 645.986 645.9792 645.9786 645.9826 645.9902 646 646.0167 646.0403 646.0702 646.1058 646.147 646.1955 646.255 646.3264 646.4064 646.4887 646.5696 646.6479 646.7208 646.7831 646.8342 646.8776 646.9163 646.9504 646.9786 647 647.0142 647.0247 647.0337 647.0528 647.089 647.1458 647.2175 647.2922 647.3638 647.4342 647.5084 647.5795 647.6345 647.6783 647.7339 647.8265 647.9396 648 647.9103 647.6848 647.5048 647.5825 648.1309 649.3346 651.3547 653.796 655.9759 658.1389 659.5784 659.7069 658.8152 -9999 -9999 -9999 -9999 -9999 -9999 -9999 -9999 -9999 -9999 -9999 -9999 -9999 -9999 -9999 -9999 -9999 -9999 -9999 -9999 -9999 -9999 -9999 -9999 -9999 -9999 -9999 -9999 -9999 -9999 -9999 -9999 -9999 -9999 -9999 -9999 -9999 -9999 -9999 -9999 -9999 -9999 -9999 -9999 -9999 -9999 -9999 -9999 -9999 -9999 -9999 -9999 -9999 -9999 -9999 -9999
-9999 -9999 -9999 -9999 -9999 -9999 -9999 -9999 -9999 -9999 -9999 -9999 -9999 -9999 -9999 -9999 -9999 -9999 -9999 -9999 -9999 -9999 -9999 -9999 -9999 -9999 -9999 -9999 -9999 -9999 -9999 -9999 -9999 -9999 -9999 -9999 -9999 -9999 -9999 -9999 -9999 -9999 -9999 -9999 -9999 -9999 -9999 -9999 653.6328 653.5739 653.3878 653.1239 652.8174 652.4531 652.0136 651.5513 650.6482 649.478 648.7255 648.2418 647.9608 647.8302 647.8062 647.85 647.9237 647.9871 648 647.9631 647.8914 647.7979 647.6935 647.5854 647.4784 647.3745 647.2747 647.1791 647.0875 647 646.9127 646.817 646.71 646.5946 646.4767 646.3624 646.257 646.1653 646.0909 646.0356 646 645.9884 645.9805 645.9773 645.98 645.9877 646 646.0139 646.0369 646.0679 646.1057 646.1488 646.1968 646.2522 646.3187 646.3962 646.4794 646.5617 646.6397 646.713 646.7797 646.8348 646.8772 646.9118 646.9437 646.974 647 647.0182 647.0306 647.041 647.0543 647.0787 647.1209 647.1868 647.2729 647.3679 647.4579 647.5339 647.6052 647.6735 647.7316 647.778 647.8185 647.8837 647.9688 647.9999 647.8735 647.6621 647.5269 647.6855 648.3867 649.8728 652.3694 655.1456 657.787 660.0932 661.3 660.9256 659.5264 -9999 -9999 -9999 -9999 -9999 -9999 -9999 -9999 -9999 -9999 -9999 -9999 -9999 -9999 -9999 -9999 -9999 -9999 -9999 -9999 -9999 -9999 -9999 -9999 -9999 -9999 -9999 -9999 -9999 -9999 -9999 -9999 -9999 -9999 -9999 -9999 -9999 -9999 -9999 -9999 -9999 -9999 -9999 -9999 -9999 -9999 -9999 -9999 -9999 -9999 -9999 -9999 -9999 -9999 -9999 -9999
-9999 -9999 -9999 -9999 -9999 -9999 -9999 -9999 -9999 -9999 -9999 -9999 -9999 -9999 -9999 -9999 -9999 -9999 -9999 -9999 -9999 -9999 -9999 -9999 -9999 -9999 -9999 -9999 -9999 -9999 -9999 -9999 -9999 -9999 -9999 -9999 -9999 -9999 -9999 -9999 -9999 -9999 -9999 -9999 -9999 -9999 -9999 653.8682 653.9752 653.8008 653.4232 652.9146 652.2569 651.3522 650.9694 650.5427 649.8799 649.0935 648.5776 648.2343 648.0231 647.915 647.8837 647.9037 647.948 647.9884 648 647.9691 647.9022 647.8103 647.7054 647.596 647.4875 647.3828 647.2825 647.1862 647.0929 647 646.9031 646.7983 646.6849 646.5654 646.4447 646.3291 646.2239 646.1343 646.0649 646.0194 646 645.9847 645.9772 645.9761 645.981 645.9901 646 646.0266 646.0609 646.1018 646.1489 646.2007 646.2565 646.3186 646.3907 646.4719 646.5552 646.6337 646.7052 646.7697 646.8264 646.8728 646.9088 646.9388 646.9689 647 647.0275 647.0475 647.0619 647.0746 647.0928 647.1248 647.1763 647.2532 647.3532 647.4702 647.5834 647.6598 647.7196 647.7772 647.8342 647.8879 647.9083 647.9385 648 648.0097 647.907 647.7429 647.6542 647.8586 648.635 650.2714 653.0344 656.199 659.2529 661.5165 662.1949 661.457 659.6938 -9999 -9999 -9999 -9999 -9999 -9999 -9999 -9999 -9999 -9999 -9999 -9999 -9999 -9999 -9999 -9999 -9999 -9999 -9999 -9999 -9999 -9999 -9999 -9999 -9999 -9999 -9999 -9999 -9999 -9999 -9999 -9999 -9999 -9999 -9999 -9999 -9999 -9999 -9999 -9999 -9999 -9999 -9999 -9999 -9999 -9999 -9999 -9999 -9999 -9999 -9999 -9999 -9999 -9999 -9999 -9999
