ncols         222
nrows         54
xllcorner     733000
yllcorner     6259500
cellsize      50
NODATA_value  -9999
-9999 -9999 -9999 -9999 -9999 -9999 -9999 -9999 -9999 -9999 -9999 -9999 -9999 -9999 -9999 -9999 492.7339 491.4906 489.3697 486.8634 484.2453 481.6673 479.3997 477.7428 476.611 475.7001 474.9952 474.3975 474.0274 473.9755 474.1519 474.2828 474.1473 473.3332 472.2699 471.2884 470.7336 470.4066 469.9842 469.4685 469.0246 468.7396 468.6035 468.4315 468.2452 468.0111 467.8363 467.6623 467.4956 467.3479 467.233 467.1516 467.0956 467.0565 467.0298 467.0145 467.0111 467.0149 467 466.9523 466.8781 466.7877 466.6929 466.6047 466.5313 466.4769 466.439 466.4131 466.3935 466.3723 466.3488 466.3175 466.2751 466.2272 466.1777 466.1259 466.0749 466.0372 466.0177 466.0093 466.0067 466.011 466.0284 466.0649 466.1278 466.2174 466.3258 466.4335 466.5217 466.5841 466.6332 466.6938 466.8006 467.002 467.3619 467.8772 468.1931 468.2351 468.0689 467.9733 467.8666 467.8881 468.0045 468.264 468.598 469.0052 469.5033 469.9962 470.3868 470.6753 470.868 470.97 470.9811 470.8904 470.6801 470.3346 469.846 469.1425 468.6361 468.4068 468.5369 469.0411 469.9209 471.1494 472.5366 474.8536 477.8055 481.0081 483.6448 485.3671 486.3575 487.404 -9999 -9999 -9999 -9999 -9999 -9999 -9999 -9999 -9999 -9999 -9999 -9999 -9999 -9999 -9999 -9999 -9999 -9999 -9999 -9999 -9999 -9999 -9999 -9999 -9999 -9999 -9999 -9999 -9999 -9999 -9999 -9999 -9999 -9999 -9999 -9999 -9999 -9999 -9999 -9999 -9999 -9999 -9999 -9999 -9999 -9999 -9999 -9999 -9999 -9999 -9999 -9999 -9999 -9999 -9999 -9999 -9999 -9999 -9999 -9999 -9999 -9999 -9999 -9999 -9999 -9999 -9999 -9999 -9999 -9999 -9999 -9999 -9999 -9999 -9999 -9999 -9999 -9999 -9999 -9999 -9999 -9999 -9999 -9999 -9999 -9999 -9999 -9999 -9999 -9999
-9999 -9999 -9999 -9999 -9999 -9999 -9999 -9999 -9999 -9999 -9999 -9999 -9999 -9999 -9999 -9999 -9999 492.0108 490.4332 488.5465 486.5168 484.4206 482.4345 480.8255 479.6314 478.7135 478.0104 477.3919 476.9335 476.7436 476.6969 476.497 475.8474 474.4526 472.952 471.7802 471.1065 470.8999 470.4975 469.9835 469.4657 469.0703 468.9583 468.7221 468.5289 468.2568 468.0032 467.7844 467.5886 467.416 467.29 467.2076 467.1492 467.1013 467.0591 467.0243 467.0027 467 466.9651 466.8966 466.8005 466.6894 466.578 466.4792 466.4021 466.3521 466.3247 466.3102 466.3036 466.2958 466.2832 466.2638 466.2315 466.1899 466.1467 466.1026 466.0599 466.0267 466.0083 466 466 466.0066 466.0239 466.0551 466.1082 466.1898 466.2969 466.4137 466.5165 466.5909 466.6395 466.6803 466.7386 466.8404 467.0101 467.2777 467.7846 467.8444 467.5754 467.5124 467.6134 467.7881 467.9977 468.2681 468.6036 469.007 469.4972 469.9949 470.3854 470.6774 470.8789 470.9946 471.0299 470.9866 470.8508 470.5706 470.0995 469.439 468.787 468.3523 468.2887 468.673 469.4307 470.4258 471.6254 473.6399 476.4431 479.9537 483.0611 485.1708 486.2878 487.2386 -9999 -9999 -9999 -9999 -9999 -9999 -9999 -9999 -9999 -9999 -9999 -9999 -9999 -9999 -9999 -9999 -9999 -9999 -9999 -9999 -9999 -9999 -9999 -9999 -9999 -9999 -9999 -9999 -9999 -9999 -9999 -9999 -9999 -9999 -9999 -9999 -9999 -9999 -9999 -9999 -9999 -9999 -9999 -9999 -9999 -9999 -9999 -9999 -9999 -9999 -9999 -9999 -9999 -9999 -9999 -9999 -9999 -9999 -9999 -9999 -9999 -9999 -9999 -9999 -9999 -9999 -9999 -9999 -9999 -9999 -9999 -9999 -9999 -9999 -9999 -9999 -9999 -9999 -9999 -9999 -9999 -9999 -9999 -9999 -9999 -9999 -9999 -9999 -9999 -9999
-9999 -9999 -9999 -9999 -9999 -9999 -9999 -9999 -9999 -9999 -9999 -9999 -9999 -9999 -9999 -9999 -9999 492.1344 491.1061 489.8043 488.265 486.6359 485.0395 483.6391 482.5183 481.6237 480.9211 480.2961 479.7601 479.3958 479.07 478.4326 477.151 475.2252 473.3736 472.1377 471.4788 471.2209 470.9507 470.5021 469.998 469.5807 469.3692 469.0765 468.9459 468.6206 468.2925 468.0008 467.7531 467.5313 467.3888 467.3085 467.2469 467.1841 467.1184 467.0544 467.0001 466.9844 466.9322 466.8412 466.72 466.5845 466.454 466.344 466.2649 466.2249 466.2137 466.214 466.2202 466.2259 466.2237 466.2139 466.191 466.1551 466.1151 466.0768 466.0416 466.0149 466 465.9919 465.9923 466 466.0195 466.0494 466.0955 466.1679 466.2682 466.3849 466.495 466.5775 466.6246 466.6448 466.6558 466.6761 466.7292 466.8448 467.0427 467.066 467.0143 467.0536 467.4039 467.7388 467.9975 468.2855 468.6174 469.0074 469.4719 469.9924 470.3858 470.671 470.8634 470.9738 471.016 471.0043 470.9321 470.7156 470.2685 469.5928 468.8481 468.2203 468.0088 468.3087 468.9598 469.8307 470.8535 472.5009 475.1031 478.632 481.9977 484.4757 485.8548 486.8076 -9999 -9999 -9999 -9999 -9999 -9999 -9999 -9999 -9999 -9999 -9999 -9999 -9999 -9999 -9999 -9999 -9999 -9999 -9999 -9999 -9999 -9999 -9999 -9999 -9999 -9999 -9999 -9999 -9999 -9999 -9999 -9999 -9999 -9999 -9999 -9999 -9999 -9999 -9999 -9999 -9999 -9999 -9999 -9999 -9999 -9999 -9999 -9999 -9999 -9999 -9999 -9999 -9999 -9999 -9999 -9999 -9999 -9999 -9999 -9999 -9999 -9999 -9999 -9999 -9999 -9999 -9999 -9999 -9999 -9999 -9999 -9999 -9999 -9999 -9999 -9999 -9999 -9999 -9999 -9999 -9999 -9999 -9999 -9999 -9999 -9999 -9999 -9999 -9999 -9999
-9999 -9999 -9999 -9999 -9999 -9999 -9999 -9999 -9999 -9999 -9999 -9999 -9999 -9999 -9999 -9999 -9999 -9999 491.4378 490.6607 489.4686 488.1623 486.8956 485.7212 484.6785 483.7719 483.0039 482.382 481.7725 481.1469 480.4685 479.4894 477.7443 475.5225 473.4359 472.2891 471.7149 471.4683 471.2678 470.9592 470.511 470.0906 469.9128 469.6071 469.4056 469.0327 468.6519 468.2839 467.9681 467.6758 467.5266 467.4624 467.3953 467.3089 467.2133 467.1219 467.0476 466.9998 466.9152 466.7952 466.6441 466.4802 466.3283 466.2078 466.126 466.1028 466.1148 466.1293 466.1477 466.1655 466.1731 466.1699 466.1545 466.1237 466.0849 466.0486 466.0204 466 465.9893 465.9846 465.9877 466 466.0141 466.0437 466.0865 466.1508 466.2438 466.3561 466.4674 466.5536 466.5997 466.6051 466.5817 466.5453 466.5093 466.4954 466.5025 466.4941 466.658 466.9899 467.4135 467.8126 468.0173 468.3065 468.6125 468.9751 469.3779 469.9735 470.3894 470.6711 470.8484 470.9435 470.9852 471.0002 471.0003 470.8593 470.4683 469.8422 468.9367 468.0904 467.8128 467.9886 468.5023 469.2745 470.1671 471.5633 473.7868 477.027 480.4334 483.2146 484.9664 485.9525 487.173 -9999 -9999 -9999 -9999 -9999 -9999 -9999 -9999 -9999 -9999 -9999 -9999 -9999 -9999 -9999 -9999 -9999 -9999 -9999 -9999 -9999 -9999 -9999 -9999 -9999 -9999 -9999 -9999 -9999 -9999 -9999 -9999 -9999 -9999 -9999 -9999 -9999 -9999 -9999 -9999 -9999 -9999 -9999 -9999 -9999 -9999 -9999 -9999 -9999 -9999 -9999 -9999 -9999 -9999 -9999 -9999 -9999 -9999 -9999 -9999 -9999 -9999 -9999 -9999 -9999 -9999 -9999 -9999 -9999 -9999 -9999 -9999 -9999 -9999 -9999 -9999 -9999 -9999 -9999 -9999 -9999 -9999 -9999 -9999 -9999 -9999 -9999 -9999 -9999
-9999 -9999 -9999 -9999 -9999 -9999 -9999 -9999 -9999 -9999 -9999 -9999 -9999 -9999 -9999 -9999 -9999 -9999 -9999 -9999 489.923 488.914 487.8706 486.8253 485.8117 484.8651 483.9984 483.2588 482.6122 481.7286 480.702 479.3759 477.5238 475.4134 473.5147 472.4562 471.9507 471.7335 471.5694 471.3237 470.9762 470.5992 470.3182 470.0423 469.9188 469.5424 469.1139 468.6314 468.1467 467.8353 467.7133 467.684 467.595 467.4668 467.3297 467.2012 467.0905 466.9998 466.9042 466.7622 466.5795 466.3836 466.2098 466.0858 466.0007 466.0002 466.0407 466.0594 466.0886 466.1161 466.1321 466.1345 466.1236 466.0967 466.0582 466.0218 466 465.987 465.9803 465.9777 465.9796 465.9875 466 466.0347 466.0778 466.136 466.2219 466.3305 466.4407 466.5276 466.5723 466.5681 466.5226 466.4498 466.3608 466.2584 466.1428 466.0444 466.3506 466.8914 467.3928 467.9254 468.1344 468.334 468.5422 468.7965 469.152 469.9179 470.3928 470.6887 470.8602 470.9438 471.0008 471.0789 471.1063 470.9904 470.5877 469.9355 468.977 468.0626 467.6698 467.6816 468.0167 468.6371 469.4718 470.6635 472.5226 475.3265 478.4962 481.4524 483.562 484.8122 485.9042 487.464 -9999 -9999 -9999 -9999 -9999 -9999 -9999 -9999 -9999 -9999 -9999 -9999 -9999 -9999 -9999 -9999 -9999 -9999 -9999 -9999 -9999 -9999 -9999 -9999 -9999 -9999 -9999 -9999 -9999 -9999 -9999 -9999 -9999 -9999 -9999 -9999 -9999 -9999 -9999 -9999 -9999 -9999 -9999 -9999 -9999 -9999 -9999 -9999 -9999 -9999 -9999 -9999 -9999 -9999 -9999 -9999 -9999 -9999 -9999 -9999 -9999 -9999 -9999 -9999 -9999 -9999 -9999 -9999 -9999 -9999 -9999 -9999 -9999 -9999 -9999 -9999 -9999 -9999 -9999 -9999 -9999 -9999 -9999 -9999 -9999 -9999 -9999 -9999
-9999 -9999 -9999 -9999 -9999 -9999 -9999 -9999 -9999 -9999 -9999 -9999 -9999 -9999 -9999 -9999 -9999 -9999 -9999 -9999 -9999 -9999 -9999 -9999 -9999 -9999 -9999 -9999 -9999 481.0358 479.8434 478.4291 476.8047 475.1729 473.6945 472.7472 472.3027 472.1002 471.9305 471.6729 471.3152 470.9587 470.6439 470.4128 470.2663 470.0256 469.7834 469.2292 468.7649 468.2072 468.0159 467.9825 467.823 467.6323 467.4492 467.2834 467.1352 467.0018 466.9208 466.7556 466.5352 466.3014 466.104 465.9993 465.9362 465.9473 465.9995 466.0002 466.0408 466.0777 466.0974 466.1074 466.1001 466.0757 466.0373 466 465.9852 465.9777 465.9747 465.9738 465.9756 465.9832 466 466.0315 466.071 466.1229 466.2006 466.3058 466.4154 466.5015 466.5435 466.5315 466.4707 466.377 466.2625 466.1328 465.9919 465.8573 466.0241 466.4836 467.0149 467.5688 467.9699 468.2276 468.4272 468.6744 469.0947 469.9112 470.4184 470.7307 470.9142 471.0016 471.1059 471.189 471.1815 471.0034 470.5954 469.9399 468.9837 468.0593 467.5811 467.4451 467.6008 468.0419 468.7784 469.7845 471.3131 473.6149 476.3823 479.3255 481.6892 483.173 484.3124 485.8011 487.7469 -9999 -9999 -9999 -9999 -9999 -9999 -9999 -9999 -9999 -9999 -9999 -9999 -9999 -9999 -9999 -9999 -9999 -9999 -9999 -9999 -9999 -9999 -9999 -9999 -9999 -9999 -9999 -9999 -9999 -9999 -9999 -9999 -9999 -9999 -9999 -9999 -9999 -9999 -9999 -9999 -9999 -9999 -9999 -9999 -9999 -9999 -9999 -9999 -9999 -9999 -9999 -9999 -9999 -9999 -9999 -9999 -9999 -9999 -9999 -9999 -9999 -9999 -9999 -9999 -9999 -9999 -9999 -9999 -9999 -9999 -9999 -9999 -9999 -9999 -9999 -9999 -9999 -9999 -9999 -9999 -9999 -9999 -9999 -9999 -9999 -9999 -9999
-9999 -9999 -9999 -9999 -9999 -9999 -9999 -9999 -9999 -9999 -9999 -9999 -9999 -9999 -9999 -9999 -9999 -9999 -9999 -9999 -9999 -9999 -9999 -9999 -9999 -9999 -9999 -9999 -9999 -9999 478.6446 477.3201 476.1728 475.2498 474.3701 473.3307 472.8703 472.6262 472.3939 472.0457 471.5558 471.0602 470.8173 470.6474 470.5229 470.3701 470.1868 469.852 469.343 468.8392 468.4397 468.2113 467.9895 467.7597 467.5518 467.3682 467.2133 467.0905 466.9965 466.7808 466.5176 466.2427 466.004 465.9062 465.8643 465.8759 465.9178 465.9488 466 466.0452 466.0591 466.0819 466.0817 466.0603 466.025 466 465.9815 465.9731 465.9715 465.9724 465.9749 465.9825 466 466.0305 466.0667 466.1117 466.1804 466.2791 466.3873 466.4709 466.507 466.4845 466.4071 466.2934 466.1559 465.9942 465.7905 465.6482 465.7213 466.0276 466.5007 467.0253 467.5267 467.9485 468.2352 468.5558 469.0844 469.9229 470.4486 470.7781 470.9972 471.1227 471.2399 471.3078 471.2528 471.0032 470.5273 469.8568 468.9387 468.0512 467.5388 467.31 467.2992 467.5382 468.048 468.8882 470.1862 472.1044 474.5625 477.1675 479.5993 481.3259 482.6436 484.1367 486.006 488.2643 -9999 -9999 -9999 -9999 -9999 -9999 -9999 -9999 -9999 -9999 -9999 -9999 -9999 -9999 -9999 -9999 -9999 -9999 -9999 -9999 -9999 -9999 -9999 -9999 -9999 -9999 -9999 -9999 -9999 -9999 -9999 -9999 -9999 -9999 -9999 -9999 -9999 -9999 -9999 -9999 -9999 -9999 -9999 -9999 -9999 -9999 -9999 -9999 -9999 -9999 -9999 -9999 -9999 -9999 -9999 -9999 -9999 -9999 -9999 -9999 -9999 -9999 -9999 -9999 -9999 -9999 -9999 -9999 -9999 -9999 -9999 -9999 -9999 -9999 -9999 -9999 -9999 -9999 -9999 -9999 -9999 -9999 -9999 -9999 -9999 -9999
-9999 -9999 -9999 -9999 -9999 -9999 -9999 -9999 -9999 -9999 -9999 -9999 -9999 -9999 -9999 -9999 -9999 -9999 -9999 -9999 -9999 -9999 -9999 -9999 -9999 -9999 -9999 -9999 -9999 -9999 477.6381 476.4854 475.9363 475.6724 475.2912 474.344 473.6885 473.2947 472.9422 472.4648 471.8425 471.2986 470.9897 470.8052 470.6785 470.5431 470.3504 470.0323 469.6358 469.0999 468.7088 468.3791 468.03 467.8377 467.629 467.4345 467.2703 467.1335 466.9998 466.7903 466.5239 466.2408 465.9996 465.8636 465.8035 465.7995 465.8301 465.8749 465.9374 465.9993 466.0005 466.0487 466.0564 466.0397 466.0001 465.9822 465.9707 465.9664 465.9679 465.9716 465.976 465.9837 466 466.0316 466.0659 466.1033 466.1607 466.2494 466.3504 466.4277 466.453 466.4147 466.3124 466.1698 465.9962 465.7761 465.5529 465.4066 465.4262 465.6429 466.0099 466.4651 466.9626 467.46 467.919 468.371 469.058 469.9261 470.4542 470.7789 471.0024 471.1961 471.3496 471.4147 471.3187 470.9903 470.3643 469.6029 468.7841 468.0225 467.5363 467.263 467.1597 467.2201 467.5259 468.1552 469.2984 470.9584 473.0977 475.4686 477.5625 479.4298 481.0304 482.6394 484.4661 486.613 489.0229 -9999 -9999 -9999 -9999 -9999 -9999 -9999 -9999 -9999 -9999 -9999 -9999 -9999 -9999 -9999 -9999 -9999 -9999 -9999 -9999 -9999 -9999 -9999 -9999 -9999 -9999 -9999 -9999 -9999 -9999 -9999 -9999 -9999 -9999 -9999 -9999 -9999 -9999 -9999 -9999 -9999 -9999 -9999 -9999 -9999 -9999 -9999 -9999 -9999 -9999 -9999 -9999 -9999 -9999 -9999 -9999 -9999 -9999 -9999 -9999 -9999 -9999 -9999 -9999 -9999 -9999 -9999 -9999 -9999 -9999 -9999 -9999 -9999 -9999 -9999 -9999 -9999 -9999 -9999 -9999 -9999 -9999 -9999 -9999 -9999
-9999 -9999 -9999 -9999 -9999 -9999 -9999 -9999 -9999 -9999 -9999 -9999 -9999 -9999 -9999 -9999 -9999 -9999 -9999 -9999 -9999 -9999 -9999 -9999 -9999 -9999 -9999 -9999 -9999 -9999 -9999 476.731 476.4328 476.5643 476.3726 475.395 474.5171 473.9489 473.4222 472.7187 472.02 471.4286 471.0218 470.8846 470.7637 470.6272 470.4571 470.2232 469.9416 469.4669 469.0267 468.6614 468.2681 467.9861 467.7051 467.4801 467.3014 467.1494 466.9991 466.8126 466.5535 466.261 466.0005 465.8336 465.746 465.7183 465.731 465.7691 465.8256 465.8862 465.9314 465.9987 466.0002 465.9996 465.9675 465.9526 465.9498 465.9542 465.9622 465.9708 465.9787 465.9879 466 466.0351 466.0672 466.0946 466.1357 466.2084 466.2938 466.3572 466.3696 466.3126 466.1765 465.9985 465.779 465.5352 465.3115 465.1732 465.1741 465.3597 465.6565 465.994 466.398 466.9492 467.4745 468.1252 469.0121 469.9169 470.4342 470.7546 471.0019 471.2486 471.4382 471.5014 471.3629 470.951 470.1594 469.4056 468.65 468.008 467.5826 467.3099 467.1497 467.1134 467.2612 467.7116 468.5978 469.9902 471.7351 473.7023 475.5714 477.4114 479.3783 481.278 483.1819 485.2635 487.5829 489.9826 -9999 -9999 -9999 -9999 -9999 -9999 -9999 -9999 -9999 -9999 -9999 -9999 -9999 -9999 -9999 -9999 -9999 -9999 -9999 -9999 -9999 -9999 -9999 -9999 -9999 -9999 -9999 -9999 -9999 -9999 -9999 -9999 -9999 -9999 -9999 -9999 -9999 -9999 -9999 -9999 -9999 -9999 -9999 -9999 -9999 -9999 -9999 -9999 -9999 -9999 -9999 -9999 -9999 -9999 -9999 -9999 -9999 -9999 -9999 -9999 -9999 -9999 -9999 -9999 -9999 -9999 -9999 -9999 -9999 -9999 -9999 -9999 -9999 -9999 -9999 -9999 -9999 -9999 -9999 -9999 -9999 -9999 -9999 -9999
-9999 -9999 -9999 -9999 -9999 -9999 -9999 -9999 -9999 -9999 -9999 -9999 -9999 -9999 -9999 -9999 -9999 -9999 -9999 -9999 -9999 -9999 -9999 -9999 -9999 -9999 -9999 -9999 -9999 -9999 -9999 478.0529 477.9665 478.1793 477.8763 476.7466 475.3165 474.4779 473.629 472.822 472.1151 471.5399 471.1563 470.9949 470.8191 470.6608 470.496 470.2928 470.0229 469.737 469.3444 468.9435 468.4343 468.0108 467.7144 467.4915 467.3157 467.1613 467.0034 466.8704 466.6107 466.2947 466.0012 465.8035 465.6857 465.6299 465.6185 465.6372 465.6764 465.7258 465.7771 465.8331 465.8591 465.8773 465.8813 465.892 465.9109 465.9327 465.9532 465.9698 465.9831 466 466.0163 466.0454 466.0674 466.0761 466.09 466.1367 466.1915 466.2306 466.2339 466.1743 466.0026 465.8001 465.5665 465.3222 465.1112 464.9976 465.0207 465.2718 465.5769 465.8026 466.0989 466.6992 467.3048 468.1693 469.0796 469.9271 470.3987 470.7126 470.9987 471.3094 471.5336 471.5746 471.3647 470.8391 469.8266 469.0958 468.4827 467.9995 467.6733 467.4373 467.2581 467.1555 467.1943 467.476 468.1169 469.2393 470.6386 472.1596 473.7013 475.3423 477.4669 479.6747 481.7867 483.9262 486.2093 488.5773 490.8157 -9999 -9999 -9999 -9999 -9999 -9999 -9999 -9999 -9999 -9999 -9999 -9999 -9999 -9999 -9999 -9999 -9999 -9999 -9999 -9999 -9999 -9999 -9999 -9999 -9999 -9999 -9999 -9999 -9999 -9999 -9999 -9999 -9999 -9999 -9999 -9999 -9999 -9999 -9999 -9999 -9999 -9999 -9999 -9999 -9999 -9999 -9999 -9999 -9999 -9999 -9999 -9999 -9999 -9999 -9999 -9999 -9999 -9999 -9999 -9999 -9999 -9999 -9999 -9999 -9999 -9999 -9999 -9999 -9999 -9999 -9999 -9999 -9999 -9999 -9999 -9999 -9999 -9999 -9999 -9999 -9999 -9999 -9999
-9999 -9999 -9999 -9999 -9999 -9999 -9999 -9999 -9999 -9999 -9999 -9999 -9999 -9999 -9999 -9999 -9999 -9999 -9999 -9999 -9999 -9999 -9999 -9999 -9999 -9999 -9999 -9999 -9999 -9999 -9999 480.2643 480.3 480.347 479.683 478.1036 476.0592 474.8614 473.835 472.9561 472.2245 471.6317 471.2216 470.9985 470.8082 470.6494 470.5076 470.3619 470.1871 469.9697 469.5205 469.0094 468.4746 468.0091 467.7057 467.4938 467.3373 467.2123 467.1026 466.9907 466.6886 466.334 466.0023 465.7714 465.6215 465.5354 465.4963 465.4897 465.505 465.5343 465.5745 465.6221 465.6674 465.7137 465.7586 465.8062 465.8561 465.9033 465.9423 465.9696 465.9844 466 466.0291 466.0564 466.0636 466.0394 466.0005 465.9972 465.9909 465.9862 465.9952 465.9825 465.814 465.6199 465.4095 465.1916 464.9991 464.894 465.036 465.4987 465.956 466.1664 466.565 467.1282 467.8507 468.6826 469.3517 469.9741 470.3648 470.6755 471.0085 471.4411 471.6996 471.6714 471.3353 470.6867 469.5871 468.849 468.3458 468.0061 467.8146 467.6307 467.4484 467.3059 467.2639 467.4031 467.8146 468.5731 469.6397 470.8515 472.1084 473.5121 475.3524 477.6441 479.8843 482.137 484.4777 486.9003 489.204 491.2183 -9999 -9999 -9999 -9999 -9999 -9999 -9999 -9999 -9999 -9999 -9999 -9999 -9999 -9999 -9999 -9999 -9999 -9999 -9999 -9999 -9999 -9999 -9999 -9999 498.8784 498.3512 498.0773 497.8907 497.6408 497.2829 496.9542 496.8627 496.8885 496.8031 -9999 -9999 -9999 -9999 -9999 -9999 -9999 -9999 -9999 -9999 -9999 -9999 -9999 -9999 -9999 -9999 -9999 -9999 -9999 -9999 -9999 -9999 -9999 -9999 -9999 -9999 -9999 -9999 -9999 -9999 -9999 -9999 -9999 -9999 -9999 -9999 -9999 -9999 -9999 -9999 -9999 -9999 -9999 -9999 -9999 -9999 -9999 -9999
-9999 -9999 -9999 -9999 -9999 -9999 -9999 -9999 -9999 -9999 -9999 -9999 -9999 -9999 -9999 -9999 -9999 -9999 -9999 -9999 -9999 -9999 -9999 -9999 -9999 -9999 -9999 -9999 -9999 -9999 -9999 -9999 483.0826 482.7973 481.7473 479.8617 477.5533 475.7638 474.4 473.3351 472.4807 471.7887 471.2894 470.993 470.7834 470.6182 470.4884 470.377 470.2375 469.9996 469.5565 469.0104 468.4719 468.0056 467.7005 467.4975 467.3561 467.2466 467.1419 466.9993 466.7173 466.3584 466.0022 465.7376 465.5546 465.4383 465.3719 465.3398 465.3297 465.3335 465.3568 465.396 465.4573 465.5342 465.6193 465.7077 465.7937 465.8714 465.9349 465.9792 466 466.0273 466.0569 466.078 466.068 466.0003 465.8741 465.7289 465.587 465.508 465.5594 465.6096 465.564 465.4725 465.356 465.2217 465.0909 465.0717 465.4666 466.1216 466.7811 467.0603 467.4143 467.8608 468.3542 468.9557 469.5101 469.9888 470.3612 470.7334 471.1805 471.8016 472.0573 471.8604 471.2901 470.4178 469.2822 468.644 468.2739 468.0744 467.9964 467.852 467.6697 467.5082 467.4172 467.4456 467.6445 468.0653 468.7341 469.756 470.8027 471.9041 473.4426 475.3971 477.5192 479.8257 482.2371 484.7559 487.2135 489.3697 491.0886 -9999 -9999 -9999 -9999 -9999 -9999 -9999 -9999 -9999 -9999 -9999 -9999 -9999 -9999 -9999 -9999 -9999 -9999 -9999 -9999 -9999 -9999 495.974 495.0507 494.4904 494.1932 494.0048 493.8268 493.6524 493.55 493.6111 493.7034 493.6268 493.2556 -9999 -9999 -9999 -9999 -9999 -9999 -9999 -9999 -9999 -9999 -9999 -9999 -9999 -9999 -9999 -9999 -9999 -9999 -9999 -9999 -9999 -9999 -9999 -9999 -9999 -9999 -9999 -9999 -9999 -9999 -9999 -9999 -9999 -9999 -9999 -9999 -9999 -9999 -9999 -9999 -9999 -9999 -9999 -9999 -9999 -9999 -9999
-9999 -9999 -9999 -9999 -9999 -9999 -9999 -9999 -9999 -9999 -9999 -9999 -9999 -9999 -9999 -9999 -9999 -9999 -9999 -9999 -9999 -9999 -9999 -9999 -9999 -9999 -9999 -9999 -9999 -9999 -9999 -9999 485.5383 485.0051 483.7373 481.7952 479.4238 477.1191 475.4214 474.0604 472.9629 472.0934 471.451 471.0222 470.8036 470.5968 470.4487 470.3497 470.2317 469.9973 469.557 469.0052 468.4651 468.0042 467.7017 467.5054 467.3724 467.2672 467.1552 466.998 466.7455 466.3857 466.002 465.7022 465.4865 465.3429 465.2543 465.2018 465.1718 465.1469 465.1538 465.1791 465.2549 465.3619 465.4831 465.6095 465.7317 465.8408 465.9313 465.9999 466.0324 466.0644 466.094 466.1104 466.0917 465.9983 465.7646 465.4741 465.191 465.0313 465.1567 465.2922 465.3745 465.4225 465.4574 465.4892 465.5148 465.7126 466.2092 466.9932 467.6851 467.9374 468.1203 468.3749 468.6929 469.0945 469.6393 470.0269 470.4545 471.0003 471.7961 472.593 472.7474 472.236 471.3612 470.3109 469.171 468.5857 468.2719 468.1173 468.058 467.998 467.8427 467.7026 467.6113 467.5877 467.6409 467.8087 468.1516 468.9432 469.8394 470.7109 471.791 473.2762 475.0657 477.2148 479.6427 482.2474 484.853 487.1765 488.951 490.1478 490.9211 -9999 -9999 -9999 -9999 -9999 -9999 -9999 -9999 -9999 -9999 -9999 -9999 -9999 -9999 -9999 -9999 -9999 494.8508 494.2553 493.2528 492.0124 490.9044 490.1842 489.7672 489.5298 489.4136 489.4144 489.5677 489.8395 490.067 490.072 489.7774 489.0563 487.7146 -9999 -9999 -9999 -9999 -9999 -9999 -9999 -9999 -9999 -9999 -9999 -9999 -9999 -9999 -9999 -9999 -9999 -9999 -9999 -9999 -9999 -9999 -9999 -9999 -9999 -9999 -9999 -9999 -9999 -9999 -9999 -9999 -9999 -9999 -9999 -9999 -9999 -9999 -9999 -9999 -9999 -9999 -9999 -9999 -9999
-9999 -9999 -9999 -9999 -9999 -9999 -9999 -9999 -9999 -9999 -9999 -9999 -9999 -9999 -9999 -9999 -9999 -9999 -9999 -9999 -9999 -9999 -9999 -9999 -9999 -9999 -9999 -9999 -9999 -9999 -9999 -9999 486.923 486.4346 485.2375 483.5311 481.4435 479.1764 477.0428 475.2461 473.7592 472.6464 471.8573 471.3026 470.9542 470.5969 470.3913 470.2949 470.2045 469.9954 469.5596 469.0044 468.4613 468.0045 467.7081 467.519 467.394 467.2938 467.1776 467.0068 466.8153 466.4366 466.0045 465.666 465.419 465.253 465.1509 465.088 465.0554 465.0009 464.9995 465.0016 465.0892 465.2184 465.3676 465.5243 465.6769 465.8123 465.9212 466 466.0483 466.0873 466.1194 466.1336 466.1085 465.9974 465.7078 465.3456 465.0105 464.919 464.9997 465.1519 465.3231 465.5018 465.7056 465.9529 466.1358 466.5256 467.0982 467.8007 468.2627 468.4631 468.5829 468.7504 469.0103 469.4112 469.9252 470.2275 470.6472 471.3265 472.5471 473.7421 473.8311 472.7586 471.4959 470.2822 469.2053 468.6842 468.3551 468.1551 468.0488 467.9995 467.9064 467.8378 467.8041 467.7982 467.8004 467.8428 467.9783 468.4583 469.209 469.9159 470.6395 471.5679 472.8627 474.6914 476.9481 479.532 482.1965 484.6263 486.4881 487.6385 488.271 488.7088 -9999 -9999 -9999 -9999 -9999 -9999 -9999 -9999 -9999 -9999 -9999 491.2172 491.4917 491.7793 492.0226 492.0488 491.6519 490.7831 489.5087 488.0053 486.6399 485.6779 485.0879 484.7555 484.6591 484.7847 485.1685 485.714 486.1474 486.3425 486.2375 485.7531 484.7183 483.2458 -9999 -9999 -9999 -9999 -9999 -9999 -9999 -9999 -9999 -9999 -9999 -9999 -9999 -9999 -9999 -9999 -9999 -9999 -9999 -9999 -9999 -9999 -9999 -9999 -9999 -9999 -9999 -9999 -9999 -9999 -9999 -9999 -9999 -9999 -9999 -9999 -9999 -9999 -9999 -9999 -9999 -9999 -9999 -9999
-9999 -9999 -9999 -9999 -9999 -9999 -9999 -9999 -9999 -9999 -9999 -9999 -9999 -9999 -9999 -9999 -9999 -9999 -9999 -9999 -9999 -9999 -9999 -9999 -9999 -9999 -9999 -9999 -9999 -9999 -9999 -9999 -9999 486.8087 485.9083 484.695 483.1959 481.3052 479.1467 476.9954 475.087 473.5435 472.5377 471.6985 471.0002 470.5244 470.2917 470.2162 470.1669 469.9952 469.5679 469.0068 468.4571 468.006 467.7172 467.536 467.4237 467.3435 467.2607 467.1459 466.9724 466.5142 466.0115 465.6312 465.3536 465.1699 465.066 465.0005 464.9992 464.941 464.9207 464.9321 465.0009 465.1242 465.2828 465.4602 465.6366 465.7932 465.9153 466 466.0532 466.0931 466.1216 466.1313 466.1044 465.9985 465.7159 465.3748 465.0931 464.9988 464.9993 465.1671 465.4155 465.7007 466.0411 466.4832 466.9136 467.365 467.8882 468.3376 468.6287 468.7638 468.8527 469.0032 469.2535 469.5981 469.997 470.3418 470.8408 471.6878 473.2352 474.5933 474.3332 473.1819 471.5472 470.2423 469.4026 468.9249 468.5138 468.2122 468.0011 467.9172 467.8843 467.9008 467.948 467.9983 467.9992 467.9975 467.9376 468.1588 468.9149 469.4483 469.951 470.5341 471.3675 472.6185 474.4833 476.8034 479.3604 481.773 483.6664 484.8073 485.4072 485.8324 486.2704 -9999 -9999 -9999 -9999 -9999 -9999 -9999 -9999 489.3878 489.2918 489.3607 489.4506 489.5322 489.5452 489.2867 488.5787 487.4097 485.8593 484.1086 482.4946 481.3175 480.5924 480.1505 480.0277 480.1754 480.6915 481.4897 482.1564 482.6441 482.9184 482.8434 482.2276 481.2219 480.0521 -9999 -9999 -9999 477.0969 477.2653 477.4966 478.0179 478.7973 479.3913 479.9667 480.5445 -9999 -9999 -9999 -9999 -9999 -9999 -9999 -9999 -9999 -9999 -9999 -9999 -9999 -9999 -9999 -9999 -9999 -9999 -9999 -9999 -9999 -9999 -9999 -9999 -9999 -9999 -9999 -9999 -9999 -9999 -9999 -9999
-9999 -9999 -9999 -9999 -9999 -9999 -9999 -9999 -9999 -9999 -9999 -9999 -9999 -9999 -9999 -9999 -9999 -9999 -9999 -9999 -9999 -9999 -9999 -9999 -9999 -9999 -9999 -9999 -9999 -9999 -9999 -9999 -9999 486.3054 485.8327 485.1427 484.3695 483.1056 481.2577 479.0392 476.8531 474.9672 473.5527 472.2651 471.0999 470.4558 470.187 470.1329 470.1272 469.9965 469.5783 469.0081 468.4375 468.0066 467.7202 467.5446 467.4455 467.3843 467.322 467.2139 466.9948 466.5331 466.0101 465.5978 465.2904 465.0892 464.9992 464.933 464.911 464.8802 464.876 464.9124 464.999 465.0737 465.225 465.4163 465.6133 465.7886 465.9196 465.9999 466.0537 466.0886 466.1049 466.1004 466.0705 465.9966 465.7474 465.4516 465.2 465.0569 465.0157 465.2992 465.6454 466.0262 466.5028 467.0339 467.5348 467.9787 468.3655 468.6617 468.8395 468.9214 469.0034 469.1824 469.4189 469.6989 470.0064 470.3621 470.9146 471.8283 473.2847 474.3156 473.9491 472.9107 471.4114 470.2639 469.6055 469.069 468.6839 468.3208 467.9986 467.8546 467.8419 467.9093 467.9998 468.0446 468.0399 468.0118 468.0027 468.288 468.8936 469.2146 469.5494 469.951 470.4551 471.2372 472.4839 474.3329 476.5389 478.7697 480.5862 481.7491 482.4447 483.0047 483.6313 484.3564 -9999 -9999 -9999 -9999 -9999 -9999 488.4972 488.0973 487.9246 487.7802 487.5974 487.362 487.034 486.4529 485.4596 484.0606 482.3182 480.4138 478.7086 477.5193 476.8837 476.4219 476.2693 476.2638 476.6957 477.5899 478.2862 479.1025 479.9103 480.4369 480.3498 479.8121 478.9248 477.9579 477.1724 476.7724 476.6979 476.8503 477.0294 477.554 478.2355 478.9807 479.7188 480.3032 481.3095 483.1512 -9999 -9999 -9999 -9999 -9999 -9999 -9999 -9999 -9999 -9999 -9999 -9999 -9999 -9999 -9999 -9999 -9999 -9999 -9999 -9999 -9999 -9999 -9999 -9999 -9999 -9999 -9999 -9999 -9999 -9999
-9999 -9999 -9999 -9999 -9999 -9999 -9999 -9999 -9999 -9999 -9999 -9999 -9999 -9999 -9999 -9999 -9999 -9999 -9999 -9999 -9999 -9999 -9999 -9999 -9999 -9999 -9999 -9999 -9999 -9999 -9999 -9999 -9999 -9999 485.7214 485.2525 484.9299 484.3407 483.001 480.9845 478.7327 476.5828 474.5873 472.7638 471.2481 470.4501 470.1232 470.0652 470.0833 469.9867 469.5709 468.9903 468.3544 467.9768 467.6895 467.526 467.4449 467.4007 467.3485 467.2361 466.9942 466.5319 466.0058 465.5721 465.2369 465.003 464.9102 464.8582 464.8354 464.8228 464.8318 464.8697 464.9328 465.0017 465.1757 465.3857 465.6035 465.8003 465.9418 466.0004 466.0615 466.0885 466.0838 466.0531 466.0005 465.9412 465.7686 465.5483 465.3595 465.2699 465.3308 465.6308 466.0003 466.4353 466.9498 467.5461 467.9939 468.342 468.62 468.8271 468.9454 468.9998 469.1315 469.3274 469.543 469.7634 469.9949 470.2529 470.7227 471.437 472.3575 472.9319 472.7579 472.075 471.1199 470.3877 469.9266 469.4119 468.9907 468.5556 468.0732 467.8611 467.8304 467.9064 467.9999 468.0399 468.0401 468.0331 468.087 468.3339 468.7324 469.0149 469.3167 469.6205 469.9666 470.4118 471.1639 472.3431 474.0186 475.8687 477.5154 478.7562 479.6868 480.5005 481.3503 482.2188 482.9258 -9999 -9999 -9999 485.9904 486.8109 487.0563 486.6374 486.3624 485.8782 485.2975 484.6617 483.9945 483.1579 482.0196 480.5941 478.8734 477.0396 475.5392 474.7154 474.6578 474.2834 474.168 473.7485 473.7071 474.0612 474.6947 475.7416 477.0706 478.274 478.7987 478.6797 477.9946 477.2449 476.7809 476.4861 476.2659 476.0856 476.1833 476.738 477.4215 478.1566 478.9588 479.719 480.6467 482.1993 484.4596 487.0342 -9999 -9999 -9999 -9999 -9999 -9999 -9999 -9999 -9999 -9999 -9999 -9999 -9999 -9999 -9999 -9999 -9999 -9999 -9999 -9999 -9999 -9999 -9999 -9999 -9999 -9999 -9999 -9999
-9999 -9999 -9999 -9999 -9999 -9999 -9999 -9999 -9999 -9999 -9999 -9999 -9999 -9999 -9999 -9999 -9999 -9999 -9999 -9999 -9999 -9999 -9999 -9999 -9999 -9999 -9999 -9999 -9999 -9999 -9999 -9999 -9999 -9999 -9999 -9999 485.448 485.0949 484.1956 482.5221 480.4608 478.256 475.9237 473.5442 471.6302 470.6115 470.1486 470.0204 469.9986 469.8619 469.4998 468.9271 468.1391 467.7876 467.5809 467.4709 467.4225 467.3967 467.3518 467.2373 466.9915 466.5303 466.0022 465.5682 465.2305 464.999 464.8741 464.8128 464.7867 464.7812 464.7977 464.8397 464.9063 464.9999 465.1608 465.3665 465.595 465.8192 465.9992 466.0654 466.1044 466.1079 466.0783 466.0313 465.9999 465.9357 465.8104 465.6553 465.5312 465.5028 465.6308 465.9591 466.3151 466.741 467.1472 467.8462 468.187 468.4499 468.6635 468.8532 468.9785 469.0059 469.2181 469.4418 469.6335 469.783 469.8994 470.0182 470.3376 470.7357 471.2097 471.5383 471.4518 471.1435 470.7142 470.2909 469.9721 469.6023 469.2879 468.9577 468.4875 468.0363 467.8984 467.9377 468 468.0292 468.0328 468.0421 468.1171 468.3286 468.6583 468.994 469.2641 469.5042 469.7463 470.0157 470.4133 471.0708 472.0804 473.4572 474.8863 476.1642 477.4256 478.6637 479.7343 480.6468 481.1687 -9999 -9999 482.5961 483.5488 484.6076 485.2234 485.0201 484.3203 483.3237 482.2838 481.2693 480.3845 479.4625 478.3445 477.1354 475.8019 474.3398 473.3415 472.7727 472.6188 472.4007 472.2555 471.7545 471.5131 471.6144 472.0771 472.9904 474.3987 476.0432 477.1565 477.3846 476.9721 476.6198 476.4188 476.1818 475.7779 475.23 475.1246 475.5324 476.2447 476.9619 477.767 478.6031 479.532 480.9645 482.9751 485.4097 487.8468 -9999 -9999 -9999 -9999 -9999 -9999 -9999 -9999 -9999 -9999 -9999 -9999 -9999 -9999 -9999 -9999 -9999 -9999 -9999 -9999 -9999 -9999 -9999 -9999 -9999 -9999 -9999
-9999 -9999 -9999 -9999 -9999 -9999 -9999 -9999 -9999 -9999 -9999 -9999 -9999 -9999 -9999 -9999 -9999 -9999 -9999 -9999 -9999 -9999 -9999 -9999 -9999 -9999 -9999 -9999 -9999 -9999 -9999 -9999 -9999 -9999 -9999 -9999 -9999 -9999 484.8569 483.5318 481.8496 479.8278 477.4072 474.7255 472.3494 470.9936 470.2748 469.9988 469.8689 469.7194 469.4241 468.9088 468.0838 467.6919 467.508 467.4297 467.404 467.3905 467.3491 467.233 466.9893 466.5482 466.0083 465.5955 465.2509 464.9986 464.8665 464.7988 464.7665 464.7596 464.778 464.8241 464.8983 465.0004 465.1423 465.3284 465.5507 465.7865 465.9971 466.0831 466.1312 466.1246 466.0752 466.0002 465.9815 465.9393 465.8554 465.7514 465.6722 465.6663 465.7715 466.0136 466.4494 466.9383 467.2239 467.6769 467.9969 468.2639 468.4648 468.7281 468.9893 469.1129 469.3176 469.5309 469.6924 469.788 469.8365 469.8802 469.9901 470.0484 470.1598 470.2757 470.3157 470.3916 470.2446 469.9184 469.6505 469.5201 469.4027 469.2253 468.9023 468.3141 468.0027 467.9999 468.0183 468.0287 468.0261 468.0324 468.095 468.2695 468.5812 468.9951 469.2889 469.5231 469.748 469.9875 470.1135 470.4011 470.9617 471.8274 473.0357 474.3258 475.7756 477.6064 479.136 480.0631 480.1237 480.1656 480.2465 480.5315 481.1721 482.1404 482.7973 482.5593 481.5468 480.1991 478.8981 477.8383 477.0371 476.3246 475.3427 474.3917 473.5562 472.6147 471.9101 471.4439 471.1621 470.8597 470.5307 470.1873 469.9966 470.0123 470.3291 471.1071 472.2674 473.7392 475.0703 475.6178 475.5171 475.6332 475.7472 475.5829 474.9373 474.2273 473.8719 474.019 474.5794 475.3013 476.0832 476.9725 477.9643 479.4232 481.4033 483.8195 486.3168 488.4769 -9999 -9999 -9999 -9999 -9999 -9999 -9999 -9999 -9999 -9999 -9999 -9999 -9999 -9999 -9999 -9999 -9999 -9999 -9999 -9999 -9999 -9999 -9999 -9999 -9999 -9999
-9999 -9999 -9999 -9999 -9999 -9999 -9999 -9999 -9999 -9999 -9999 -9999 -9999 -9999 -9999 -9999 -9999 -9999 -9999 -9999 -9999 -9999 -9999 -9999 -9999 -9999 -9999 -9999 -9999 -9999 -9999 -9999 -9999 -9999 -9999 -9999 -9999 -9999 -9999 484.1014 482.8406 481.1082 478.7691 475.9671 473.2468 471.5284 470.4422 469.9788 469.7299 469.5675 469.3383 468.9027 468.0826 467.6807 467.5019 467.4321 467.4121 467.4017 467.3622 467.249 467.0123 466.6529 466.0883 465.7062 465.3245 465.0102 464.8949 464.8187 464.7722 464.7548 464.7675 464.8122 464.8904 464.9989 465.0978 465.2487 465.4443 465.6589 465.8625 466.0008 466.1017 466.1082 466.0711 466.0001 465.9678 465.9363 465.885 465.823 465.7796 465.7875 465.8666 466.0209 466.4233 466.8094 467.0257 467.3322 467.5575 467.8224 467.9795 468.3499 468.7247 468.9959 469.2607 469.5043 469.6566 469.7185 469.7257 469.7163 469.7133 469.6844 469.6857 469.7256 469.7871 469.869 469.7227 469.2337 469.0823 469.2374 469.2937 469.2204 468.9215 468.3138 468.0029 468 468.0245 468.0327 468.0229 468.0137 468.0384 468.1491 468.4203 468.9671 469.3023 469.5463 469.7477 469.9128 469.9998 470.1331 470.4704 471.0852 472.0149 473.2411 474.8356 477.1665 479.3024 480.58 480.2519 479.8438 479.3784 479.0676 479.1187 479.6543 480.0028 479.5801 478.4178 477.1095 475.8642 475.0075 474.7441 475.0399 474.144 473.1877 472.3576 471.6004 471.0558 470.6913 470.3838 470.0614 469.7458 469.4395 469.2346 469.1978 469.4187 469.989 470.8641 471.938 472.9058 473.5917 473.9083 474.1527 474.4563 474.3976 473.7534 473.0375 472.4995 472.4446 472.7604 473.3238 474.1209 474.9559 476.0342 477.6157 479.6954 482.1953 484.7941 487.1066 488.9465 -9999 -9999 -9999 -9999 -9999 -9999 -9999 -9999 -9999 -9999 -9999 -9999 -9999 -9999 -9999 -9999 -9999 -9999 -9999 -9999 -9999 -9999 -9999 -9999 -9999
-9999 -9999 -9999 -9999 -9999 -9999 -9999 -9999 -9999 -9999 -9999 -9999 -9999 -9999 -9999 -9999 -9999 -9999 -9999 -9999 -9999 -9999 -9999 -9999 -9999 -9999 -9999 -9999 -9999 -9999 -9999 -9999 -9999 -9999 -9999 -9999 -9999 -9999 -9999 484.4034 483.4662 481.9914 479.8205 477.0062 474.1099 472.1191 470.5567 469.8702 469.5521 469.3842 469.2031 468.8432 468.0771 467.7255 467.5596 467.4836 467.4535 467.4382 467.4066 467.3287 467.1782 466.935 466.3943 465.9494 465.4958 465.1592 464.9959 464.8721 464.7961 464.7594 464.758 464.789 464.8478 464.9243 465.0006 465.1255 465.289 465.4657 465.6602 465.8374 465.9899 466.0005 465.997 465.9352 465.9053 465.8933 465.8778 465.8585 465.8542 465.8914 465.9962 466.1484 466.4614 466.7836 466.9973 467.0646 467.0276 467.0745 467.2318 467.7907 468.2777 468.6029 468.9333 469.266 469.4333 469.4748 469.4643 469.4417 469.4159 469.3824 469.3633 469.3532 469.3037 469.1248 468.9236 468.6411 468.6346 468.9226 469 468.9575 468.5861 468.0619 467.9428 467.9998 468.0343 468.0437 468.0301 468.0067 467.9896 468.0074 468.1333 468.8189 469.2268 469.5226 469.7409 469.8971 469.9993 470.0803 470.3289 470.846 471.5401 472.7352 474.4786 476.8166 479.2003 480.6533 480.8015 479.8859 478.8773 478.005 477.4587 477.3522 477.1488 476.5345 475.5112 474.4162 473.4734 473.1026 473.791 473.8909 473.2698 472.4387 471.6538 470.9966 470.5694 470.343 470.1704 469.9794 469.6183 469.2789 469.0332 468.9336 469.0453 469.4118 469.9992 470.7104 471.3611 471.8285 472.2941 472.6857 472.9533 473.1413 472.5713 472.0622 471.6359 471.5195 471.6414 471.9429 472.4374 473.0964 474.0199 475.6628 477.8546 480.4522 483.1876 485.7303 487.8689 489.5072 -9999 -9999 -9999 -9999 -9999 -9999 -9999 -9999 -9999 -9999 -9999 -9999 -9999 -9999 -9999 -9999 -9999 -9999 -9999 -9999 -9999 -9999 -9999 -9999
-9999 -9999 -9999 -9999 -9999 -9999 -9999 -9999 -9999 -9999 -9999 -9999 -9999 -9999 -9999 -9999 -9999 -9999 -9999 -9999 -9999 -9999 -9999 -9999 -9999 -9999 -9999 -9999 -9999 -9999 -9999 -9999 -9999 -9999 -9999 -9999 -9999 -9999 -9999 484.6007 483.9132 482.6491 480.5826 477.7762 474.8261 472.7105 470.7772 469.8355 469.4025 469.1834 468.9884 468.6077 468.0479 467.8239 467.6711 467.5722 467.517 467.4849 467.4484 467.3785 467.2429 466.9918 466.5081 466.007 465.5971 465.2542 465.0067 464.9066 464.8203 464.7667 464.7496 464.7639 464.8019 464.8545 464.915 465.0009 465.1238 465.2321 465.3976 465.549 465.669 465.7241 465.7499 465.747 465.7605 465.7902 465.8217 465.8502 465.8843 465.9341 466.0044 466.2182 466.5105 466.8003 466.9989 467 466.9223 466.8605 466.9069 467.1809 467.7153 467.9313 468.1923 468.7253 468.9157 468.9389 468.9294 468.9288 468.9242 468.9182 468.916 468.9087 468.8307 468.5125 468.1541 468.0119 468.0654 468.3695 468.4891 468.4925 468.2617 467.9994 467.9406 468 468.0389 468.0532 468.0451 468.0251 468.0024 467.9995 468.0533 468.4915 469.0455 469.45 469.7189 469.8917 469.9997 470.0628 470.2318 470.5892 471.1899 472.3741 474.0602 476.19 478.5041 480.0446 480.1317 479.3136 478.2227 477.0844 476.1024 475.3807 474.6299 473.9979 473.1812 472.3783 471.8954 472.195 472.9643 472.9495 472.4612 471.7415 471.0714 470.5326 470.2655 470.1544 470.1032 469.9955 469.7097 469.4071 469.1567 469.009 469.0153 469.206 469.561 470.0059 470.4315 470.7285 471.0834 471.5633 471.8848 472.0073 471.7123 471.3759 471.0385 470.9471 470.9399 471.003 471.2182 471.7081 472.4426 473.8146 475.9837 478.6209 481.436 484.1837 486.6447 488.6182 -9999 -9999 -9999 -9999 -9999 -9999 -9999 -9999 -9999 -9999 -9999 -9999 -9999 -9999 -9999 -9999 -9999 -9999 -9999 -9999 -9999 -9999 -9999 -9999
-9999 -9999 -9999 -9999 -9999 -9999 -9999 -9999 -9999 -9999 -9999 -9999 -9999 -9999 -9999 -9999 -9999 -9999 -9999 -9999 -9999 -9999 -9999 -9999 -9999 -9999 -9999 -9999 -9999 -9999 -9999 -9999 -9999 -9999 -9999 -9999 -9999 -9999 -9999 484.9272 484.3094 483.1711 481.1501 478.2327 475.003 472.4365 470.7346 469.7643 469.28 469.0117 468.7862 468.475 468.1399 467.9925 467.8035 467.666 467.5803 467.526 467.4745 467.3936 467.2474 466.992 466.5686 466.0601 465.7283 465.4004 465.1396 464.9958 464.8595 464.7814 464.7489 464.7484 464.7697 464.8056 464.8539 464.92 464.998 465.0067 465.1457 465.2401 465.3107 465.3946 465.4506 465.4991 465.5629 465.642 465.7256 465.808 465.8953 465.999 466.1017 466.303 466.564 466.8204 466.9999 467.0305 466.999 466.8988 466.8429 466.8894 467.0331 467.0963 467.2918 467.8031 467.9754 467.9933 467.9989 468.049 468.0687 468.0799 468.0873 468.0927 468.0684 467.942 467.6902 467.6122 467.7203 467.9685 468.0345 468.128 468.0065 467.9284 467.9348 467.9998 468.0312 468.0493 468.0504 468.0377 467.9999 467.9089 467.8893 468.1508 468.9126 469.3976 469.7014 469.8875 469.9998 470.0661 470.2014 470.4902 471.0458 472.0953 473.5491 475.3326 477.2665 478.763 479.1183 478.6466 477.6578 476.3504 475.0526 473.917 473.0551 472.3729 471.7129 471.1964 471.1992 471.6842 472.2488 472.072 471.553 470.9466 470.4686 470.0658 469.9878 469.9931 469.9961 469.9316 469.779 469.5825 469.3864 469.2344 469.1703 469.2264 469.4033 469.6648 469.9351 470.0215 470.231 470.7588 471.0652 471.1399 470.968 470.8139 470.5486 470.4318 470.3892 470.4217 470.5454 470.8411 471.2716 472.3525 474.1919 476.7661 479.6054 482.5106 485.2696 487.6189 -9999 -9999 -9999 -9999 -9999 -9999 -9999 -9999 -9999 -9999 -9999 -9999 -9999 -9999 -9999 -9999 -9999 -9999 -9999 -9999 -9999 -9999 -9999 -9999
-9999 -9999 -9999 -9999 -9999 -9999 -9999 -9999 -9999 -9999 -9999 -9999 -9999 -9999 -9999 -9999 -9999 -9999 -9999 -9999 -9999 -9999 -9999 -9999 -9999 -9999 -9999 -9999 -9999 -9999 -9999 -9999 -9999 -9999 -9999 -9999 -9999 -9999 -9999 485.4126 484.9329 483.8371 481.7879 478.6849 475.1513 472.3004 470.6625 469.6725 469.1891 468.9579 468.6443 468.3554 468.1139 467.9988 467.847 467.7163 467.622 467.5548 467.4916 467.4018 467.2518 467.0125 466.7328 466.3101 465.9581 465.581 465.2646 465.0093 464.8836 464.8054 464.7645 464.7517 464.7574 464.7764 464.8065 464.8468 464.889 464.9146 464.9973 465.0009 465.0091 465.123 465.1834 465.2614 465.3631 465.4822 465.6098 465.7385 465.8668 466.0005 466.1568 466.362 466.5999 466.8293 466.9991 467.0402 467.0397 466.9992 466.9083 466.8122 466.7553 466.7209 466.8021 467.0133 467.0732 467.0801 467.131 467.3266 467.4095 467.4799 467.5171 467.5331 467.5179 467.4344 467.2945 467.2988 467.4339 467.6501 467.8198 467.9904 467.9342 467.8998 467.9188 467.9679 468 468.0261 468.035 468.0352 467.9988 467.8652 467.8281 468.0779 468.8868 469.3851 469.6935 469.8828 469.9999 470.0902 470.23 470.4998 471.0029 471.8568 473.0016 474.37 475.8441 477.2487 478.0433 477.9156 477.0299 475.7059 474.3354 473.0266 472.1415 471.5297 471.0552 470.7743 470.8702 471.2831 471.6139 471.2875 470.7185 470.1833 469.9447 469.7029 469.6418 469.6739 469.7261 469.7518 469.7333 469.668 469.5678 469.4581 469.3717 469.3396 469.3767 469.4664 469.5595 469.593 469.7277 470.0475 470.3439 470.3741 470.1507 470.0587 470.0007 469.9943 470.009 470.1029 470.1683 470.2754 470.5256 471.2793 472.8079 475.1107 477.8853 480.8252 483.7436 486.3825 488.5281 -9999 -9999 -9999 -9999 -9999 -9999 -9999 -9999 -9999 -9999 -9999 -9999 -9999 -9999 -9999 -9999 -9999 -9999 -9999 -9999 -9999 -9999 -9999
-9999 -9999 -9999 -9999 -9999 -9999 -9999 -9999 -9999 -9999 -9999 -9999 -9999 -9999 -9999 -9999 -9999 -9999 -9999 -9999 -9999 -9999 -9999 -9999 -9999 -9999 -9999 -9999 -9999 -9999 -9999 -9999 -9999 -9999 -9999 -9999 -9999 -9999 -9999 485.8113 485.3972 484.3455 482.3626 479.1584 475.3991 472.3174 470.6056 469.4803 468.9494 468.65 468.4042 468.1914 468.0037 467.9318 467.8345 467.7318 467.6447 467.5757 467.5104 467.4279 467.3105 467.1532 466.9599 466.5093 466.0523 465.7467 465.4624 465.1923 465.0011 464.8809 464.8141 464.7825 464.7689 464.7672 464.7753 464.7909 464.8087 464.8258 464.8599 464.8695 464.903 464.9974 465.0021 465.086 465.2052 465.3445 465.5005 465.6655 465.832 466.0002 466.1846 466.3914 466.6082 466.8059 466.9465 467.0001 467.0302 467.0311 466.9982 466.8416 466.6993 466.6002 466.584 466.6354 466.656 466.6879 466.7912 466.9813 467.0148 467.1249 467.1679 467.1799 467.1669 467.1091 467.006 467.0765 467.2149 467.4088 467.603 467.7715 467.821 467.8496 467.8918 467.941 467.9777 468 468 467.9999 467.9444 467.8552 467.8676 468.1282 468.9089 469.3856 469.6827 469.8736 470.0003 470.1232 470.2813 470.5503 470.9971 471.6555 472.5038 473.5068 474.6396 475.8633 477.0884 477.2504 476.6041 475.3531 473.9432 472.5213 471.693 471.207 470.9597 470.6702 470.6636 470.883 471.0307 470.6129 470.0823 469.7212 469.5294 469.379 469.3233 469.3449 469.4121 469.4977 469.5792 469.6295 469.633 469.5947 469.5302 469.4615 469.4102 469.381 469.3553 469.3225 469.3527 469.4688 469.5836 469.6352 469.5577 469.5338 469.5726 469.6698 469.8117 469.9944 470.0362 470.0301 470.1283 470.6204 471.7793 473.8241 476.446 479.3023 482.2323 485.016 487.4753 -9999 -9999 -9999 -9999 -9999 -9999 -9999 -9999 -9999 -9999 -9999 -9999 -9999 -9999 -9999 -9999 -9999 -9999 -9999 -9999 -9999 -9999 -9999
-9999 -9999 -9999 -9999 -9999 -9999 -9999 -9999 -9999 -9999 -9999 -9999 -9999 -9999 -9999 -9999 -9999 -9999 -9999 -9999 -9999 -9999 -9999 -9999 -9999 -9999 -9999 -9999 -9999 -9999 -9999 -9999 -9999 -9999 -9999 -9999 -9999 -9999 -9999 485.9008 485.427 484.2441 482.7581 479.6833 475.7531 472.3364 470.2503 469.0607 468.524 468.2931 468.1719 468.0775 467.9994 467.9171 467.83 467.7417 467.6624 467.5948 467.5298 467.4514 467.3448 467.1993 466.9975 466.6691 466.2982 465.9999 465.7288 465.431 465.1818 465.0011 464.8973 464.8414 464.8033 464.7769 464.7608 464.7529 464.7502 464.7519 464.7635 464.7789 464.8187 464.8861 464.9263 465.0007 465.1125 465.2463 465.4127 465.6031 465.8022 466 466.1979 466.4008 466.6013 466.7783 466.9065 466.9724 467 467 466.978 466.8677 466.7363 466.6278 466.5662 466.5452 466.5405 466.5723 466.6653 466.8014 466.887 466.9977 467.0004 467.0001 467.0002 466.9995 466.9544 466.9996 467.0807 467.2373 467.4213 467.5917 467.7051 467.789 467.8612 467.9221 467.9641 467.9849 467.982 467.9632 467.9181 467.8894 467.9953 468.3434 468.9708 469.3711 469.6462 469.8502 470.0019 470.147 470.3056 470.58 470.9948 471.4855 472.1034 472.8248 473.6452 474.5699 476.0598 476.7196 476.5778 475.4647 474.019 472.5312 471.6193 471.0322 470.764 470.5195 470.4161 470.4561 470.4912 470.0841 469.7257 469.4752 469.3205 469.198 469.124 469.1097 469.151 469.2406 469.3639 469.4888 469.5797 469.6178 469.6041 469.5466 469.4633 469.3726 469.2788 469.1877 469.1216 469.0829 469.0361 469.1392 469.1498 469.1756 469.2661 469.4255 469.6356 469.8599 469.9984 469.9861 469.9898 470.3088 471.2147 472.9446 475.3765 478.0961 480.9407 483.7215 486.2905 -9999 -9999 -9999 -9999 -9999 -9999 -9999 -9999 -9999 -9999 -9999 -9999 -9999 -9999 -9999 -9999 -9999 -9999 -9999 -9999 -9999 -9999 -9999
-9999 -9999 -9999 -9999 -9999 -9999 -9999 -9999 -9999 -9999 -9999 -9999 -9999 -9999 -9999 -9999 -9999 -9999 -9999 -9999 -9999 -9999 -9999 -9999 -9999 -9999 -9999 -9999 -9999 -9999 -9999 -9999 -9999 -9999 -9999 -9999 -9999 -9999 -9999 485.6659 484.7814 483.6749 483.0402 480.2591 476.2321 472.4721 469.9749 468.7198 468.1914 468.0409 468.0264 468 467.9632 467.9035 467.8309 467.7549 467.6832 467.6178 467.5526 467.474 467.3665 467.2153 467.0088 466.8148 466.5163 466.2272 465.9749 465.6442 465.3621 465.1458 465.0006 464.9208 464.8527 464.7993 464.759 464.7295 464.7086 464.6964 464.6959 464.7109 464.7514 464.8175 464.8946 464.9988 465.0701 465.1756 465.3424 465.5527 465.7794 465.9998 466.2028 466.3991 466.5882 466.7557 466.8832 466.9606 466.9966 467 466.9777 466.9077 466.8164 466.7338 466.6735 466.6243 466.5991 466.6142 466.6756 466.764 466.8394 466.9094 466.9246 466.929 466.9395 466.9561 466.9545 466.9654 467.0006 467.1321 467.2993 467.4699 467.6173 467.7405 467.841 467.9164 467.9638 467.9857 467.9816 467.9533 467.9151 467.9024 468.008 468.4026 468.9459 469.2675 469.5359 469.7804 469.9958 470.1278 470.2372 470.5119 470.9364 471.312 471.8297 472.4536 473.2063 474.1383 475.3178 476.3267 476.8419 475.8112 474.2956 472.7892 471.7083 470.9848 470.6108 470.3546 470.1623 470.0261 469.9958 469.7604 469.5386 469.3899 469.2922 469.2 469.1088 469.0474 469.0327 469.0733 469.1718 469.3089 469.4462 469.5452 469.5878 469.5727 469.5066 469.4083 469.2946 469.1784 469.077 468.9998 468.9437 468.9992 468.9771 468.9918 469.0857 469.2585 469.4833 469.7164 469.9 469.9989 469.9926 470.2495 471.0505 472.5961 474.8023 477.3384 480.0409 482.7518 485.2947 -9999 -9999 -9999 -9999 -9999 -9999 -9999 -9999 -9999 -9999 -9999 -9999 -9999 -9999 -9999 -9999 -9999 -9999 -9999 -9999 -9999 -9999 -9999
-9999 -9999 -9999 -9999 -9999 -9999 -9999 -9999 -9999 -9999 -9999 -9999 -9999 -9999 -9999 -9999 -9999 -9999 -9999 -9999 -9999 -9999 -9999 -9999 -9999 -9999 -9999 -9999 -9999 -9999 -9999 -9999 -9999 -9999 -9999 -9999 -9999 -9999 -9999 485.1767 484.4914 484.1896 483.5962 480.8762 476.8033 472.7878 470.0045 468.6086 468.0475 467.9435 467.9999 467.9843 467.9499 467.9001 467.8396 467.7747 467.7107 467.6487 467.5839 467.5066 467.4065 467.2797 467.1337 466.9861 466.6628 466.3216 466.004 465.7437 465.4916 465.2689 465.102 464.9989 464.8986 464.8232 464.7637 464.7158 464.6792 464.6554 464.6469 464.658 464.6944 464.7558 464.8342 464.9239 464.9997 465.0934 465.274 465.5085 465.7617 465.9998 466.1989 466.3867 466.5702 466.7374 466.8708 466.9583 467 467 466.9877 466.9523 466.9057 466.867 466.8388 466.7785 466.7385 466.7349 466.7651 466.8127 466.8544 466.8923 466.9109 466.9191 466.9356 466.9695 466.9999 467 467.0225 467.1133 467.2501 467.4102 467.5706 467.7175 467.8401 467.9282 467.977 468 468 467.9719 467.9452 467.9345 468.0052 468.3185 468.7084 469.0075 469.3035 469.585 469.8265 469.988 470.0153 470.2612 470.6331 471.063 471.6496 472.2982 473.0615 473.9886 475.0043 475.6509 476.0923 475.3049 473.9928 472.6189 471.3961 470.7372 470.3837 470.1739 469.9959 469.826 469.7286 469.5912 469.4794 469.4292 469.41 469.3688 469.2829 469.1918 469.1143 469.0745 469.0994 469.1856 469.3125 469.4362 469.5217 469.5547 469.5332 469.4662 469.3703 469.2623 469.1572 469.0671 469.0008 469.0004 468.9757 468.9758 469.0461 469.194 469.3908 469.5966 469.7737 469.8988 469.9978 470.3039 471.1258 472.671 474.6319 477.0697 479.7231 482.407 484.8567 -9999 -9999 -9999 -9999 -9999 -9999 -9999 -9999 -9999 -9999 -9999 -9999 -9999 -9999 -9999 -9999 -9999 -9999 -9999 -9999 -9999 -9999 -9999
-9999 -9999 -9999 -9999 -9999 -9999 -9999 -9999 -9999 -9999 -9999 -9999 -9999 -9999 -9999 -9999 -9999 -9999 -9999 -9999 -9999 -9999 -9999 -9999 -9999 -9999 -9999 -9999 -9999 -9999 -9999 -9999 -9999 -9999 -9999 -9999 -9999 -9999 -9999 -9999 485.1406 484.7899 483.8135 481.1684 477.2034 473.1483 470.2426 468.7075 468.0652 467.9476 468 467.9836 467.9488 467.9055 467.8556 467.8015 467.7458 467.6876 467.623 467.5452 467.4466 467.325 467.181 467.0002 466.707 466.3625 466.0198 465.834 465.5973 465.356 465.1509 465.0003 464.9124 464.839 464.77 464.7079 464.658 464.6245 464.6103 464.6176 464.6483 464.7013 464.7702 464.8457 464.9164 465.0031 465.2094 465.467 465.7451 466.0003 466.18 466.3571 466.5421 466.7187 466.8644 466.9602 467 467 466.9957 466.9851 466.9726 466.9741 466.9984 466.9292 466.8888 466.8777 466.8867 466.9033 466.906 466.9203 466.9413 466.9458 466.9576 466.9999 467.0342 467.0502 467.0785 467.1484 467.2604 467.4045 467.5645 467.7222 467.8597 467.9583 468 468.0188 468.0167 468 467.9999 467.9999 468.0413 468.2171 468.4576 468.7012 468.9966 469.3009 469.5469 469.7035 469.7922 470.002 470.3757 470.9745 471.5891 472.2368 472.9725 473.7999 474.6091 475.005 474.409 473.7041 473.0209 472.077 471.1157 470.5081 470.164 469.9963 469.8399 469.7003 469.6065 469.534 469.5086 469.547 469.6176 469.6582 469.6112 469.5355 469.4099 469.278 469.2101 469.206 469.2721 469.3723 469.4682 469.5335 469.5579 469.5382 469.4828 469.4064 469.3247 469.2526 469.202 469.183 469.165 469.1458 469.1738 469.2686 469.4048 469.555 469.7092 469.8488 469.9978 470.3714 471.2805 472.9888 474.881 477.2916 479.9214 482.5442 484.8533 -9999 -9999 -9999 -9999 -9999 -9999 -9999 -9999 -9999 -9999 -9999 -9999 -9999 -9999 -9999 -9999 -9999 -9999 -9999 -9999 -9999 -9999 -9999
-9999 -9999 -9999 -9999 -9999 -9999 -9999 -9999 -9999 -9999 -9999 -9999 -9999 -9999 -9999 -9999 -9999 -9999 -9999 -9999 -9999 -9999 -9999 -9999 -9999 -9999 -9999 -9999 -9999 -9999 -9999 -9999 -9999 -9999 -9999 -9999 -9999 -9999 -9999 -9999 485.7681 484.8729 483.348 481.0825 477.4211 473.4731 470.575 468.9142 468.1663 467.9989 467.9973 467.9837 467.9538 467.9182 467.8784 467.8349 467.7876 467.7339 467.6691 467.5872 467.4822 467.3511 467.1928 466.9996 466.7462 466.4538 466.1772 465.9869 465.6969 465.4182 465.1819 465.0021 464.937 464.8612 464.7798 464.7041 464.6425 464.6013 464.5833 464.5887 464.6163 464.6635 464.7266 464.8011 464.8871 465.0002 465.174 465.4219 465.7117 465.9904 466.1267 466.3019 466.5002 466.6962 466.8627 466.9711 467 467 466.9964 467 467 467.0001 467.0256 467.0002 466.9998 466.9998 466.9999 466.9996 466.9623 466.9626 466.9998 467 467.0004 467.0513 467.0958 467.1259 467.1605 467.2205 467.3142 467.4407 467.5902 467.7462 467.8897 467.9996 468.0324 468.0409 468.0363 468.0266 468.0244 468.0228 468.037 468.1025 468.2099 468.3566 468.6376 468.9826 469.2531 469.4282 469.5732 469.7792 470.13 470.9005 471.5099 472.1044 472.7773 473.5059 474.1371 474.4139 473.8203 473.1061 472.4581 471.7198 470.9958 470.4136 470.0089 469.8609 469.7476 469.6418 469.5721 469.5474 469.5862 469.6961 469.8447 469.9841 470.0318 470.061 469.9022 469.6628 469.51 469.3979 469.3838 469.4206 469.4892 469.5588 469.6087 469.6295 469.6172 469.5803 469.5337 469.4949 469.4792 469.4848 469.5189 469.4973 469.4893 469.5238 469.5692 469.6247 469.7413 469.8857 470.0014 470.3728 471.2759 472.9707 475.0709 477.602 480.2187 482.7147 484.8189 -9999 -9999 -9999 -9999 -9999 -9999 -9999 -9999 -9999 -9999 -9999 -9999 -9999 -9999 -9999 -9999 -9999 -9999 -9999 -9999 -9999 -9999 -9999
-9999 -9999 -9999 -9999 -9999 -9999 -9999 -9999 -9999 -9999 -9999 -9999 -9999 -9999 -9999 -9999 -9999 -9999 -9999 -9999 -9999 -9999 -9999 -9999 -9999 -9999 -9999 -9999 -9999 -9999 -9999 -9999 -9999 -9999 -9999 -9999 -9999 -9999 -9999 -9999 485.3055 483.9935 482.5464 480.9325 477.6188 473.7363 470.7646 469.019 468.2147 467.9909 468 467.9932 467.9678 467.9396 467.9083 467.8743 467.8349 467.7865 467.7221 467.6353 467.5207 467.375 467.1987 466.9989 466.7895 466.5304 466.2577 466.0021 465.7153 465.4389 465.2164 465.068 464.9994 464.8912 464.7875 464.6994 464.6307 464.5854 464.5661 464.572 464.5996 464.645 464.7051 464.7794 464.8737 464.9979 465.1138 465.3393 465.6114 465.8564 466.0066 466.2233 466.4475 466.6677 466.8627 466.9997 467.0265 467.0152 467 467.0122 467.0249 467.0372 467.0574 467.0599 467.0681 467.0719 467.0663 467.0455 467.0003 467.0005 467.0517 467.0826 467.1078 467.1538 467.1979 467.2324 467.2678 467.3196 467.3978 467.505 467.6359 467.7761 467.9053 468 468.039 468.0489 468.0455 468.0386 468.035 468.0314 468.0185 468 467.9983 468.0179 468.2701 468.6345 468.9776 469.2012 469.4356 469.7014 470.0646 470.816 471.3387 471.8897 472.5037 473.1323 473.6252 473.8816 473.4461 472.7835 472.1387 471.5242 470.973 470.4291 470.0146 469.8687 469.7637 469.662 469.5966 469.5975 469.6819 469.8358 469.995 470.1253 470.5126 470.8018 470.5714 470.192 469.9628 469.7181 469.6392 469.5914 469.6089 469.6576 469.7079 469.745 469.7613 469.7561 469.7399 469.7337 469.762 469.8024 469.9546 469.9786 469.9987 470.0183 469.9444 469.8211 469.8563 469.9971 470.0169 470.3346 471.2125 472.9122 475.2332 477.8866 480.4405 482.7188 484.5914 -9999 -9999 -9999 -9999 -9999 -9999 -9999 -9999 -9999 -9999 -9999 -9999 -9999 -9999 -9999 -9999 -9999 -9999 -9999 -9999 -9999 -9999 -9999
-9999 -9999 -9999 -9999 -9999 -9999 -9999 -9999 -9999 -9999 -9999 -9999 -9999 -9999 -9999 -9999 -9999 -9999 -9999 -9999 -9999 -9999 -9999 -9999 -9999 -9999 -9999 -9999 -9999 -9999 -9999 -9999 -9999 -9999 -9999 -9999 -9999 -9999 -9999 -9999 484.9959 484.2906 483.061 481.2326 477.8746 473.9342 470.8774 469.0725 468.2472 467.9843 467.9699 468 467.9863 467.969 467.9438 467.9183 467.886 467.8436 467.782 467.6932 467.5725 467.4171 467.2259 467.0079 466.856 466.5962 466.2973 466.0023 465.6932 465.4086 465.2007 465.073 464.9991 464.8811 464.7728 464.6855 464.6202 464.5781 464.5614 464.5699 464.5996 464.6452 464.7015 464.7654 464.8367 464.9164 465.0049 465.2449 465.5238 465.7866 465.9996 466.1861 466.3987 466.6263 466.8389 466.9991 467.034 467.0295 467.0249 467.0382 467.0568 467.0757 467.0956 467.1093 467.1223 467.1314 467.1328 467.1237 467.1085 467.1213 467.1656 467.2081 467.2466 467.2895 467.3296 467.3625 467.3941 467.4364 467.4989 467.5855 467.6933 467.8109 467.9201 468 468.0333 468.0432 468.0412 468.0342 468.0292 468.0292 467.9997 467.9247 467.8699 467.8698 468.019 468.3476 468.6986 469.021 469.3981 469.7561 470.0464 470.5788 471.0208 471.5481 472.191 472.7558 473.1985 473.4018 473.1262 472.5336 471.8957 471.3326 470.9476 470.4814 470.1478 469.9978 469.8724 469.7482 469.6726 469.6819 469.8101 470.0002 470.0764 470.0876 470.8202 471.2719 471.31 470.9572 470.4865 470.0664 469.9714 469.8237 469.7977 469.8185 469.8494 469.8781 469.8982 469.9062 469.9052 469.9149 469.9913 470.0137 470.2384 470.4788 470.727 470.881 470.662 470.1983 469.9987 469.9324 469.9318 470.2252 471.0599 472.6902 475.1705 477.8892 480.3829 482.482 484.189 485.3601 486.0623 486.5897 -9999 -9999 -9999 -9999 -9999 -9999 -9999 -9999 -9999 -9999 -9999 -9999 -9999 -9999 -9999 -9999 -9999 -9999 -9999 -9999
-9999 -9999 -9999 -9999 -9999 -9999 -9999 -9999 -9999 -9999 -9999 -9999 -9999 -9999 -9999 -9999 -9999 -9999 -9999 -9999 -9999 -9999 -9999 -9999 -9999 -9999 -9999 -9999 -9999 -9999 -9999 -9999 -9999 -9999 -9999 -9999 -9999 -9999 -9999 -9999 484.8977 484.7918 483.6344 481.4756 478.0339 474.0305 470.9381 469.1355 468.3436 468.0522 467.9888 467.9967 468 468 467.9781 467.9624 467.9361 467.9019 467.8464 467.7607 467.6428 467.4946 467.3242 467.1483 466.9868 466.6496 466.3004 465.9991 465.6391 465.3193 465.1194 464.9997 464.9138 464.82 464.7337 464.664 464.6136 464.5826 464.5728 464.586 464.6193 464.6669 464.7219 464.7775 464.8322 464.8978 464.9992 465.207 465.4702 465.7423 465.9917 466.1287 466.3318 466.5628 466.7766 466.9334 467 467.0206 467.0396 467.0653 467.0922 467.1164 467.1382 467.1572 467.176 467.1946 467.2121 467.2275 467.244 467.2745 467.3196 467.3654 467.4063 467.4436 467.4765 467.5039 467.5292 467.5609 467.6073 467.6728 467.7557 467.848 467.9353 468 468.0193 468.0283 468.0273 468.0159 468 467.9998 467.9388 467.8567 467.8049 467.8325 467.991 468.1928 468.529 468.9906 469.4576 469.9538 470.2084 470.5068 470.7956 471.1564 471.8385 472.3538 472.7507 472.9369 472.7981 472.2946 471.6641 471.0734 470.7671 470.4639 470.2272 470.0944 469.9977 469.869 469.7996 469.8275 470.0499 470.369 470.4316 470.2724 470.9864 471.606 471.923 471.5888 470.9683 470.4629 470.1992 470.0081 469.9972 469.9991 469.9997 469.9998 469.9998 469.9999 469.9998 470.0001 470.1165 470.3297 470.7422 471.2858 471.8552 472.2308 471.9628 471.0785 470.3931 470.0078 469.8845 470.0927 470.8023 472.2343 474.6276 477.3206 479.7394 481.718 483.3455 484.6215 485.5283 486.2842 487.149 -9999 -9999 -9999 -9999 -9999 -9999 -9999 -9999 -9999 -9999 -9999 -9999 -9999 -9999 -9999 -9999 -9999 -9999 -9999
-9999 -9999 -9999 -9999 -9999 -9999 -9999 -9999 -9999 -9999 -9999 -9999 -9999 -9999 -9999 -9999 -9999 -9999 -9999 -9999 -9999 -9999 -9999 -9999 -9999 -9999 -9999 -9999 -9999 -9999 -9999 -9999 -9999 -9999 -9999 -9999 -9999 -9999 -9999 -9999 484.5938 484.9008 483.8924 481.6085 477.9911 473.9749 470.9516 469.2574 468.5631 468.2303 468.091 468.0436 468.026 468.0161 468 468 467.9772 467.9558 467.9094 467.8294 467.717 467.5759 467.4112 467.2252 466.9958 466.6122 466.218 465.9656 465.5449 465.1733 464.9985 464.8904 464.8149 464.75 464.6946 464.6508 464.6204 464.6044 464.6038 464.6227 464.6608 464.7123 464.7704 464.8238 464.8666 464.9219 465.0018 465.1926 465.4261 465.663 465.8673 466.007 466.2495 466.4984 466.716 466.8735 466.9583 467.0001 467.0465 467.0906 467.1285 467.1589 467.1841 467.2078 467.2342 467.2653 467.3023 467.3442 467.3898 467.4402 467.4924 467.5388 467.5756 467.6044 467.627 467.6458 467.6631 467.6839 467.7147 467.7594 467.8178 467.884 467.9474 467.9916 468 468.0134 468.0155 468 467.9677 467.9301 467.8627 467.7888 467.7443 467.7607 467.8549 468.0028 468.318 468.8917 469.3821 469.9764 470.3019 470.5239 470.7197 470.9914 471.4218 471.8706 472.2516 472.4645 472.4037 472.0506 471.5216 471.0114 470.7006 470.4531 470.271 470.1574 470.0759 470.0008 469.997 470.0787 470.5227 470.9131 470.9244 470.9367 471.3099 471.752 472.0013 471.8985 471.1987 470.7224 470.4202 470.2341 470.1738 470.1432 470.1091 470.0663 470.0196 469.9835 469.9903 470.0917 470.3841 470.9089 471.7068 472.7758 473.7583 474.1781 473.4725 472.1169 470.9337 470.2319 469.9402 470.0103 470.5262 471.6722 473.688 476.1001 478.336 480.2397 481.8758 483.3492 484.7012 486.0081 487.2502 488.1675 -9999 -9999 -9999 -9999 -9999 -9999 -9999 -9999 -9999 -9999 -9999 -9999 -9999 -9999 -9999 -9999 -9999 -9999
-9999 -9999 -9999 -9999 -9999 -9999 -9999 -9999 -9999 -9999 -9999 -9999 -9999 -9999 -9999 -9999 -9999 -9999 -9999 -9999 -9999 -9999 -9999 -9999 -9999 -9999 -9999 -9999 -9999 -9999 -9999 -9999 -9999 -9999 -9999 -9999 -9999 -9999 -9999 -9999 484.1236 484.4269 483.6054 481.214 477.578 473.7086 470.8972 469.4482 468.8881 468.4746 468.2465 468.1335 468.0782 468.0487 468.0288 468.0181 468 468 467.9638 467.8897 467.7837 467.6469 467.4764 467.2648 466.9868 466.563 466.0665 465.8309 465.4355 465.0255 464.8997 464.8178 464.7533 464.7103 464.6835 464.6656 464.6546 464.6506 464.6555 464.6786 464.722 464.7783 464.8444 464.9028 464.934 464.9995 465.0774 465.2262 465.4165 465.619 465.813 465.999 466.2295 466.4729 466.6891 466.8477 466.9409 466.9999 467.06 467.1176 467.1654 467.202 467.2316 467.2609 467.2961 467.3411 467.3974 467.4634 467.5342 467.6042 467.667 467.7145 467.7423 467.7596 467.771 467.7798 467.7887 467.7996 467.8163 467.842 467.8774 467.9198 467.9638 468 468.0061 468.0143 468.0164 468 467.9403 467.8746 467.8048 467.7424 467.707 467.7178 467.7789 467.8757 468.0664 468.6285 469.168 469.9317 470.3391 470.5516 470.6761 470.816 471.0322 471.3896 471.7537 472.0048 472.0403 471.8065 471.4154 471.0061 470.6938 470.4599 470.3025 470.2137 470.1692 470.1718 470.2681 470.5012 470.9421 471.1488 471.1891 471.2591 471.5016 471.8048 472.0001 471.943 471.4543 470.9362 470.6198 470.4364 470.3483 470.2867 470.2205 470.1408 470.0567 470.0056 470.0624 470.3332 470.935 471.9372 473.3438 474.9333 476.1714 476.4604 475.2618 473.3076 471.5693 470.5958 470.1331 470.0354 470.3084 471.0818 472.475 474.3909 476.3117 478.1071 479.7856 481.4257 483.1218 484.8615 486.4908 487.7736 489.0915 -9999 -9999 -9999 -9999 -9999 -9999 -9999 -9999 -9999 -9999 -9999 -9999 -9999 -9999 -9999 -9999 -9999
-9999 -9999 -9999 -9999 -9999 -9999 -9999 -9999 -9999 -9999 -9999 -9999 -9999 -9999 -9999 -9999 -9999 -9999 -9999 -9999 -9999 -9999 -9999 -9999 -9999 -9999 -9999 -9999 -9999 -9999 -9999 -9999 -9999 -9999 -9999 -9999 -9999 -9999 -9999 -9999 483.7065 483.7356 482.7097 480.308 476.8416 473.2442 470.7083 469.465 468.9762 468.6203 468.3839 468.2371 468.1496 468.0983 468.0669 468.0472 468.0316 468.0244 467.9999 467.9338 467.8397 467.7131 467.5406 467.3123 467.0174 466.7041 466.2739 465.9607 465.5501 465.1883 464.9984 464.8636 464.7696 464.7308 464.7224 464.7245 464.7279 464.7296 464.7274 464.7492 464.7971 464.8531 464.9293 464.9991 465.0007 465.0677 465.1551 465.2801 465.436 465.6105 465.7965 465.9997 466.2334 466.4795 466.7011 466.8627 466.9492 467.0003 467.0774 467.1461 467.2009 467.2427 467.2774 467.3133 467.3586 467.4175 467.491 467.5762 467.6661 467.7521 467.826 467.8764 467.8915 467.8965 467.8985 467.8998 467.9017 467.905 467.9109 467.921 467.9359 467.9552 467.9774 468 468.0104 468.0201 468.0211 467.9998 467.9207 467.8486 467.7888 467.7444 467.726 467.7535 467.848 467.9962 468.2389 468.7255 469.2758 469.9813 470.3709 470.5628 470.6445 470.7059 470.8165 471.0208 471.3284 471.5858 471.6804 471.5752 471.2724 470.9852 470.6741 470.4439 470.3097 470.2518 470.2463 470.3006 470.4415 470.6815 470.9943 471.1359 471.2412 471.3749 471.5912 471.83 471.9996 471.9814 471.5311 471.0331 470.7791 470.6151 470.5254 470.4441 470.3615 470.2689 470.1752 470.1388 470.2863 470.7882 471.8236 473.5185 475.4773 477.3723 478.7395 478.8866 477.268 474.7379 472.4367 471.1486 470.4909 470.2014 470.2 470.5527 471.3365 472.5216 474.0187 475.6629 477.354 478.9734 480.8571 482.9101 484.9421 486.7623 488.4639 490.1478 -9999 -9999 -9999 -9999 -9999 -9999 -9999 -9999 -9999 -9999 -9999 -9999 -9999 -9999 -9999 -9999
-9999 -9999 -9999 -9999 -9999 -9999 -9999 -9999 -9999 -9999 -9999 -9999 -9999 -9999 -9999 -9999 -9999 -9999 -9999 -9999 -9999 -9999 -9999 -9999 -9999 -9999 -9999 -9999 -9999 -9999 -9999 -9999 -9999 -9999 -9999 -9999 -9999 -9999 -9999 -9999 483.0724 482.7171 481.451 479.0958 475.8965 472.6689 470.4484 469.3906 468.9873 468.7197 468.5081 468.347 468.2349 468.1624 468.1163 468.0853 468.0604 468.0364 468.0001 467.9597 467.8892 467.7888 467.6312 467.4239 467.19 466.9467 466.4726 466.0401 465.7211 465.42 465.1864 464.9985 464.8577 464.8235 464.8252 464.8353 464.845 464.8461 464.816 464.8284 464.8848 464.9238 464.9998 465.0638 465.0973 465.1588 465.2408 465.3463 465.4747 465.6243 465.7969 466.0002 466.2434 466.5032 466.7435 466.9213 467.0002 467.0542 467.1171 467.1787 467.2321 467.2765 467.3164 467.3601 467.4162 467.4888 467.5768 467.6754 467.7757 467.8682 467.9468 467.9995 468 468 468 468 468 468 468 468 468 468 468 468.0001 468.0259 468.0419 468.0371 468 467.9227 467.8741 467.8411 467.82 467.8167 467.8554 467.9967 468.1852 468.4942 469.0191 469.7323 470.1287 470.3661 470.5101 470.5663 470.5974 470.6763 470.8159 471.0146 471.2444 471.326 471.2692 471.0159 470.7922 470.5639 470.3859 470.2878 470.261 470.2841 470.3611 470.4997 470.6849 470.8817 471.0062 471.2078 471.4381 471.7116 471.9641 472.1039 472.0002 471.6287 471.2184 470.9848 470.8036 470.7252 470.6212 470.5409 470.4675 470.3955 470.3936 470.6497 471.416 472.9677 475.2071 477.5328 479.5976 481.0136 481.0291 479.1711 476.2282 473.4431 471.819 470.9832 470.5142 470.2546 470.2219 470.4849 471.0975 472.0772 473.5285 475.2221 476.4716 478.2977 480.5861 482.9916 485.2567 487.3367 489.2243 -9999 -9999 -9999 -9999 -9999 -9999 -9999 -9999 -9999 -9999 -9999 -9999 -9999 -9999 -9999 -9999
-9999 -9999 -9999 -9999 -9999 -9999 -9999 -9999 -9999 -9999 -9999 -9999 -9999 -9999 -9999 -9999 -9999 -9999 -9999 -9999 -9999 -9999 -9999 -9999 -9999 -9999 -9999 -9999 -9999 -9999 -9999 -9999 -9999 -9999 -9999 -9999 -9999 -9999 -9999 -9999 482.4642 481.6348 480.1189 477.8415 474.9638 472.1381 470.2278 469.3268 468.9984 468.8348 468.6417 468.4661 468.3322 468.2404 468.1795 468.1368 468.1017 468.0687 468.0342 467.9999 467.9432 467.8811 467.7331 467.5215 467.2759 466.9932 466.6196 466.2682 465.9901 465.7057 465.4403 465.201 465.0131 464.9983 464.9996 465.0002 465.0007 464.9969 464.9097 464.9114 464.9976 465.0021 465.0791 465.1483 465.2005 465.2607 465.3334 465.421 465.5256 465.6512 465.806 466.0006 466.249 466.5228 466.788 466.9982 467.0661 467.1043 467.1501 467.2015 467.2514 467.2975 467.3432 467.3957 467.463 467.5487 467.6496 467.7567 467.8573 467.9391 467.9999 468.0221 468.0392 468.0558 468.0689 468.0779 468.0834 468.0862 468.0864 468.0839 468.0794 468.0741 468.0708 468.0744 468.0953 468.1122 468.1091 468.0726 468.0043 468.0016 468.002 468.0014 467.9995 468.0087 468.1552 468.3499 468.6212 469.0075 469.494 469.8737 470.0938 470.2861 470.35 470.3905 470.5074 470.654 470.8319 470.9947 471.0128 470.9899 470.7888 470.5712 470.394 470.2741 470.2283 470.2394 470.2864 470.3718 470.4971 470.644 470.8103 470.9978 471.2519 471.5979 472.0446 472.5275 472.9622 472.5033 471.9761 471.4959 471.1809 471.0107 470.979 470.8186 470.7532 470.7247 470.6935 470.7181 471.0674 472.0989 473.9895 476.4754 478.93 481.0039 482.3994 482.3268 480.527 477.4588 474.3788 472.4265 471.5191 470.9221 470.4662 470.1516 470.022 470.2214 470.8103 471.8328 473.288 474.5966 476.0916 478.541 481.2649 483.8792 486.2752 488.3533 -9999 -9999 -9999 -9999 -9999 -9999 -9999 -9999 -9999 -9999 -9999 -9999 -9999 -9999 -9999 -9999
-9999 -9999 -9999 -9999 -9999 -9999 -9999 -9999 -9999 -9999 -9999 -9999 -9999 -9999 -9999 -9999 -9999 -9999 -9999 -9999 -9999 -9999 -9999 -9999 -9999 -9999 -9999 -9999 -9999 -9999 -9999 -9999 -9999 -9999 -9999 -9999 -9999 -9999 -9999 -9999 482.0347 480.7166 479.006 476.8613 474.3113 471.8288 470.1512 469.3607 469.0735 468.9911 468.7771 468.5844 468.4366 468.3317 468.2592 468.2064 468.1622 468.1218 468.084 468.0453 468.0009 467.9976 467.8527 467.6273 467.3614 467.0269 466.7598 466.4919 466.2367 465.9912 465.7335 465.4987 465.3358 465.2676 465.2381 465.2183 465.1887 465.1267 465.0078 465.0067 465.113 465.1678 465.2248 465.2758 465.3221 465.3738 465.4338 465.5037 465.5859 465.6873 465.821 466.0006 466.2407 466.5121 466.7802 466.9977 467.0686 467.107 467.1517 467.2026 467.2534 467.3031 467.3552 467.4166 467.4944 467.5919 467.7047 467.8197 467.9159 467.9714 467.9929 468.0001 468.0463 468.0881 468.1197 468.1419 468.157 468.1669 468.1722 468.1734 468.1715 468.1691 468.1708 468.1823 468.2073 468.2365 468.2595 468.2705 468.2755 468.3055 468.3206 468.3234 468.3165 468.3126 468.3886 468.5133 468.6711 468.8516 469.0188 469.1768 469.5204 469.8304 469.905 469.9691 470.2114 470.4052 470.6084 470.7407 470.7531 470.6941 470.5195 470.3111 470.1984 470.1391 470.1472 470.1927 470.2604 470.3528 470.4696 470.5963 470.7574 470.9973 471.3481 471.8638 472.6234 473.6806 474.3719 473.7127 472.7314 472.0319 471.6071 471.4135 471.3088 471.0555 470.9967 470.9944 470.991 470.9984 471.3628 472.3945 474.3384 476.8098 479.1815 481.0789 482.3427 482.6753 481.1299 478.1781 474.9973 472.7377 471.9138 471.2406 470.7056 470.2853 469.9536 469.9509 470.3332 471.1436 472.4603 473.888 475.2187 477.6782 480.5128 483.3185 485.915 488.1591 -9999 -9999 -9999 -9999 -9999 -9999 -9999 -9999 -9999 -9999 -9999 -9999 -9999 -9999 -9999 -9999
-9999 -9999 -9999 -9999 -9999 -9999 -9999 -9999 -9999 -9999 -9999 -9999 -9999 -9999 -9999 -9999 -9999 -9999 -9999 -9999 -9999 -9999 -9999 -9999 -9999 -9999 -9999 -9999 -9999 -9999 -9999 -9999 -9999 -9999 -9999 -9999 -9999 -9999 -9999 -9999 482.0191 480.3554 478.5175 476.4579 474.144 471.8792 470.2995 469.5234 469.1517 468.9987 468.8375 468.678 468.5418 468.4367 468.3585 468.2984 468.2475 468.2034 468.1682 468.14 468.1179 468.0989 467.996 467.7945 467.5915 467.2876 467.0012 466.7328 466.4497 466.2017 465.9918 465.789 465.6758 465.5688 465.5124 465.4822 465.4476 465.3908 465.3195 465.3155 465.3734 465.413 465.4266 465.4401 465.464 465.4997 465.5449 465.5972 465.6573 465.732 465.8411 466.0002 466.2183 466.4687 466.7128 466.9049 467.0002 467.0589 467.1204 467.1821 467.2404 467.2962 467.3549 467.4236 467.509 467.6147 467.7376 467.8641 467.9658 468 468 468.0248 468.0743 468.1256 468.1687 468.2015 468.2257 468.2439 468.2571 468.2655 468.2702 468.2746 468.284 468.3047 468.3406 468.3899 468.4495 468.5182 468.5961 468.6719 468.692 468.6934 468.6805 468.636 468.6435 468.6907 468.7456 468.7861 468.807 468.8455 468.9781 469.067 469.0987 469.2414 469.7358 469.9724 470.27 470.4125 470.4254 470.369 470.2359 470.0197 469.9982 470.0008 470.0681 470.141 470.2244 470.3242 470.441 470.5594 470.7184 470.9965 471.4673 472.1268 473.0967 474.809 475.7948 475.2048 474.0003 472.9517 472.3837 472.1582 472.0221 471.6083 471.309 471.1506 471.0785 471.0982 471.4251 472.3116 474.0159 476.2389 478.4459 480.2266 481.4351 481.86 480.8068 478.2803 475.308 472.8935 471.5413 470.9437 470.6237 470.3901 470.2547 470.3575 470.7595 471.5271 472.786 474.2668 475.9724 478.4518 481.2155 483.9317 486.4628 488.6848 -9999 -9999 -9999 -9999 -9999 -9999 -9999 -9999 -9999 -9999 -9999 -9999 -9999 -9999 -9999 -9999
-9999 -9999 -9999 -9999 -9999 -9999 -9999 -9999 -9999 -9999 -9999 -9999 -9999 -9999 -9999 -9999 -9999 -9999 -9999 -9999 -9999 -9999 -9999 -9999 -9999 -9999 -9999 -9999 -9999 -9999 -9999 -9999 -9999 -9999 -9999 -9999 -9999 -9999 -9999 -9999 482.5372 480.7079 478.7531 476.6987 474.4845 472.2914 470.7188 469.8225 469.2602 469.0027 468.8981 468.7759 468.6582 468.5593 468.4795 468.4149 468.36 468.3172 468.2931 468.2847 468.2887 468.27 468.1936 468.0487 467.954 467.629 467.28 466.9639 466.6141 466.3421 466.1479 466.0066 465.9819 465.8341 465.7762 465.757 465.74 465.7122 465.6817 465.6785 465.7001 465.7065 465.6542 465.623 465.6213 465.6401 465.6708 465.707 465.7449 465.7864 465.8668 465.9993 466.1931 466.4197 466.6393 466.8166 466.9297 467.0006 467.0785 467.1517 467.2202 467.2843 467.349 467.4219 467.5092 467.6152 467.7409 467.8778 467.9994 468.0213 468.0342 468.0676 468.1187 468.1736 468.2228 468.2624 468.2933 468.3184 468.3394 468.3559 468.3685 468.3803 468.3973 468.4259 468.472 468.5383 468.6262 468.7373 468.8689 468.9918 468.9999 468.9995 468.9918 468.8927 468.8631 468.8646 468.8517 468.8139 468.7479 468.6848 468.6585 468.6323 468.6323 468.745 469.0274 469.2643 469.7604 469.9103 469.9233 469.9261 469.9457 469.8306 469.8293 469.8898 469.9987 470.081 470.1817 470.2962 470.4265 470.5556 470.7173 471.0152 471.6503 472.4361 473.4707 475.4173 476.5728 476.5282 475.5615 474.445 473.6195 473.2705 473.0562 472.2892 471.712 471.3854 471.2267 471.1899 471.3922 472.0263 473.2707 475.0736 477.1187 478.8591 480.0296 480.4212 479.7035 477.7769 475.3122 473.0867 471.6768 471.0167 470.9213 470.9936 471.2274 471.6466 472.2584 473.1608 474.3455 475.8788 477.8884 480.3278 482.8703 485.2204 487.3037 -9999 -9999 -9999 -9999 -9999 -9999 -9999 -9999 -9999 -9999 -9999 -9999 -9999 -9999 -9999 -9999 -9999
-9999 -9999 -9999 -9999 -9999 -9999 -9999 -9999 -9999 -9999 -9999 -9999 -9999 -9999 -9999 -9999 -9999 -9999 -9999 -9999 -9999 -9999 -9999 -9999 -9999 -9999 -9999 -9999 -9999 -9999 -9999 -9999 -9999 -9999 -9999 -9999 -9999 -9999 -9999 -9999 482.987 481.2695 479.4211 477.4836 475.3282 473.0456 471.2003 469.9966 469.3266 469.054 468.9981 468.8876 468.7859 468.6972 468.6199 468.5539 468.4987 468.4644 468.4653 468.4933 468.5619 468.5879 468.594 468.5833 468.407 468.0099 467.5425 467.0621 466.7278 466.4684 466.3121 466.2232 466.1606 466.0124 465.9974 465.998 465.9982 465.9978 465.9969 465.9973 465.9993 465.9899 465.8614 465.806 465.7935 465.8013 465.8188 465.8398 465.8567 465.8536 465.9068 466.0019 466.187 466.3942 466.5916 466.759 466.8911 466.9991 467.0517 467.1237 467.2016 467.2761 467.3475 467.4213 467.5026 467.5972 467.7092 467.8331 467.9443 468.0002 468.0535 468.1089 468.1694 468.2294 468.283 468.327 468.3619 468.3912 468.4176 468.4409 468.4603 468.4783 468.5003 468.5333 468.5838 468.6558 468.7505 468.8675 468.999 469.0988 469.1298 469.1269 469.0901 469.0012 468.9997 468.9995 468.952 468.88 468.7742 468.645 468.5193 468.4133 468.3592 468.4062 468.5603 468.7494 469.013 469.0826 469.0921 469.1539 469.3866 469.5076 469.6144 469.7419 469.8854 470.0026 470.136 470.2755 470.4368 470.6081 470.8014 471.1024 471.9099 472.8202 473.831 475.8069 477.2131 477.7088 477.2886 476.4574 475.5539 474.6705 473.7774 472.9588 472.2715 471.8494 471.6133 471.4508 471.441 471.7256 472.4736 473.726 475.6226 477.297 478.3904 478.7105 478.2231 476.9023 475.1254 473.3929 472.1304 471.514 471.6277 472.2304 473.0788 474.0344 474.9486 475.8783 476.9293 478.443 480.3702 482.5548 484.6742 486.3563 487.6728 -9999 -9999 -9999 -9999 -9999 -9999 -9999 -9999 -9999 -9999 -9999 -9999 -9999 -9999 -9999 -9999 -9999
-9999 -9999 -9999 -9999 -9999 -9999 -9999 -9999 -9999 -9999 -9999 -9999 -9999 -9999 -9999 -9999 -9999 -9999 -9999 -9999 -9999 -9999 -9999 -9999 -9999 -9999 -9999 -9999 -9999 -9999 -9999 -9999 -9999 -9999 -9999 -9999 -9999 -9999 -9999 -9999 482.8126 481.6603 480.2918 478.6227 476.5105 474.0398 471.7514 470.1968 469.3956 469.071 468.9999 468.955 468.8997 468.8352 468.769 468.708 468.658 468.6409 468.6909 468.7681 468.9699 469.0808 469.1782 469.3216 469.0587 468.5461 467.9795 467.4291 466.9942 466.6875 466.5695 466.5387 466.4797 466.3128 466.2057 466.153 466.1395 466.1499 466.1686 466.1813 466.1773 466.1336 466.0105 466.0003 466.0013 466.0009 466.0005 466.0004 465.9974 465.934 465.9989 466.0959 466.249 466.4203 466.5834 466.725 466.8429 466.9383 467.0005 467.0951 467.1911 467.2804 467.3611 467.4351 467.5051 467.5783 467.6668 467.776 467.8951 467.9998 468.0781 468.1525 468.2248 468.2914 468.3488 468.3957 468.4327 468.4636 468.4919 468.5184 468.5418 468.5629 468.5866 468.6196 468.6682 468.7351 468.8183 468.9105 469.0006 469.0984 469.1481 469.1562 469.1281 469.0758 469.0579 469.0415 469 468.9359 468.8276 468.6722 468.4932 468.3279 468.2183 468.1957 468.2584 468.3657 468.4889 468.5404 468.5969 468.738 468.997 469.2174 469.3953 469.5858 469.7924 469.9939 470.1029 470.2607 470.4608 470.7004 470.9771 471.2629 471.9545 472.9341 474.2187 476.1689 477.774 478.7036 478.9897 478.7415 478.0179 476.9484 475.6271 474.3477 473.3581 472.7718 472.4129 472.0478 471.7731 471.6963 472.0433 472.8865 474.4756 475.9351 476.889 477.1318 476.8014 476.0461 475.0186 473.9441 472.9224 472.3797 472.8103 474.0221 475.528 477.0893 478.3353 479.3325 480.3103 481.4021 482.8007 484.3972 485.8677 486.6627 487.1568 -9999 -9999 -9999 -9999 -9999 -9999 -9999 -9999 -9999 -9999 -9999 -9999 -9999 -9999 -9999 -9999 -9999
-9999 -9999 -9999 -9999 -9999 -9999 -9999 -9999 -9999 -9999 -9999 -9999 -9999 -9999 -9999 -9999 -9999 -9999 -9999 -9999 -9999 -9999 -9999 -9999 -9999 -9999 -9999 -9999 -9999 -9999 -9999 -9999 -9999 -9999 -9999 -9999 -9999 -9999 -9999 -9999 -9999 481.4618 480.8292 479.6707 477.693 475.0821 472.4494 470.5732 469.5754 469.1285 468.9981 469 468.9877 468.9514 468.9065 468.8639 468.8275 468.8345 468.9788 469.0977 469.4921 469.8564 470.0543 470.1495 469.8884 469.2126 468.5331 467.929 467.4024 467.0467 467.0012 467.0535 466.9955 466.6934 466.4401 466.293 466.2394 466.2503 466.2891 466.3237 466.3485 466.3502 466.306 466.3019 466.299 466.27 466.2345 466.1896 466.1177 466.0123 466.1168 466.2402 466.3725 466.5032 466.6225 466.7266 466.8203 466.9113 466.9995 467.0976 467.2047 467.3081 467.4013 467.4792 467.5372 467.5823 467.6398 467.7316 467.8591 467.9989 468.1053 468.2021 468.2877 468.3605 468.4203 468.4682 468.5055 468.5359 468.5628 468.5883 468.6114 468.6321 468.6539 468.6833 468.7263 468.7846 468.8549 468.9294 469.0001 469.0742 469.1218 469.1386 469.1266 469.0956 469.0698 469.0402 469.0001 468.9675 468.8805 468.7252 468.5225 468.3166 468.1575 468.0795 468.0852 468.1239 468.1683 468.2001 468.2848 468.4642 468.7285 468.9917 469.1889 469.4182 469.6523 469.8611 470.006 470.2263 470.4608 470.7223 470.9975 471.2924 471.9232 472.9709 474.4843 476.4572 478.1837 479.5283 480.5085 480.9088 480.5612 479.6081 478.1523 476.5878 475.2543 474.3319 473.6554 473.0463 472.498 472.1061 472.2131 472.8547 473.9875 475.0465 475.7735 475.9352 475.7641 475.4348 475.0258 474.613 473.9415 473.7249 474.5912 476.2802 478.2592 480.2412 481.8303 482.8824 483.5862 484.0314 484.5778 485.2046 485.8557 486.0841 -9999 -9999 -9999 -9999 -9999 -9999 -9999 -9999 -9999 -9999 -9999 -9999 -9999 -9999 -9999 -9999 -9999 -9999
-9999 -9999 -9999 -9999 -9999 -9999 -9999 -9999 -9999 -9999 -9999 -9999 -9999 -9999 -9999 -9999 -9999 -9999 -9999 -9999 -9999 -9999 -9999 -9999 -9999 -9999 -9999 -9999 -9999 -9999 -9999 -9999 -9999 -9999 -9999 -9999 -9999 -9999 -9999 -9999 -9999 480.8886 480.9343 480.213 478.5168 476.0639 473.2907 471.192 469.9179 469.2672 469.0048 468.9546 468.9992 469 468.9975 468.9995 468.9981 469.0251 469.3114 469.6502 470.119 470.5436 470.8892 470.9791 470.7555 470.0407 469.2111 468.5303 468.0111 467.6851 467.7171 467.8885 467.7411 467.1641 466.719 466.456 466.3487 466.359 466.4257 466.4831 466.5519 466.6328 466.6462 466.6539 466.6459 466.5724 466.5109 466.4562 466.3932 466.3391 466.3924 466.4761 466.5628 466.6424 466.7108 466.7705 466.8337 466.9175 467.001 467.1249 467.2487 467.3665 467.4766 467.5678 467.6216 467.6364 467.6589 467.7314 467.8617 468.0026 468.1536 468.2736 468.3671 468.4406 468.4984 468.5439 468.5793 468.6072 468.6304 468.651 468.6694 468.6857 468.7026 468.7261 468.762 468.8119 468.8724 468.9374 468.9999 469.0432 469.0796 469.102 469.1041 469.0882 469.0623 469.0317 469 468.989 468.9253 468.7818 468.5737 468.3439 468.1452 468.0223 467.9998 467.9998 467.9996 468.0011 468.0933 468.2846 468.5421 468.8006 469.0114 469.2801 469.5398 469.7822 470 470.2315 470.4705 470.7269 471.0007 471.2941 471.8578 472.896 474.5336 476.5686 478.4623 480.144 481.5595 482.4466 482.5066 481.9726 480.6856 479.0514 477.4584 476.1095 475.0027 474.132 473.5272 473.0161 472.927 473.5128 474.0693 474.6346 475.0114 475.0766 475.0453 475.0112 474.968 474.9313 474.9213 475.3568 476.7739 478.8684 481.1569 483.2547 484.7942 485.6315 486.0988 485.9356 485.5887 485.2927 485.0871 -9999 -9999 -9999 -9999 -9999 -9999 -9999 -9999 -9999 -9999 -9999 -9999 -9999 -9999 -9999 -9999 -9999 -9999 -9999
-9999 -9999 -9999 -9999 -9999 -9999 -9999 -9999 -9999 -9999 -9999 -9999 -9999 -9999 -9999 -9999 -9999 -9999 -9999 -9999 -9999 -9999 -9999 -9999 -9999 -9999 -9999 -9999 -9999 -9999 -9999 -9999 -9999 -9999 -9999 -9999 -9999 -9999 -9999 -9999 -9999 479.9559 480.5556 480.1676 478.537 476.6432 474.1064 471.8741 470.3474 469.4943 469.0477 468.8642 468.8553 468.9141 468.9995 469.0657 469.161 469.3434 469.7303 470.2287 470.8073 471.072 471.3936 471.525 471.37 470.8478 470.0602 469.3377 468.876 468.5583 468.7668 468.8452 468.4599 467.7788 467.0794 466.6796 466.5027 466.5183 466.6342 466.6983 466.8005 466.9761 467.0024 466.9996 466.9832 466.8438 466.782 466.7497 466.721 466.702 466.7213 466.7557 466.7904 466.8195 466.8413 466.8603 466.8954 466.999 467.1035 467.2231 467.3405 467.4593 467.5866 467.7065 467.7769 467.7701 467.7693 467.8404 468.0062 468.1661 468.2968 468.3966 468.4741 468.5352 468.5836 468.6221 468.6526 468.6761 468.6939 468.7073 468.7172 468.7253 468.7346 468.751 468.7797 468.8218 468.8729 468.9257 468.9711 469.0001 469.0328 469.0625 469.0779 469.0748 469.0557 469.0261 469 468.9991 468.9542 468.8288 468.6288 468.3913 468.1668 468.0011 467.9599 467.9415 467.9296 467.9282 468.0011 468.1923 468.452 468.7336 468.9979 469.2225 469.4685 469.7348 470.0015 470.236 470.4935 470.7511 470.9962 471.3141 471.8192 472.7581 474.447 476.4723 478.3731 480.0512 481.5751 482.8217 483.4561 483.5175 482.6428 481.1779 479.5797 477.9446 476.4393 475.2627 474.5624 474.1393 473.9724 474.0924 474.3127 474.5752 474.7661 474.8413 -9999 474.9982 475.0215 475.256 475.8196 476.9709 478.8914 481.2785 483.6783 485.6529 486.8409 487.0641 487.6416 487.2502 486.3854 485.5468 -9999 -9999 -9999 -9999 -9999 -9999 -9999 -9999 -9999 -9999 -9999 -9999 -9999 -9999 -9999 -9999 -9999 -9999 -9999 -9999
-9999 -9999 -9999 -9999 -9999 -9999 -9999 -9999 -9999 -9999 -9999 -9999 -9999 -9999 -9999 -9999 -9999 -9999 -9999 -9999 -9999 -9999 -9999 -9999 -9999 -9999 -9999 -9999 -9999 -9999 -9999 -9999 -9999 -9999 -9999 -9999 -9999 -9999 -9999 -9999 -9999 -9999 479.3703 479.3114 477.8777 477.1745 475.1977 472.8878 471.0981 469.9032 469.1862 468.822 468.7278 468.8009 468.9346 469.0748 469.2544 469.5374 470.017 470.7088 471.1129 471.3882 471.6732 471.8496 471.8149 471.5021 470.9409 470.3915 469.985 469.7725 469.909 469.835 469.2132 468.3206 467.5422 466.9994 466.722 466.7438 466.9579 467.0223 467.1364 467.3522 467.3746 467.2858 467.1622 467.0074 466.9975 466.998 466.9976 466.9969 466.9977 466.9986 466.9991 466.9995 466.9996 466.9991 467.0061 467.1375 467.2783 467.3925 467.4821 467.5762 467.7115 467.8742 467.9943 468.005 468.0384 468.1475 468.3803 468.4724 468.5213 468.5623 468.602 468.6394 468.6726 468.7007 468.7238 468.7412 468.7521 468.7567 468.7563 468.7535 468.7532 468.7617 468.7841 468.8203 468.8648 468.9101 468.9485 468.9758 469 469.0338 469.06 469.0688 469.058 469.0311 469 469.0024 468.9689 468.8593 468.677 468.4536 468.2361 468.073 467.9998 467.957 467.944 467.9348 467.9995 468.1658 468.4133 468.7016 468.9881 469.151 469.3826 469.6666 469.979 470.1915 470.5163 470.8204 471.0067 471.3101 471.8613 472.8314 474.3855 476.3365 478.0622 479.5189 480.9313 482.2863 483.407 483.9755 483.6618 482.5515 481.3968 479.8131 478.0704 476.5791 475.7433 475.3968 474.9882 474.6676 474.6454 474.7311 474.8133 474.8658 -9999 -9999 475.0078 475.4833 476.4865 478.2057 480.5563 483.1825 485.6018 487.3867 488.2926 488.3554 488.7088 488.4549 487.696 -9999 -9999 -9999 -9999 -9999 -9999 -9999 -9999 -9999 -9999 -9999 -9999 -9999 -9999 -9999 -9999 -9999 -9999 -9999 -9999 -9999
-9999 -9999 -9999 -9999 -9999 -9999 -9999 -9999 -9999 -9999 -9999 -9999 -9999 -9999 -9999 -9999 -9999 -9999 -9999 -9999 -9999 -9999 -9999 -9999 -9999 -9999 -9999 -9999 -9999 -9999 -9999 -9999 -9999 -9999 -9999 -9999 -9999 -9999 -9999 -9999 -9999 -9999 478.3973 478.9829 479.1156 478.5201 476.7071 474.231 472.009 470.3893 469.4194 468.8785 468.7079 468.7831 468.9251 469.0736 469.2488 469.4862 469.8215 470.2479 470.8402 471.2735 471.6456 471.9271 472.0511 471.9584 471.6004 471.3077 471.0872 471.0008 471.0196 470.8265 470.149 469.1181 468.1675 467.4531 467.0273 467.0162 467.3045 467.5991 467.9226 468.0396 467.9057 467.6455 467.4049 467.233 467.166 467.1324 467.1126 467.104 467.1021 467.1048 467.1135 467.1323 467.162 467.2037 467.2689 467.3988 467.5644 467.6576 467.6851 467.704 467.8109 467.9962 468.1428 468.3369 468.6154 468.8799 468.9558 468.8325 468.7585 468.7304 468.7292 468.7413 468.7586 468.776 468.7909 468.8012 468.8044 468.7993 468.7873 468.7725 468.7616 468.7621 468.7792 468.8118 468.8533 468.896 468.9343 468.9675 469 469.0212 469.0535 469.0731 469.0723 469.0534 469.0236 469 468.9639 468.8658 468.7039 468.5048 468.3073 468.1497 468.0534 468.0001 467.9998 467.9637 468.0007 468.158 468.3813 468.6304 468.857 469.0085 469.2546 469.5189 469.7842 470.0385 470.541 470.9684 471.1172 471.3569 471.8739 472.8584 474.3923 476.2483 477.7481 478.9399 480.0993 -9999 -9999 -9999 -9999 -9999 482.8281 481.676 479.921 478.1761 476.96 476.5552 475.5873 475.0413 474.9751 474.9907 474.9987 -9999 -9999 -9999 -9999 -9999 476.8571 478.9901 481.7062 484.5138 486.8895 488.4786 489.2298 489.5527 489.9682 -9999 -9999 -9999 -9999 -9999 -9999 -9999 -9999 -9999 -9999 -9999 -9999 -9999 -9999 -9999 -9999 -9999 -9999 -9999 -9999 -9999 -9999 -9999
-9999 -9999 -9999 -9999 -9999 -9999 -9999 -9999 -9999 -9999 -9999 -9999 -9999 -9999 -9999 -9999 -9999 -9999 -9999 -9999 -9999 -9999 -9999 -9999 -9999 -9999 -9999 -9999 -9999 -9999 -9999 -9999 -9999 -9999 -9999 -9999 -9999 -9999 -9999 -9999 -9999 -9999 478.1328 478.9066 479.8079 479.4044 477.8622 475.4257 472.921 471.0469 469.8135 469.0769 468.8518 468.9492 469.0505 469.1286 469.2183 469.3459 469.5358 469.8043 470.2146 470.8232 471.3332 471.756 472.021 472.001 471.9684 472.0692 472.0761 472.004 471.8864 471.5287 470.8323 469.9097 468.9757 468.114 467.5677 467.5202 467.8788 468.3406 468.8732 468.9573 468.6087 468.1325 467.7465 467.5205 467.3708 467.2557 467.1783 467.1422 467.1378 467.1543 467.1896 467.2493 467.3389 467.455 467.5928 467.7334 467.9693 468.0531 467.9904 467.8587 467.8709 467.9989 468.1478 468.4912 468.9652 469.1882 469.1871 469.0073 468.9087 468.8548 468.8321 468.8285 468.8345 468.8438 468.8519 468.8555 468.8511 468.8358 468.8115 468.7841 468.7622 468.755 468.7679 468.7986 468.839 468.8807 468.9181 468.9503 468.9784 469.0001 469.0488 469.0774 469.0844 469.071 469.0364 468.9999 468.9371 468.8395 468.6979 468.5275 468.3564 468.2125 468.1113 468.0498 468.0232 468.0002 468.0546 468.1914 468.3817 468.5959 468.8057 468.9978 469.2023 469.4374 469.7019 470.028 470.6184 471.0046 471.1842 471.3778 471.8127 472.7207 474.2224 475.9683 477.2626 478.2124 479.1404 -9999 -9999 -9999 -9999 -9999 -9999 -9999 -9999 479.9764 478.2915 477.019 475.9307 475.4654 475.3312 -9999 -9999 -9999 -9999 -9999 -9999 -9999 -9999 -9999 -9999 -9999 -9999 -9999 -9999 -9999 -9999 -9999 -9999 -9999 -9999 -9999 -9999 -9999 -9999 -9999 -9999 -9999 -9999 -9999 -9999 -9999 -9999 -9999 -9999 -9999 -9999 -9999 -9999 -9999
-9999 -9999 -9999 -9999 -9999 -9999 -9999 -9999 -9999 -9999 -9999 -9999 -9999 -9999 -9999 -9999 -9999 -9999 -9999 -9999 -9999 -9999 -9999 -9999 -9999 -9999 -9999 -9999 -9999 -9999 -9999 -9999 -9999 -9999 -9999 -9999 -9999 -9999 -9999 -9999 -9999 -9999 -9999 479.0157 479.8026 479.7652 478.5263 476.3996 473.9413 471.8217 470.3016 469.4222 469.1663 469.3262 469.3181 469.2583 469.2134 469.2172 469.279 469.4291 469.7131 470.1722 470.8209 471.4193 471.9241 472.0734 472.2635 472.7979 472.8998 472.6464 472.2365 471.8747 471.1776 470.5244 469.8336 468.9734 468.2873 468.2235 468.6884 469.2789 469.7903 469.8479 469.442 468.8623 468.2517 467.959 467.6887 467.4406 467.2698 467.1906 467.1807 467.2115 467.2728 467.374 467.5295 467.731 467.9615 468.0986 468.451 468.6362 468.4964 468.1473 468.0131 467.9993 468.0109 468.3521 468.9151 469.1991 469.2534 469.1293 469.0001 468.9323 468.9031 468.8944 468.896 468.9007 468.9046 468.9037 468.8931 468.8679 468.8309 468.7904 468.7573 468.7426 468.7515 468.7809 468.8206 468.861 468.8963 468.927 468.9593 468.9999 469.0458 469.0652 469.0707 469.059 469.0001 468.9349 468.8582 468.7658 468.649 468.5122 468.3738 468.2536 468.1638 468.1067 468.0807 468.0828 468.1436 468.2626 468.4216 468.6027 468.7961 468.9981 469.1974 469.4495 469.7673 470.162 470.8566 471.165 471.31 471.4284 471.7004 472.4428 473.9914 475.5616 476.7273 477.534 478.2403 -9999 -9999 -9999 -9999 -9999 -9999 -9999 -9999 -9999 -9999 -9999 -9999 -9999 -9999 -9999 -9999 -9999 -9999 -9999 -9999 -9999 -9999 -9999 -9999 -9999 -9999 -9999 -9999 -9999 -9999 -9999 -9999 -9999 -9999 -9999 -9999 -9999 -9999 -9999 -9999 -9999 -9999 -9999 -9999 -9999 -9999 -9999 -9999 -9999 -9999 -9999 -9999 -9999
-9999 -9999 -9999 -9999 -9999 -9999 -9999 -9999 -9999 -9999 -9999 -9999 -9999 -9999 -9999 -9999 -9999 -9999 -9999 -9999 -9999 -9999 -9999 -9999 -9999 -9999 -9999 -9999 -9999 -9999 -9999 -9999 -9999 -9999 -9999 -9999 -9999 -9999 -9999 -9999 -9999 -9999 -9999 479.3312 479.7205 479.7068 478.8846 477.2423 475.0858 472.9284 471.1818 470.0491 469.6342 469.7849 469.6364 469.4178 469.2324 469.1252 469.1011 469.1672 469.3613 469.7073 470.2064 470.925 471.5561 472.13 472.7996 473.1953 473.2309 472.9056 472.2044 471.8814 471.4718 471.0683 470.6698 469.9586 469.3329 469.2668 469.6416 469.8165 470.0098 470.078 469.9336 469.4685 469.0001 468.6451 468.1836 467.7381 467.4413 467.3107 467.2948 467.3335 467.4049 467.5276 467.7358 467.9998 468.3156 468.6675 469.1643 469.5782 469.3232 468.8928 468.4917 468.1913 467.9988 468.0365 468.4858 468.9442 469.1585 469.121 469.0007 468.9544 468.9396 468.9384 468.942 468.9454 468.9474 468.9451 468.9318 468.8976 468.8478 468.7935 468.7488 468.726 468.7307 468.758 468.796 468.8329 468.8621 468.8844 468.9099 468.9497 468.9992 469 469.0002 468.9983 468.9129 468.8212 468.7343 468.6501 468.5591 468.4593 468.3592 468.2716 468.2062 468.1676 468.159 468.1847 468.2556 468.366 468.4996 468.6448 468.8092 468.9975 469.2177 469.5289 469.9677 470.5047 471.0155 471.3277 471.5013 471.5972 471.6957 472.1657 473.588 474.9329 475.9862 476.8149 477.4671 -9999 -9999 -9999 -9999 -9999 -9999 -9999 -9999 -9999 -9999 -9999 -9999 -9999 -9999 -9999 -9999 -9999 -9999 -9999 -9999 -9999 -9999 -9999 -9999 -9999 -9999 -9999 -9999 -9999 -9999 -9999 -9999 -9999 -9999 -9999 -9999 -9999 -9999 -9999 -9999 -9999 -9999 -9999 -9999 -9999 -9999 -9999 -9999 -9999 -9999 -9999 -9999 -9999
-9999 -9999 -9999 -9999 -9999 -9999 -9999 -9999 -9999 -9999 -9999 -9999 -9999 -9999 -9999 -9999 -9999 -9999 -9999 -9999 -9999 -9999 -9999 -9999 -9999 -9999 -9999 -9999 -9999 -9999 -9999 -9999 -9999 -9999 -9999 -9999 -9999 -9999 -9999 -9999 -9999 -9999 -9999 -9999 479.7796 479.7689 479.3042 478.1414 476.4019 474.4 472.4816 471.0604 470.2986 470.3477 469.9625 469.5699 469.2705 469.0867 469.0116 469.0496 469.2164 469.5341 469.9969 470.6125 471.3057 472.229 472.9693 473.3217 473.3146 472.9866 472.4095 472.0141 471.7554 471.5569 471.2654 470.8547 470.4486 470.3481 470.3757 470.1436 470.022 470 469.9539 469.8094 469.6568 469.5221 468.8494 468.1887 467.7457 467.5649 467.5438 467.5757 467.6292 467.7396 467.9945 468.3009 468.6961 469.2092 469.8352 470.1157 469.9618 469.5457 469.0702 468.5316 468.0221 467.8483 468.0334 468.4753 468.9209 468.9968 468.9523 468.9384 468.9498 468.9649 468.9752 468.978 468.9793 468.9784 468.9684 468.9255 468.8628 468.7951 468.7385 468.707 468.7062 468.73 468.7643 468.7949 468.8126 468.8176 468.8204 468.8328 468.8517 468.8507 468.8435 468.8217 468.7504 468.6635 468.5823 468.5122 468.4474 468.3831 468.3223 468.2719 468.2384 468.2274 468.2446 468.2966 468.3859 468.5007 468.6192 468.7266 468.8574 469.0052 469.2552 469.5944 470.0763 470.826 471.2454 471.5426 471.7853 471.997 472.1001 471.9335 473.1659 474.2675 475.1713 475.9938 476.6885 -9999 -9999 -9999 -9999 -9999 -9999 -9999 -9999 -9999 -9999 -9999 -9999 -9999 -9999 -9999 -9999 -9999 -9999 -9999 -9999 -9999 -9999 -9999 -9999 -9999 -9999 -9999 -9999 -9999 -9999 -9999 -9999 -9999 -9999 -9999 -9999 -9999 -9999 -9999 -9999 -9999 -9999 -9999 -9999 -9999 -9999 -9999 -9999 -9999 -9999 -9999 -9999 -9999
-9999 -9999 -9999 -9999 -9999 -9999 -9999 -9999 -9999 -9999 -9999 -9999 -9999 -9999 -9999 -9999 -9999 -9999 -9999 -9999 -9999 -9999 -9999 -9999 -9999 -9999 -9999 -9999 -9999 -9999 -9999 -9999 -9999 -9999 -9999 -9999 -9999 -9999 -9999 -9999 -9999 -9999 -9999 -9999 480.0894 480.1188 479.9315 479.0913 477.7927 476.1669 474.3301 472.6054 471.4044 471.0327 470.2841 469.73 469.3611 469.144 469.0391 469.0774 469.2787 469.6389 470.1183 470.6898 471.4449 472.2083 472.9656 473.2998 473.2847 473 472.5604 472.2021 471.9957 471.9505 471.7133 471.4774 471.267 471.1553 471.0585 470.8306 470.4602 470.1033 469.9665 469.9966 470.0098 470.0006 469.6607 468.9619 468.2787 468.0336 467.9911 467.9821 467.9849 468.0426 468.3462 468.6639 469.1071 469.7726 470.2319 470.4624 470.4264 470.1821 469.867 469.1833 468.3971 467.9317 467.8328 468.0428 468.4715 468.7057 468.8073 468.8783 468.9414 468.9811 469 469 469 469 468.9999 468.9486 468.8749 468.7953 468.7276 468.6874 468.6805 468.6997 468.7289 468.751 468.7553 468.739 468.7137 468.6945 468.6846 468.674 468.6597 468.6312 468.5735 468.5028 468.4366 468.3849 468.3451 468.3121 468.2859 468.2704 468.2692 468.2873 468.3323 468.4129 468.53 468.6654 468.7871 468.858 468.9971 469.157 469.3995 469.7256 470.1743 470.9182 471.3586 471.6783 472.0026 472.4125 472.8326 472.0876 472.8074 473.687 474.4582 475.2125 -9999 -9999 -9999 -9999 -9999 -9999 -9999 -9999 -9999 -9999 -9999 -9999 -9999 -9999 -9999 -9999 -9999 -9999 -9999 -9999 -9999 -9999 -9999 -9999 -9999 -9999 -9999 -9999 -9999 -9999 -9999 -9999 -9999 -9999 -9999 -9999 -9999 -9999 -9999 -9999 -9999 -9999 -9999 -9999 -9999 -9999 -9999 -9999 -9999 -9999 -9999 -9999 -9999 -9999
-9999 -9999 -9999 -9999 -9999 -9999 -9999 -9999 -9999 -9999 -9999 -9999 -9999 -9999 -9999 -9999 -9999 -9999 -9999 -9999 -9999 -9999 -9999 -9999 -9999 -9999 -9999 -9999 -9999 -9999 -9999 -9999 -9999 -9999 -9999 -9999 -9999 -9999 -9999 -9999 -9999 -9999 -9999 -9999 -9999 480.9193 480.7705 480.1111 479.2066 478.0606 476.5755 474.8385 473.1507 471.8494 470.7438 470.0574 469.6124 469.3793 469.2197 469.2562 469.5232 470.0059 470.6017 471.2593 471.8839 472.4318 472.9956 473.249 473.2192 472.9997 472.6729 472.3721 472.1252 472.1076 472.1021 472.0771 472.0217 471.9108 471.7361 471.4214 471.0343 470.6954 470.2003 470.2111 470.2961 470.3397 470.1746 469.7563 469.1386 468.8163 468.6652 468.5293 468.4791 468.5635 468.8894 469.1399 469.5363 470.025 470.4302 470.6932 470.832 470.9217 470.7794 470.2025 469.3659 468.4462 468.0364 468.069 468.3254 468.5527 468.7105 468.8381 468.9479 469 469.0176 469.0179 469.0151 469.0109 469 468.9584 468.8825 468.7944 468.7173 468.6698 468.6578 468.6736 468.6986 468.7141 468.7084 468.6746 468.627 468.5836 468.5537 468.5338 468.5161 468.4898 468.4463 468.3931 468.3456 468.3128 468.2944 468.286 468.286 468.2967 468.3197 468.36 468.4262 468.5309 468.6785 468.8445 468.9918 469.0085 469.1721 469.3852 469.6639 470.0233 470.5105 471.0231 471.4207 471.7019 471.9432 472.2291 472.5078 472.4269 472.7572 473.151 473.8308 474.6755 -9999 -9999 -9999 -9999 -9999 -9999 -9999 -9999 -9999 -9999 -9999 -9999 -9999 -9999 -9999 -9999 -9999 -9999 -9999 -9999 -9999 -9999 -9999 -9999 -9999 -9999 -9999 -9999 -9999 -9999 -9999 -9999 -9999 -9999 -9999 -9999 -9999 -9999 -9999 -9999 -9999 -9999 -9999 -9999 -9999 -9999 -9999 -9999 -9999 -9999 -9999 -9999 -9999 -9999
