ncols         139
nrows         88
xllcorner     727800
yllcorner     6079150
cellsize      50
NODATA_value  -9999
-9999 -9999 -9999 -9999 -9999 -9999 -9999 -9999 -9999 -9999 -9999 -9999 -9999 -9999 -9999 -9999 -9999 -9999 -9999 -9999 -9999 -9999 -9999 -9999 -9999 -9999 -9999 -9999 -9999 -9999 -9999 -9999 -9999 -9999 -9999 -9999 -9999 -9999 -9999 -9999 -9999 -9999 -9999 -9999 -9999 -9999 -9999 -9999 -9999 -9999 -9999 -9999 -9999 -9999 -9999 -9999 -9999 -9999 -9999 -9999 -9999 -9999 -9999 -9999 -9999 -9999 -9999 -9999 -9999 -9999 -9999 -9999 -9999 -9999 -9999 -9999 -9999 -9999 -9999 -9999 -9999 -9999 -9999 -9999 -9999 -9999 -9999 -9999 -9999 -9999 -9999 -9999 -9999 -9999 -9999 -9999 -9999 -9999 -9999 -9999 -9999 -9999 -9999 -9999 -9999 -9999 -9999 -9999 -9999 -9999 -9999 -9999 -9999 -9999 -9999 -9999 -9999 -9999 -9999 -9999 -9999 -9999 -9999 -9999 -9999 -9999 -9999 -9999 -9999 -9999 -9999 -9999 -9999 -9999 -9999 -9999 -9999 -9999 -9999
-9999 -9999 -9999 -9999 -9999 -9999 -9999 -9999 -9999 -9999 -9999 -9999 -9999 -9999 -9999 -9999 -9999 -9999 -9999 -9999 -9999 -9999 -9999 -9999 -9999 -9999 -9999 -9999 -9999 -9999 -9999 -9999 -9999 -9999 -9999 -9999 -9999 -9999 -9999 -9999 -9999 -9999 -9999 -9999 -9999 -9999 -9999 -9999 -9999 -9999 -9999 -9999 -9999 -9999 -9999 -9999 -9999 -9999 -9999 -9999 -9999 -9999 -9999 -9999 -9999 646.0107 643.2314 641.5776 641.9296 -9999 -9999 -9999 -9999 -9999 -9999 -9999 -9999 -9999 -9999 -9999 -9999 -9999 -9999 -9999 -9999 -9999 -9999 -9999 -9999 -9999 -9999 -9999 -9999 -9999 -9999 -9999 -9999 -9999 -9999 -9999 -9999 -9999 -9999 -9999 -9999 -9999 -9999 -9999 -9999 -9999 -9999 -9999 -9999 -9999 -9999 -9999 -9999 -9999 -9999 -9999 -9999 -9999 -9999 -9999 -9999 -9999 -9999 -9999 -9999 -9999 -9999 -9999 -9999 -9999 -9999 -9999 -9999 -9999 -9999
-9999 -9999 -9999 -9999 -9999 -9999 -9999 -9999 -9999 -9999 -9999 -9999 -9999 -9999 -9999 -9999 -9999 -9999 -9999 -9999 -9999 -9999 -9999 -9999 -9999 -9999 -9999 -9999 -9999 -9999 -9999 -9999 -9999 -9999 -9999 -9999 -9999 -9999 -9999 -9999 -9999 -9999 -9999 -9999 -9999 -9999 -9999 -9999 -9999 -9999 -9999 -9999 -9999 -9999 -9999 -9999 -9999 -9999 -9999 -9999 -9999 -9999 647.1759 647.801 646.1282 643.2168 640.451 639.176 639.9852 641.5057 642.8724 643.9857 644.3376 -9999 -9999 -9999 -9999 -9999 -9999 -9999 -9999 -9999 -9999 -9999 -9999 -9999 -9999 -9999 -9999 -9999 -9999 -9999 -9999 -9999 -9999 -9999 -9999 -9999 -9999 -9999 -9999 -9999 -9999 -9999 -9999 -9999 -9999 -9999 -9999 -9999 -9999 -9999 -9999 -9999 -9999 -9999 -9999 -9999 -9999 -9999 -9999 -9999 -9999 -9999 -9999 -9999 -9999 -9999 -9999 -9999 -9999 -9999 -9999 -9999 -9999 -9999 -9999 -9999 -9999
-9999 -9999 -9999 -9999 -9999 -9999 -9999 -9999 -9999 -9999 -9999 -9999 -9999 -9999 -9999 -9999 -9999 -9999 -9999 -9999 -9999 -9999 -9999 -9999 -9999 -9999 -9999 -9999 -9999 -9999 -9999 -9999 -9999 -9999 -9999 -9999 -9999 -9999 -9999 -9999 -9999 -9999 -9999 -9999 -9999 -9999 -9999 -9999 -9999 -9999 -9999 -9999 -9999 -9999 -9999 -9999 -9999 -9999 -9999 635.9182 639.0936 642.2151 644.2815 644.5068 642.7388 640.0407 637.7291 636.9299 637.9896 639.8772 641.8798 643.6334 644.3861 643.72 641.4019 -9999 -9999 -9999 -9999 -9999 -9999 -9999 -9999 -9999 -9999 -9999 -9999 -9999 -9999 -9999 -9999 -9999 -9999 -9999 -9999 -9999 -9999 -9999 -9999 -9999 -9999 -9999 -9999 -9999 -9999 -9999 -9999 -9999 -9999 -9999 -9999 -9999 -9999 -9999 -9999 -9999 -9999 -9999 -9999 -9999 -9999 -9999 -9999 -9999 -9999 -9999 -9999 -9999 -9999 -9999 -9999 -9999 -9999 -9999 -9999 -9999 -9999 -9999 -9999
-9999 -9999 -9999 -9999 -9999 -9999 -9999 -9999 -9999 -9999 -9999 -9999 -9999 -9999 -9999 -9999 -9999 -9999 -9999 -9999 -9999 -9999 -9999 -9999 -9999 -9999 -9999 -9999 -9999 -9999 -9999 -9999 -9999 -9999 -9999 -9999 -9999 -9999 -9999 -9999 -9999 -9999 -9999 -9999 -9999 -9999 -9999 -9999 -9999 -9999 -9999 -9999 -9999 -9999 -9999 -9999 -9999 -9999 632.8287 634.6578 637.2811 639.7317 641.0659 640.9064 639.3029 637.2087 635.6893 635.2786 636.1359 637.9568 640.1415 642.2619 643.7006 643.5411 641.603 639.0323 -9999 -9999 -9999 -9999 -9999 -9999 -9999 -9999 -9999 -9999 -9999 -9999 -9999 -9999 -9999 -9999 -9999 -9999 -9999 -9999 -9999 -9999 -9999 -9999 -9999 -9999 -9999 -9999 -9999 -9999 -9999 -9999 -9999 -9999 -9999 -9999 -9999 -9999 -9999 -9999 -9999 -9999 -9999 -9999 -9999 -9999 -9999 -9999 -9999 -9999 -9999 -9999 -9999 -9999 -9999 -9999 -9999 -9999 -9999 -9999 -9999 -9999 -9999
-9999 -9999 -9999 -9999 -9999 -9999 -9999 -9999 -9999 -9999 -9999 -9999 -9999 -9999 -9999 -9999 -9999 -9999 -9999 -9999 -9999 -9999 -9999 -9999 -9999 -9999 -9999 -9999 -9999 -9999 -9999 -9999 -9999 -9999 -9999 -9999 -9999 -9999 -9999 -9999 -9999 644.8618 642.2637 640.1067 638.3193 636.9369 635.884 635.0752 634.6194 -9999 -9999 -9999 -9999 -9999 -9999 -9999 632.2976 631.7198 632.1836 633.7139 635.7039 637.4543 638.1407 637.7114 636.3005 634.8893 633.9298 633.7429 634.3032 635.8444 637.9311 640.1967 642.0819 642.8006 641.3431 639.1416 637.968 637.7158 -9999 -9999 -9999 -9999 -9999 -9999 -9999 -9999 -9999 -9999 -9999 -9999 -9999 -9999 -9999 -9999 -9999 -9999 -9999 -9999 -9999 -9999 -9999 -9999 -9999 -9999 -9999 -9999 -9999 -9999 -9999 -9999 -9999 -9999 -9999 -9999 -9999 -9999 -9999 -9999 -9999 -9999 -9999 -9999 -9999 -9999 -9999 -9999 -9999 -9999 -9999 -9999 -9999 -9999 -9999 -9999 -9999 -9999 -9999 -9999 -9999
-9999 -9999 -9999 -9999 -9999 -9999 -9999 -9999 -9999 -9999 -9999 -9999 -9999 -9999 -9999 -9999 -9999 -9999 -9999 -9999 -9999 -9999 -9999 -9999 -9999 -9999 -9999 -9999 -9999 -9999 -9999 -9999 -9999 -9999 -9999 -9999 -9999 -9999 -9999 -9999 645.6369 642.6205 640.2389 638.3752 636.9337 635.7554 634.83 634.0979 633.8476 633.5732 633.6639 -9999 -9999 -9999 -9999 633.5997 632.1757 631.6799 631.9717 632.8383 634.1547 635.3148 635.577 634.9897 633.7208 632.8669 632.2646 632.1786 632.5673 633.6838 635.4188 637.5621 639.5361 640.5697 639.9468 638.5062 637.8018 637.6852 638.2756 -9999 -9999 -9999 -9999 -9999 -9999 -9999 -9999 -9999 -9999 -9999 -9999 -9999 -9999 -9999 -9999 -9999 -9999 -9999 -9999 -9999 -9999 -9999 -9999 -9999 -9999 -9999 -9999 -9999 -9999 -9999 -9999 -9999 -9999 -9999 -9999 -9999 -9999 -9999 -9999 -9999 -9999 -9999 -9999 -9999 -9999 -9999 -9999 -9999 -9999 -9999 -9999 -9999 -9999 -9999 -9999 -9999 -9999 -9999 -9999
-9999 -9999 -9999 -9999 -9999 -9999 -9999 -9999 -9999 -9999 -9999 -9999 -9999 -9999 -9999 -9999 -9999 -9999 -9999 -9999 -9999 -9999 -9999 -9999 -9999 -9999 -9999 -9999 -9999 -9999 -9999 -9999 -9999 -9999 -9999 -9999 -9999 -9999 650.6434 646.6057 643.1501 640.3989 638.3302 636.8102 635.5581 634.4002 633.7798 633.1422 632.9351 633.0303 633.4191 633.9689 634.3121 634.427 634.0616 633.1173 632.1336 631.7499 631.8227 632.1047 632.8608 633.3069 633.2399 632.6456 631.84 631.2362 630.9001 630.9457 631.3436 631.9847 633.0715 634.7195 636.5389 637.8569 638.2534 637.8625 637.4591 637.3951 637.7542 638.5908 -9999 -9999 -9999 -9999 -9999 -9999 -9999 -9999 -9999 -9999 -9999 -9999 -9999 -9999 -9999 -9999 -9999 -9999 -9999 -9999 -9999 -9999 -9999 -9999 -9999 -9999 -9999 -9999 -9999 -9999 -9999 -9999 -9999 -9999 -9999 -9999 -9999 -9999 -9999 -9999 -9999 -9999 -9999 -9999 -9999 -9999 -9999 -9999 -9999 -9999 -9999 -9999 -9999 -9999 -9999 -9999 -9999 -9999 -9999
-9999 -9999 -9999 -9999 -9999 -9999 -9999 -9999 -9999 -9999 -9999 -9999 -9999 -9999 -9999 -9999 -9999 -9999 -9999 -9999 -9999 -9999 -9999 -9999 -9999 -9999 -9999 -9999 -9999 -9999 -9999 -9999 -9999 -9999 -9999 -9999 -9999 651.3798 647.6495 643.9955 640.7979 638.2847 636.459 635.1341 633.9323 633.0123 632.6176 632.1428 632.0783 632.4712 633.0323 633.5948 633.9922 634.1787 633.7829 632.7452 632.0204 631.8827 631.9805 632.0016 632.1346 631.9496 631.5859 631.0254 630.4171 629.9657 629.7788 629.8976 630.2385 630.6035 631.2938 632.4152 633.7427 635.1958 636.3756 636.6143 636.6992 636.8923 637.1914 637.6364 638.2616 -9999 -9999 -9999 -9999 -9999 -9999 -9999 -9999 -9999 -9999 -9999 -9999 -9999 -9999 -9999 -9999 -9999 -9999 -9999 -9999 -9999 -9999 -9999 -9999 -9999 -9999 -9999 -9999 -9999 -9999 -9999 -9999 -9999 -9999 -9999 -9999 -9999 -9999 -9999 -9999 -9999 -9999 -9999 -9999 -9999 -9999 -9999 -9999 -9999 -9999 -9999 -9999 -9999 -9999 -9999 -9999 -9999 -9999
-9999 -9999 -9999 -9999 -9999 -9999 -9999 -9999 -9999 -9999 -9999 -9999 -9999 -9999 -9999 -9999 -9999 -9999 -9999 -9999 -9999 -9999 -9999 -9999 -9999 -9999 -9999 -9999 -9999 -9999 -9999 -9999 -9999 -9999 -9999 -9999 651.1066 648.2352 645.0397 641.7271 638.647 636.1365 634.2891 632.9099 631.9374 631.475 631.5836 631.5922 631.6733 632.0646 632.5919 633.0131 633.2654 633.5269 632.9261 632.1343 631.8577 631.885 632.0246 631.9778 631.4348 630.8204 630.3122 629.7717 629.2678 628.9291 628.8263 628.9641 629.2503 629.3961 629.8125 630.6322 631.7317 632.9957 634.1237 634.9679 635.6236 636.2489 636.6592 636.8386 636.8267 636.6233 -9999 -9999 -9999 -9999 -9999 -9999 -9999 -9999 -9999 -9999 -9999 -9999 -9999 -9999 -9999 -9999 -9999 -9999 -9999 -9999 -9999 -9999 -9999 -9999 -9999 -9999 -9999 -9999 -9999 -9999 -9999 -9999 -9999 -9999 -9999 -9999 -9999 -9999 -9999 -9999 -9999 -9999 -9999 -9999 -9999 -9999 -9999 -9999 -9999 -9999 -9999 -9999 -9999 -9999 -9999 -9999 -9999
-9999 -9999 -9999 -9999 -9999 -9999 -9999 -9999 -9999 -9999 -9999 -9999 -9999 -9999 -9999 -9999 -9999 -9999 -9999 -9999 -9999 -9999 -9999 -9999 -9999 -9999 -9999 -9999 -9999 -9999 -9999 -9999 -9999 -9999 -9999 649.5579 647.8069 645.5675 642.8139 639.6421 636.4715 633.7142 631.6559 630.2614 629.4348 629.0831 629.6998 630.4896 630.8677 631.6664 632.0801 632.3104 632.177 632.1965 632.0588 631.9454 631.6156 631.325 630.6833 630.6705 630.3009 629.7731 629.2532 628.7295 628.2555 628.0227 627.9652 628.0322 628.1471 628.2173 628.4922 629.1808 630.1334 631.2433 632.3547 633.4179 634.4477 635.5881 636.2279 636.3351 636.0349 635.6984 635.3371 -9999 -9999 -9999 -9999 -9999 -9999 -9999 -9999 -9999 -9999 -9999 -9999 -9999 -9999 -9999 -9999 -9999 -9999 -9999 -9999 -9999 -9999 -9999 -9999 -9999 -9999 -9999 -9999 -9999 -9999 -9999 -9999 -9999 -9999 -9999 -9999 -9999 -9999 -9999 -9999 -9999 -9999 -9999 -9999 -9999 -9999 -9999 -9999 -9999 -9999 -9999 -9999 -9999 -9999 -9999 -9999
-9999 -9999 -9999 -9999 -9999 -9999 -9999 -9999 -9999 -9999 -9999 -9999 -9999 -9999 -9999 -9999 -9999 -9999 -9999 -9999 -9999 -9999 -9999 -9999 -9999 -9999 -9999 -9999 -9999 -9999 -9999 -9999 -9999 647.9536 647.2839 646.314 644.9199 642.9825 640.304 637.052 633.7584 630.95 628.8634 627.6969 627.189 627.1368 627.4891 628.0634 628.7381 630.0346 631.2324 631.7537 631.9364 632.1064 632.1553 631.9661 631.1863 630.5564 629.888 629.5697 629.1934 628.7637 628.2961 627.8256 627.315 627.1818 627.1619 627.1672 627.1742 627.1813 627.3394 628.0067 628.8723 629.8501 630.9001 632.0057 633.1855 634.8638 635.7544 635.9321 635.5983 635.2451 634.8282 -9999 -9999 -9999 -9999 -9999 -9999 -9999 -9999 -9999 -9999 -9999 -9999 -9999 -9999 -9999 -9999 -9999 -9999 -9999 -9999 -9999 -9999 -9999 -9999 -9999 -9999 -9999 -9999 -9999 -9999 -9999 -9999 -9999 -9999 -9999 -9999 -9999 -9999 -9999 -9999 -9999 -9999 -9999 -9999 -9999 -9999 -9999 -9999 -9999 -9999 -9999 -9999 -9999 -9999 -9999 -9999
-9999 -9999 -9999 -9999 -9999 -9999 -9999 -9999 -9999 -9999 -9999 -9999 -9999 -9999 -9999 -9999 -9999 -9999 -9999 -9999 -9999 -9999 -9999 -9999 -9999 -9999 -9999 648.7991 646.9665 -9999 -9999 -9999 645.4166 644.9541 644.2622 643.3548 642.0049 640.0574 637.2855 633.9891 630.9466 628.4539 626.7939 625.8309 625.4023 625.3701 625.6418 626.1403 626.8787 627.9809 629.2079 629.9194 630.4003 631.2524 631.1725 630.8162 630.3207 629.7015 629.0539 628.6079 628.1876 627.8279 627.34 627.0665 626.5859 626.3445 626.2532 626.2305 626.2547 626.3457 626.5872 627.1696 627.9123 628.7716 629.7704 630.8962 632.1287 633.4769 634.7603 634.9551 634.8633 634.7265 634.5306 634.0164 -9999 -9999 -9999 -9999 -9999 -9999 -9999 -9999 -9999 -9999 -9999 -9999 -9999 -9999 -9999 -9999 -9999 -9999 -9999 -9999 -9999 -9999 -9999 -9999 -9999 -9999 -9999 -9999 -9999 -9999 -9999 -9999 -9999 -9999 -9999 -9999 -9999 -9999 -9999 -9999 -9999 -9999 -9999 -9999 -9999 -9999 -9999 -9999 -9999 -9999 -9999 -9999 -9999 -9999 -9999
-9999 -9999 -9999 -9999 -9999 -9999 -9999 -9999 -9999 -9999 -9999 -9999 -9999 -9999 -9999 -9999 -9999 -9999 -9999 -9999 -9999 -9999 -9999 -9999 649.5163 647.9002 646.4275 644.9402 643.3918 642.6916 642.8528 643.1211 642.8083 642.1193 641.3101 640.2137 638.723 636.7446 634.076 631.1294 628.5729 626.7076 625.3931 624.5593 624.1248 624.0146 624.1785 624.589 625.2645 626.2222 627.2398 627.9466 628.7005 629.365 629.5244 629.5356 629.3356 628.8201 628.1981 627.7723 627.307 627.0798 626.5831 626.1711 625.7354 625.4489 625.3237 625.3098 625.3964 625.5942 625.9402 626.4917 627.1733 627.9277 628.9012 630.024 631.251 632.4592 633.0198 633.5061 633.8336 634.0103 634.0659 633.9986 -9999 -9999 -9999 -9999 -9999 -9999 -9999 -9999 -9999 -9999 -9999 -9999 -9999 -9999 -9999 -9999 -9999 -9999 -9999 -9999 -9999 639.1417 639.2778 639.6645 639.9668 640.1937 -9999 -9999 -9999 -9999 -9999 -9999 -9999 -9999 -9999 -9999 -9999 -9999 -9999 -9999 -9999 -9999 -9999 -9999 -9999 -9999 -9999 -9999 -9999 -9999 -9999 -9999 -9999 -9999 -9999
-9999 -9999 -9999 -9999 -9999 -9999 -9999 -9999 -9999 -9999 -9999 -9999 -9999 -9999 -9999 -9999 -9999 -9999 -9999 -9999 -9999 -9999 -9999 648.5958 646.8677 645.1992 643.5752 641.9838 640.786 640.3929 640.7711 640.7421 640.1808 639.2394 638.2177 636.9594 635.4935 633.6291 631.2741 628.8267 627.062 625.6863 624.6138 623.8323 623.3191 623.0588 623.0559 623.3229 623.9155 624.7144 625.6208 626.389 627.0843 627.5189 627.793 628.2392 628.3702 627.957 627.3513 627.1061 626.6373 626.2317 625.7269 625.251 624.827 624.5428 624.4026 624.42 624.5949 624.9214 625.3854 625.9733 626.6274 627.3104 628.2524 629.3033 630.3768 631.3749 631.968 632.4089 632.9763 633.3522 633.6196 633.9904 633.9063 -9999 -9999 -9999 -9999 -9999 -9999 -9999 -9999 -9999 -9999 -9999 -9999 -9999 641.3425 638.3058 636.7733 635.3749 636.3862 638.0333 638.4914 638.7098 638.8369 639.0015 639.1798 639.4791 640.0341 640.8572 642.1436 644.1468 646.4542 -9999 -9999 -9999 -9999 -9999 -9999 -9999 -9999 -9999 -9999 -9999 -9999 -9999 -9999 -9999 -9999 -9999 -9999 -9999 -9999 -9999 -9999 -9999 -9999
-9999 -9999 -9999 -9999 -9999 -9999 -9999 -9999 -9999 -9999 -9999 -9999 -9999 -9999 -9999 -9999 -9999 -9999 -9999 -9999 -9999 -9999 647.4735 646.1624 644.5845 642.9506 641.2639 639.6199 638.3859 638.023 638.2959 638.2014 637.6366 636.4936 635.3037 634.1729 633.1545 631.5427 629.3644 627.5221 626.3359 625.2697 624.3358 623.5554 622.9296 622.4634 622.2101 622.1954 622.7554 623.4142 624.2092 624.9757 625.642 626.1724 626.6368 627.1247 627.2791 627.1436 626.7082 626.36 625.8948 625.3912 624.8409 624.3276 623.9161 623.6766 623.5492 623.585 623.845 624.3121 624.9266 625.6359 626.3953 627.1754 627.9042 628.7689 629.7053 630.63 631.4077 632.111 632.5636 632.9257 633.2998 633.7438 633.9845 634.2565 -9999 -9999 -9999 -9999 -9999 -9999 -9999 -9999 -9999 -9999 646.2484 643.4943 640.0834 637.1705 635.6772 634.8503 635.8842 637.3608 637.7399 637.8926 637.8743 637.8891 638.054 638.5734 639.2114 640.1448 641.6698 643.6821 645.8663 647.5668 648.4508 649.1364 -9999 -9999 -9999 -9999 -9999 -9999 -9999 -9999 -9999 -9999 -9999 -9999 -9999 -9999 -9999 -9999 -9999 -9999 -9999 -9999 -9999
-9999 -9999 -9999 -9999 -9999 -9999 -9999 -9999 -9999 -9999 -9999 -9999 -9999 -9999 -9999 -9999 -9999 -9999 -9999 -9999 -9999 646.1677 645.1231 643.9254 642.3798 640.6736 638.7147 637.0029 635.6984 635.2343 635.4841 635.5887 635.2297 634.1879 633.1171 632.4124 631.395 629.8369 627.9695 626.8328 626.1241 625.2079 624.3543 623.5755 622.8669 622.2237 621.7186 621.0988 621.6057 622.1537 622.8676 623.5953 624.3116 624.929 625.5079 626.0125 626.2699 626.2587 625.9925 625.6354 625.1552 624.5875 623.9883 623.4436 623.0414 622.9004 622.7972 622.8358 623.166 623.7678 624.5273 625.3655 626.2321 627.0891 627.6245 628.36 629.2075 630.0991 630.928 631.6605 632.1807 632.55 632.9968 633.5818 634.0209 634.3538 636.0218 -9999 -9999 -9999 -9999 -9999 -9999 -9999 -9999 647.4128 645.759 642.9139 639.4738 636.5254 634.8539 634.2848 635.0432 636.1713 636.9076 636.444 636.1271 636.0687 636.3716 637.2394 637.9564 638.9033 640.3158 642.2461 644.4355 646.2846 647.6049 648.6916 650.9587 -9999 -9999 -9999 -9999 -9999 -9999 -9999 -9999 -9999 -9999 -9999 -9999 -9999 -9999 -9999 -9999 -9999 -9999 -9999 -9999
-9999 -9999 -9999 -9999 -9999 -9999 -9999 -9999 -9999 -9999 -9999 -9999 -9999 -9999 -9999 -9999 -9999 -9999 -9999 -9999 644.9647 643.893 643.089 641.9019 640.1687 637.9623 635.5316 633.793 632.4502 632.0109 632.3712 632.7679 632.8275 632.2807 631.7643 631.4014 630.3761 628.9183 627.382 626.4835 625.8561 625.1464 624.4095 623.6801 622.9883 622.3702 621.7407 620.2148 620.0815 620.5367 621.3729 622.0794 622.8949 623.6282 624.315 624.8775 625.2422 625.3502 625.2148 624.9229 624.4673 623.8646 623.2345 622.6765 622.252 622.1992 622.1891 622.2155 622.5978 623.3212 624.1837 625.08 625.9409 626.6976 627.2577 628.046 628.8867 629.7361 630.5537 631.2585 631.7708 632.1948 632.7505 633.7097 634.6256 635.0734 636.0887 638.0015 -9999 -9999 -9999 -9999 -9999 -9999 648.1267 647.3794 645.6443 642.6913 639.173 636.0693 634.1437 633.6497 633.8388 634.3699 634.8246 634.2383 633.8032 633.7108 634.0701 635.0602 635.9859 636.9772 638.2913 640.0433 642.137 644.3248 646.243 648.235 651.3334 656.4271 -9999 -9999 -9999 -9999 -9999 -9999 -9999 -9999 -9999 -9999 -9999 -9999 -9999 -9999 -9999 -9999 -9999 -9999 -9999
-9999 -9999 -9999 -9999 -9999 -9999 -9999 -9999 -9999 -9999 -9999 -9999 -9999 -9999 -9999 -9999 -9999 -9999 -9999 644.7467 642.8064 641.9355 641.3115 639.9801 637.9557 635.1014 632.5304 630.5223 629.1116 628.7514 629.2758 629.9777 630.5338 630.4639 630.3729 630.2898 629.6146 628.4424 627.2434 626.4195 625.7627 625.1239 624.4744 623.8018 623.1239 622.4929 621.7969 620.0116 618.856 618.7861 619.3098 620.1005 621.2097 622.0858 622.9625 623.6512 624.1525 624.3809 624.3746 624.2208 623.8586 623.2495 622.6501 622.1999 621.9107 621.8389 621.8281 621.892 622.2374 623.0551 623.9573 624.8544 625.7087 626.4865 627.1912 627.9755 628.7903 629.5819 630.3338 631.0138 631.5281 631.962 632.5408 633.9498 635.4597 635.7684 636.1526 637.2417 -9999 -9999 -9999 -9999 -9999 648.4558 648.0702 647.4814 645.597 642.3984 638.7115 635.343 632.9956 632.0842 631.8425 632.0067 632.1025 631.478 631.0343 630.9322 631.2661 632.2925 633.4869 634.4691 635.6621 637.138 639.0484 641.5269 644.3605 647.4684 651.6345 657.5803 665.2455 -9999 -9999 -9999 -9999 -9999 -9999 -9999 -9999 -9999 -9999 -9999 -9999 -9999 -9999 -9999 -9999 -9999 -9999
-9999 -9999 -9999 -9999 -9999 -9999 -9999 -9999 -9999 -9999 -9999 -9999 -9999 -9999 -9999 -9999 -9999 -9999 -9999 643.299 641.3456 640.243 639.4496 637.9544 635.6513 632.665 630.0028 627.9948 626.8752 626.6097 627.0097 627.6166 628.1052 628.5565 628.8403 629.0964 628.901 628.0122 627.1627 626.4254 625.741 625.109 624.5018 623.9001 623.3072 622.6941 621.8021 619.8352 618.1305 617.3563 617.4039 617.9556 619.0388 620.1138 621.344 622.2347 622.9584 623.3143 623.4349 623.5079 623.329 622.7181 622.2142 621.9463 621.8119 621.7803 621.7674 621.8472 622.2098 623.0369 623.871 624.7106 625.5564 626.3907 627.1992 628.0321 628.8677 629.6307 630.2941 630.9833 631.5549 632.0942 632.8041 633.916 635.4302 635.9879 636.02 636.4461 638.1273 -9999 -9999 644.6677 646.4132 647.6428 647.9063 647.3677 645.0901 641.6254 637.7975 634.4146 631.861 630.3345 629.4902 629.384 629.2819 628.8511 628.5337 628.5023 628.863 629.7117 630.78 631.6036 632.488 633.5662 635.2285 637.8851 641.6779 646.2617 651.8359 658.7816 666.8646 -9999 -9999 -9999 -9999 -9999 -9999 -9999 -9999 -9999 -9999 -9999 -9999 -9999 -9999 -9999 -9999 -9999 -9999
-9999 -9999 -9999 -9999 -9999 -9999 -9999 -9999 -9999 -9999 -9999 -9999 -9999 -9999 -9999 -9999 -9999 -9999 645.5851 642.6585 640.4326 638.9259 637.5814 635.6954 633.2108 630.5057 628.0784 626.4064 625.4933 625.276 625.5623 626.0784 626.6123 627.1311 627.4709 627.967 628.0023 627.3191 626.7659 626.2062 625.6188 625.0263 624.4314 623.8427 623.2643 622.6133 621.5646 619.5209 617.578 616.5748 616.3051 616.5792 617.2695 618.1075 619.3516 620.5629 621.6377 622.1365 622.3812 622.7534 622.7448 622.2414 622.0001 621.9041 621.9043 621.9398 621.9036 621.9341 622.2397 623.0873 623.7883 624.5607 625.416 626.321 627.2151 628.1141 629.0215 629.8459 630.5195 631.1265 631.6893 632.2924 632.9422 633.4844 635.4989 636.0831 636.0003 636.2277 637.2327 639.224 641.3406 643.2107 644.7484 645.9784 646.3824 645.8987 643.3989 639.8782 636.4494 633.1567 630.5316 628.6617 627.421 626.8805 626.6023 626.3345 626.1758 626.2098 626.4893 627.0386 627.7253 628.3704 629.1207 630.123 631.7455 634.3755 638.8196 644.7863 651.7707 659.7164 668.2023 676.4855 -9999 -9999 -9999 -9999 -9999 -9999 -9999 -9999 -9999 -9999 -9999 -9999 -9999 -9999 -9999 -9999 -9999
-9999 -9999 -9999 -9999 -9999 -9999 -9999 -9999 -9999 -9999 -9999 -9999 -9999 -9999 -9999 -9999 -9999 -9999 645.9673 642.9449 640.2866 638.0637 636.0228 633.7993 631.3618 628.9258 626.9464 625.5299 624.7795 624.6004 624.8035 625.2184 625.7214 626.2393 626.6981 627.1558 627.1892 626.7811 626.3376 625.8762 625.3727 624.8394 624.2633 623.6287 622.9796 622.2436 620.9465 619.0952 617.3073 616.1838 615.702 615.7594 616.2264 616.9113 617.702 618.8453 619.9856 620.8281 621.4962 622.1122 622.2133 622.0856 622.0004 621.9976 622.088 622.1972 622.1025 622.0337 622.1987 622.7258 623.4454 624.2725 625.2028 626.2106 627.2026 628.1068 629.0939 630.0146 630.7183 631.2242 631.7196 632.3368 632.9425 633.7798 636.1638 636.2098 636.0044 636.0487 636.3398 637.877 639.8323 641.6682 643.0186 643.7765 643.8873 643.111 640.6026 637.5687 634.4658 631.5107 628.9975 627.0319 625.5492 624.6498 624.2377 624.0474 623.9913 624.0563 624.2239 624.4949 624.8582 625.3313 626.0587 627.1093 628.8777 631.8489 636.5681 643.3613 651.3592 660.0826 668.9005 677.0543 -9999 -9999 -9999 -9999 -9999 -9999 -9999 -9999 -9999 -9999 -9999 -9999 -9999 -9999 -9999 -9999 -9999
-9999 -9999 -9999 -9999 -9999 -9999 -9999 -9999 -9999 -9999 -9999 -9999 -9999 -9999 -9999 -9999 -9999 649.5723 646.8644 643.7746 640.5544 637.5739 634.9834 632.5577 630.1202 627.8232 626.1985 625.0936 624.5335 624.4203 624.5403 624.8465 625.2645 625.7177 626.1376 626.4673 626.5089 626.2686 625.9238 625.5264 625.0721 624.5955 624.0662 623.4211 622.6505 621.9525 620.3667 618.6143 617.0323 615.8737 615.2832 615.21 615.5593 616.1686 616.6207 617.4111 618.4973 619.5502 620.5267 621.3641 621.8351 622.0344 622.078 622.1014 622.2 622.2705 622.1993 622.0364 622.0215 622.2776 623.0304 623.9169 624.9049 625.988 627.0624 627.8909 628.9476 629.9813 630.752 631.2283 631.5942 632.1825 632.8166 633.5906 634.9233 635.2108 635.6275 635.7892 635.512 636.4617 638.0917 639.7532 640.858 640.9164 640.5551 639.5742 637.482 634.8962 632.1934 629.624 627.3818 625.4697 623.8623 622.7112 622.2188 622.0367 622.0176 622.1025 622.214 622.3273 622.4957 622.85 623.6052 624.6523 626.5629 629.7946 634.7705 641.9348 650.554 659.7837 668.8157 676.8736 683.3044 -9999 -9999 -9999 -9999 -9999 -9999 -9999 -9999 -9999 -9999 -9999 -9999 -9999 -9999 -9999 -9999
-9999 -9999 -9999 -9999 -9999 -9999 -9999 -9999 -9999 -9999 -9999 -9999 -9999 -9999 -9999 -9999 -9999 649.4639 647.0323 643.9645 640.4202 636.9511 634.3714 631.8445 629.4868 627.3847 625.9452 625.0334 624.6147 624.5726 624.5834 624.7655 625.0771 625.4376 625.7649 625.9869 626.0094 625.8453 625.5768 625.2369 624.8195 624.3762 623.9037 623.3165 622.5532 621.5715 619.6971 617.8083 616.4338 615.4089 614.8038 614.6166 614.7868 615.1223 615.5427 616.2542 617.257 618.412 619.6229 620.7294 621.5633 622.067 622.2004 622.2022 622.288 622.3058 622.1998 621.9946 621.9185 622.1743 622.7204 623.556 624.5253 625.5791 626.5916 627.4235 628.5801 629.6693 630.4945 631.0827 631.4297 631.8073 632.3518 632.7456 633.2948 633.5076 634.5404 634.64 634.5957 635.2122 636.2494 637.4469 638.164 637.7609 636.8056 635.9061 634.2651 632.1409 629.8851 627.7682 625.9456 624.1835 622.5651 621.3453 620.6083 620.2277 620.1708 620.3502 620.5718 620.7698 621.0037 621.3901 622.0162 622.8158 624.7567 628.1902 633.3785 640.5466 649.4414 658.9205 668.0507 676.0441 682.3017 -9999 -9999 -9999 -9999 -9999 -9999 -9999 -9999 -9999 -9999 -9999 -9999 -9999 -9999 -9999 -9999
-9999 -9999 -9999 -9999 -9999 -9999 -9999 -9999 -9999 -9999 -9999 -9999 -9999 -9999 -9999 -9999 650.0894 648.3438 646.2465 643.3754 639.7734 636.1208 633.4668 631.1981 629.1379 627.2751 625.9888 625.1878 624.819 624.7562 624.7267 624.8288 625.0493 625.3133 625.5464 625.6823 625.674 625.5315 625.3086 625.0195 624.6483 624.1934 623.7174 623.1003 622.1877 620.7537 618.8508 617.178 615.8889 614.9174 614.2712 613.942 613.8936 614.062 614.4911 615.2361 616.2657 617.4727 618.8546 620.2042 621.36 622.1783 622.3965 622.4274 622.4371 622.3715 622.1978 621.9152 621.6992 621.8144 622.2946 623.1553 624.1098 625.1492 626.2169 627.2303 628.2488 629.2024 629.9868 630.6956 631.2085 631.5369 631.8552 631.9773 632.0419 632.2283 632.6968 633.1055 633.5866 633.8773 634.305 634.8302 635.155 634.7462 633.8805 632.8904 631.4436 629.6578 627.8255 626.2338 624.7808 623.1821 621.687 620.2585 619.2428 618.6622 618.5817 618.8975 619.2776 619.6411 620.0195 620.4892 621.0382 621.7191 623.4624 626.9701 632.2043 639.3011 648.3136 657.8963 667.0303 674.943 681.09 -9999 -9999 -9999 -9999 -9999 -9999 -9999 -9999 -9999 -9999 -9999 -9999 -9999 -9999 -9999 -9999
-9999 -9999 -9999 -9999 -9999 -9999 -9999 -9999 -9999 -9999 -9999 -9999 -9999 -9999 -9999 -9999 648.3971 647.0128 645.2417 642.444 638.7514 635.0826 632.5358 630.4847 628.7194 627.2151 626.1346 625.4309 625.0767 624.9738 624.9246 624.9779 625.1262 625.3051 625.4486 625.5143 625.4697 625.3197 625.1069 624.8441 624.5139 624.0431 623.4832 622.7578 621.6981 619.9211 617.9475 616.5522 615.4139 614.4779 613.7712 613.3062 613.0732 613.0789 613.5259 614.3454 615.4928 616.8774 618.2361 619.7095 621.0697 622.1103 622.4319 622.5562 622.5712 622.4606 622.207 621.9031 621.5058 621.4623 622.0261 622.7734 623.6601 624.6703 625.778 626.9564 627.855 628.713 629.6794 630.4814 630.9784 631.2293 631.4769 631.587 631.3708 631.3269 631.5442 631.8528 632.1677 632.2752 632.3943 632.5905 632.5975 632.151 631.3777 630.4493 629.139 627.6398 626.2302 624.8931 623.5399 622.0785 620.5732 619.1641 618.0673 617.3632 617.3196 617.7747 618.2383 618.7458 619.2563 619.8107 620.2543 621.0216 622.782 626.2443 631.4336 638.49 647.5534 657.2065 666.3043 674.0807 680.0709 -9999 -9999 -9999 -9999 -9999 -9999 -9999 -9999 -9999 -9999 -9999 -9999 -9999 -9999 -9999 -9999
-9999 -9999 -9999 -9999 -9999 -9999 -9999 -9999 -9999 -9999 -9999 -9999 -9999 -9999 -9999 -9999 647.0054 645.7695 644.156 641.483 637.7741 634.3716 631.8331 629.9124 628.3949 627.1912 626.3006 625.7017 625.3619 625.2277 625.1725 625.1996 625.2925 625.3977 625.4546 625.4442 625.3607 625.1938 624.9576 624.6829 624.3381 623.8787 623.1861 622.259 620.9116 619.1532 617.4298 616.1761 615.1039 614.162 613.3873 612.8162 612.4565 612.262 612.7108 613.5441 614.7329 616.1398 617.5623 619.1596 620.6004 621.6884 622.2274 622.5553 622.6768 622.6351 622.4656 622.1852 621.6416 621.0523 621.249 622.1277 623.0622 624.0406 625.0856 626.2012 627.2051 628.1387 629.1528 630.011 630.5155 630.7394 631.0018 631.1053 630.9924 630.7905 630.743 630.8073 630.8846 630.8706 630.8271 630.7638 630.5415 630.0217 629.2703 628.4579 627.3574 626.1793 625.0058 623.7974 622.449 620.9796 619.4797 618.1627 617.1819 616.5995 616.5796 617.0073 617.3149 617.9141 618.483 619.0096 619.6445 620.6342 622.5165 625.9534 631.1331 638.281 647.4108 657.1239 666.1837 673.7817 679.5464 -9999 -9999 -9999 -9999 -9999 -9999 -9999 -9999 -9999 -9999 -9999 -9999 -9999 -9999 -9999 -9999
-9999 -9999 -9999 -9999 -9999 -9999 -9999 -9999 -9999 -9999 -9999 -9999 -9999 -9999 -9999 647.9639 646.2231 644.8925 643.4152 640.6038 636.8276 633.6161 631.2083 629.4482 628.1497 627.1858 626.4499 625.9579 625.6588 625.517 625.4697 625.4899 625.5455 625.5886 625.5634 625.4639 625.3137 625.114 624.847 624.5192 624.1225 623.5903 622.8493 621.8123 620.1946 618.4711 617.1039 615.9626 614.9199 613.9604 613.1325 612.5057 612.1778 611.9352 612.1937 612.8889 614.084 615.5801 617.1717 618.709 620.1389 621.3195 622.1407 622.5127 622.7111 622.7516 622.6927 622.5293 622.1277 621.2871 620.549 621.3188 622.3393 623.3625 624.4092 625.4552 626.4255 627.3077 628.2931 629.173 629.7292 630.0493 630.4308 630.5514 630.4244 630.2301 630.0591 629.9309 629.8198 629.6949 629.5443 629.3267 628.9756 628.3693 627.593 626.9754 626.0566 625.0587 624.0336 622.9369 621.6653 620.0299 618.4731 617.2564 616.4046 615.8924 615.7852 616.002 616.3728 617.0565 617.7548 618.4312 619.2686 620.5082 622.5161 625.9794 631.1947 638.5754 647.746 657.5001 666.538 673.9769 679.5105 -9999 -9999 -9999 -9999 -9999 -9999 -9999 -9999 -9999 -9999 -9999 -9999 -9999 -9999 -9999 -9999
-9999 -9999 -9999 -9999 -9999 -9999 -9999 -9999 -9999 -9999 -9999 -9999 -9999 -9999 -9999 648.324 646.441 645.2261 643.1907 639.8629 635.7836 632.8191 630.6509 629.0828 627.9681 627.1854 626.5867 626.1869 625.9558 625.843 625.8145 625.8418 625.8798 625.8708 625.7725 625.5768 625.3303 625.0585 624.7403 624.3475 623.8579 623.2144 622.3076 621.0534 619.3926 617.7115 616.6758 615.7402 614.7583 613.817 612.9575 612.2307 611.8602 611.6602 611.8045 612.3422 613.5123 615.0656 616.7655 618.2048 619.6083 620.8154 621.7045 622.2146 622.546 622.6439 622.6622 622.6244 622.3895 621.6865 620.3273 619.9887 621.4601 622.6683 623.7227 624.7062 625.6284 626.4908 627.3241 628.1762 628.7842 629.3596 629.7939 629.9149 629.7643 629.5745 629.3516 629.1243 628.9033 628.7246 628.5201 628.2146 627.8636 627.2302 626.5014 625.8071 624.9795 624.0757 623.1129 622.0287 620.6522 619.0647 617.5708 616.542 615.7527 615.2043 614.9396 614.9187 615.1698 615.8099 616.809 617.7981 618.962 620.5534 622.6967 626.257 631.5567 639.0555 648.3304 658.1317 667.1754 674.5394 679.9481 -9999 -9999 -9999 -9999 -9999 -9999 -9999 -9999 -9999 -9999 -9999 -9999 -9999 -9999 -9999 -9999
-9999 -9999 -9999 -9999 -9999 -9999 -9999 -9999 -9999 -9999 -9999 -9999 -9999 -9999 -9999 649.236 647.2558 645.4097 642.9674 639.3452 635.1241 632.2792 630.2855 628.862 627.8596 627.1886 626.7251 626.4232 626.2609 626.1905 626.1904 626.2402 626.282 626.2229 626.0585 625.7762 625.4174 625.0328 624.6253 624.1486 623.5641 622.8279 621.8771 620.4049 618.782 617.3245 616.3197 615.4427 614.5663 613.7106 612.9171 612.1996 611.7388 611.5157 611.6191 612.1294 613.0177 614.4556 616.0742 617.5494 619.0203 620.2474 621.1713 621.7838 622.1666 622.21 622.2094 622.2015 622.0201 621.1344 619.9584 619.539 620.6177 621.9372 622.9927 623.9363 624.8148 625.653 626.4695 627.2673 627.9751 628.5388 629.0209 629.1808 629.0725 628.8959 628.663 628.3839 628.0808 627.9141 627.7114 627.2999 627.0409 626.3818 625.6282 624.8594 624.0272 623.1309 622.1509 621.0077 619.6737 618.2661 617.0864 616.0897 615.2344 614.5655 614.1039 613.8335 613.8188 614.222 615.3375 616.8578 618.5107 620.6427 622.982 626.7605 632.2471 639.8681 649.1578 658.9214 667.9487 675.3227 680.7148 -9999 -9999 -9999 -9999 -9999 -9999 -9999 -9999 -9999 -9999 -9999 -9999 -9999 -9999 -9999 -9999
-9999 -9999 -9999 -9999 -9999 -9999 -9999 -9999 -9999 -9999 -9999 -9999 -9999 -9999 -9999 649.1867 646.9857 644.8387 642.4554 638.894 634.7492 632.0604 630.1786 628.8242 627.8603 627.2181 626.9209 626.7252 626.5964 626.5518 626.5762 626.6548 626.7365 626.6116 626.3749 626.0244 625.5645 625.0511 624.5087 623.9116 623.1965 622.3 621.1403 619.6648 618.1991 617.0657 616.0665 615.1991 614.3816 613.5972 612.8599 612.1979 611.7006 611.4232 611.4227 611.746 612.4225 613.7953 615.4791 617.1418 618.5337 619.6727 620.5353 621.107 621.4053 621.4282 621.3455 621.2034 620.8981 620.1915 619.354 619.037 619.8337 621.0142 622.137 623.0894 623.9382 624.7355 625.5524 626.3413 627.0596 627.48 628.0583 628.2795 628.2305 628.1259 627.962 627.7002 627.2939 627.1913 627.0571 626.519 626.1149 625.5179 624.7886 623.983 623.1147 622.1827 621.1583 620.0186 618.7726 617.4988 616.5413 615.6687 614.7515 613.9683 613.349 612.8919 612.6774 612.6758 613.7892 615.6534 617.714 620.2683 623.2122 627.4638 633.3026 641.0698 650.2609 659.8881 668.8434 676.2001 681.5494 -9999 -9999 -9999 -9999 -9999 -9999 -9999 -9999 -9999 -9999 -9999 -9999 -9999 -9999 -9999 -9999
-9999 -9999 -9999 -9999 -9999 -9999 -9999 -9999 -9999 -9999 -9999 -9999 -9999 -9999 -9999 648.2043 646.1152 644.1318 641.7862 638.4707 634.5829 632.1696 630.3414 628.982 628.0301 627.4435 627.1931 627.0062 626.9172 626.8915 626.9216 627.0156 627.1851 626.9788 626.6722 626.2635 625.7307 625.1019 624.4157 623.6665 622.8215 621.873 620.4426 618.8955 617.5118 616.6156 615.7686 614.9739 614.2137 613.4913 612.8127 612.1988 611.6962 611.3706 611.2891 611.5121 612.1275 613.2266 614.9099 616.7087 618.0162 619.0552 619.8019 620.2627 620.45 620.3969 620.2023 619.9331 619.6102 619.14 618.6447 618.4774 619.0511 620.0446 621.1112 622.1017 622.9348 623.6582 624.4576 625.2387 625.9291 626.4726 627.0281 627.2213 627.2374 627.2258 627.201 627.0891 626.6768 626.3966 626.134 625.6556 625.2112 624.6478 623.9401 623.111 622.1994 621.2207 620.1857 619.1112 618.0361 617.0341 616.0417 615.1237 614.2117 613.397 612.7225 612.2373 612.1497 612.1035 612.7405 614.7132 617.2347 620.2398 623.7077 628.4168 634.6755 642.4536 651.5031 660.9724 669.8306 677.1395 -9999 -9999 -9999 -9999 -9999 -9999 -9999 -9999 -9999 -9999 -9999 -9999 -9999 -9999 -9999 -9999 -9999
-9999 -9999 -9999 -9999 -9999 -9999 -9999 -9999 -9999 -9999 -9999 -9999 -9999 -9999 -9999 647.0273 645.104 643.3855 641.2617 638.2509 634.6477 632.5567 630.6655 629.2347 628.2375 627.6254 627.3319 627.2003 627.1983 627.1989 627.1995 627.2115 627.3862 627.2063 626.9298 626.4622 625.8698 625.1565 624.3425 623.4238 622.3501 621.1922 619.7085 618.2179 617.1248 616.2548 615.4911 614.7584 614.0488 613.385 612.767 612.2008 611.7058 611.3442 611.1886 611.2969 611.7271 612.5684 614.2119 615.9659 617.3591 618.3802 618.9904 619.3082 619.3877 619.2631 618.9799 618.6014 618.3463 618.1171 617.9042 617.8542 618.2128 619.004 619.9031 620.7993 621.6806 622.3387 623.1617 623.923 624.6332 625.1793 625.6705 625.9657 626.1055 626.182 626.2159 626.1213 625.8204 625.5159 625.2095 624.7916 624.3215 623.7783 623.072 622.2127 621.2616 620.2473 619.21 618.1869 617.2124 616.3019 615.3932 614.4995 613.6167 612.817 612.173 611.7379 611.6846 611.9133 612.4341 614.3826 617.1913 620.6328 624.4945 629.5016 636.0701 643.7917 652.6982 662.035 670.7858 677.9807 -9999 -9999 -9999 -9999 -9999 -9999 -9999 -9999 -9999 -9999 -9999 -9999 -9999 -9999 -9999 -9999 -9999
-9999 -9999 -9999 -9999 -9999 -9999 -9999 -9999 -9999 -9999 -9999 -9999 -9999 -9999 -9999 646.096 644.1324 642.4758 640.7829 638.2214 634.8801 632.7014 630.8848 629.4517 628.4183 627.7637 627.4371 627.3375 627.3878 627.464 627.5226 627.563 627.6102 627.4508 627.1815 626.6343 625.9656 625.1887 624.3049 623.3116 622.1678 620.7477 619.1183 617.5613 616.6848 615.8884 615.1694 614.4869 613.8391 613.2393 612.6957 612.2039 611.7159 611.3287 611.1273 611.176 611.5322 612.2892 613.6666 615.2991 616.8171 617.7292 618.1318 618.2908 618.2959 618.1694 617.8812 617.3936 617.2333 617.1902 617.1656 617.1618 617.3085 617.9374 618.5427 619.15 619.8688 620.7098 621.658 622.3998 623.1719 623.7074 624.1747 624.5929 624.852 625.0087 625.1191 625.0754 624.8321 624.5227 624.2341 623.8693 623.3831 622.8866 622.1675 621.2773 620.294 619.2549 618.2198 617.238 616.3472 615.5012 614.6539 613.7937 612.9362 612.1553 611.5199 611.1696 611.1741 611.4924 612.3121 614.3338 617.3003 621.0052 625.1757 630.4395 637.2986 644.899 653.686 662.9359 671.6274 678.7403 -9999 -9999 -9999 -9999 -9999 -9999 -9999 -9999 -9999 -9999 -9999 -9999 -9999 -9999 -9999 -9999 -9999
-9999 -9999 -9999 -9999 -9999 -9999 -9999 -9999 -9999 -9999 -9999 -9999 -9999 -9999 -9999 645.2048 643.3992 642.0811 640.9327 638.8143 635.7031 633.1766 631.1875 629.6766 628.5857 627.8885 627.5378 627.4617 627.5635 627.7196 627.8452 627.9001 627.8504 627.5942 627.2008 626.7185 626.0232 625.1747 624.2269 623.2037 622.0724 620.5101 618.8262 617.3089 616.3584 615.5745 614.8625 614.1899 613.5574 612.9805 612.5322 612.1755 611.6823 611.2869 611.0706 611.0944 611.4164 612.1045 613.0759 614.4249 615.8389 616.8826 617.1982 617.2535 617.2545 617.2296 617.116 616.7051 616.4666 616.3685 616.3342 616.3466 616.4905 616.9622 617.1777 617.4133 617.9064 618.8221 619.7586 620.6774 621.5592 622.0793 622.5505 623.1607 623.5347 623.7673 624.0095 624.0456 623.8245 623.4634 623.2178 622.9128 622.3654 621.9206 621.1393 620.2522 619.2787 618.2437 617.2299 616.3154 615.4814 614.6816 613.8647 613.0072 612.1418 611.3485 610.8054 610.5926 610.71 611.2047 612.2739 614.3909 617.4345 621.2857 625.6444 630.9688 637.7587 645.5062 654.3492 663.5922 672.265 679.3799 -9999 -9999 -9999 -9999 -9999 -9999 -9999 -9999 -9999 -9999 -9999 -9999 -9999 -9999 -9999 -9999 -9999
-9999 -9999 -9999 -9999 -9999 -9999 -9999 -9999 -9999 -9999 -9999 -9999 -9999 -9999 -9999 644.1968 642.5316 641.9381 641.5749 639.6757 636.5999 633.6962 631.5032 629.9005 628.7676 628.0287 627.65 627.5811 627.7313 627.9631 628.1508 628.2161 628.1108 627.7433 627.2382 626.8351 626.1055 625.1322 624.0481 622.9347 621.8532 620.2874 618.6681 617.2405 616.2096 615.3657 614.6084 613.899 613.2377 612.6147 612.2017 611.8791 611.5023 611.174 610.9753 610.9656 611.1838 611.6406 612.303 613.3704 614.6276 615.6281 616.1243 616.3285 616.4152 616.4319 616.3326 616.0415 615.7865 615.6207 615.531 615.5109 615.5864 615.7716 615.8479 615.9913 616.384 617.0742 617.7905 618.6991 619.4736 620.101 620.8458 621.6772 622.1572 622.4825 622.9586 623.0942 622.8805 622.3977 622.214 621.9906 621.3472 620.6561 619.9282 619.1372 618.2235 617.2204 616.2523 615.39 614.6169 613.856 613.0367 612.1416 611.2202 610.5005 610.1273 610.1229 610.4313 611.1234 612.3514 614.5558 617.6242 621.5693 626.0979 631.4877 638.2047 645.991 654.86 664.0799 672.6996 679.7563 -9999 -9999 -9999 -9999 -9999 -9999 -9999 -9999 -9999 -9999 -9999 -9999 -9999 -9999 -9999 -9999 -9999
-9999 -9999 -9999 -9999 -9999 -9999 -9999 -9999 -9999 -9999 -9999 -9999 -9999 -9999 -9999 -9999 642.9654 642.3324 642.4052 640.6603 637.4528 634.0818 631.7642 630.1344 628.9897 628.2244 627.7949 627.6992 627.8864 628.1882 628.4324 628.5015 628.3492 627.9933 627.5566 627.1295 626.2266 625.0891 623.8016 622.4547 621.3073 619.9232 618.4924 617.2155 616.1563 615.2438 614.4193 613.6453 612.912 612.2407 611.891 611.6066 611.31 611.0454 610.8708 610.8335 610.9663 611.2729 611.749 612.4586 613.5445 614.4817 615.0987 615.4524 615.633 615.6884 615.6169 615.3842 615.1296 614.9149 614.7628 614.6808 614.6546 614.6458 614.6024 614.6747 614.9532 615.4283 615.9968 616.6948 617.2355 617.8388 618.7885 619.7577 620.5953 621.3066 621.9716 622.168 622.0493 621.5788 621.2162 620.8282 620.2014 619.4607 618.7085 618.0244 617.1653 616.1893 615.2493 614.4348 613.7455 613.0193 612.1707 611.1918 610.2902 609.7177 609.5678 609.7585 610.3828 611.3403 612.6907 614.9471 617.9633 621.9522 626.6729 632.214 638.8344 646.6001 655.4697 664.6264 673.1147 680.0096 -9999 -9999 -9999 -9999 -9999 -9999 -9999 -9999 -9999 -9999 -9999 -9999 -9999 -9999 -9999 -9999 -9999
-9999 -9999 -9999 -9999 -9999 -9999 -9999 -9999 -9999 -9999 -9999 -9999 -9999 -9999 -9999 -9999 644.3351 643.6016 643.3223 641.3257 638.0699 634.5438 632.0682 630.433 629.3119 628.5138 627.9911 627.8168 628.029 628.4011 628.7036 628.7806 628.5835 628.1974 627.7225 627.1812 626.2716 625.0781 623.6963 622.252 620.9323 619.5793 618.2755 617.1826 616.1344 615.1801 614.3115 613.511 612.7881 612.193 611.7872 611.4749 611.1949 610.9592 610.7983 610.7454 610.8283 611.0682 611.4893 612.1248 612.8282 613.5749 614.2073 614.652 614.8911 614.9563 614.8936 614.7119 614.4786 614.2413 614.0377 613.8938 613.7726 613.6179 613.4244 613.4093 613.5455 613.7812 614.0756 614.4453 614.851 615.4922 616.5479 617.6205 618.7886 619.7844 620.5247 620.8425 620.8168 620.4895 620.0767 619.6395 619.0453 618.2799 617.4777 616.9313 616.073 615.1195 614.2039 613.4355 612.8773 612.1743 611.2718 610.2629 609.4304 609.0751 609.2664 609.7608 610.6505 611.9016 613.4626 615.6667 618.5137 622.4146 627.2402 632.9523 639.5344 647.3693 656.2927 665.3929 673.6838 680.4148 -9999 -9999 -9999 -9999 -9999 -9999 -9999 -9999 -9999 -9999 -9999 -9999 -9999 -9999 -9999 -9999 -9999
-9999 -9999 -9999 -9999 -9999 -9999 -9999 -9999 -9999 -9999 -9999 -9999 -9999 -9999 -9999 -9999 -9999 644.7309 643.7048 641.6203 638.423 634.8937 632.3469 630.8182 629.7657 628.9265 628.2441 627.9357 628.165 628.6144 628.9828 629.0702 628.8113 628.3681 627.8067 627.1862 626.3351 625.1469 623.7101 622.1778 620.6743 619.2433 617.9442 617.067 616.0807 615.1402 614.2667 613.4662 612.7581 612.1931 611.7963 611.468 611.1786 610.9436 610.7814 610.7125 610.7567 610.9343 611.2556 611.7083 612.2143 612.8204 613.4366 613.9373 614.1891 614.2331 614.1771 614.0393 613.8412 613.6008 613.3626 613.1776 612.979 612.7396 612.3394 612.2076 612.1451 612.0827 612.0356 612.085 612.302 612.8751 613.9911 615.2943 616.7568 617.9863 618.8377 619.2925 619.4572 619.2517 618.8184 618.4445 617.9731 617.2242 616.4296 615.7313 614.9357 614.0421 613.1549 612.407 612.0325 611.3049 610.3849 609.3898 608.6381 608.4795 608.9845 609.8541 610.983 612.3752 614.2667 616.5444 619.234 622.8813 627.7029 633.6052 640.1318 648.1776 657.2283 666.2821 674.2473 680.4475 -9999 -9999 -9999 -9999 -9999 -9999 -9999 -9999 -9999 -9999 -9999 -9999 -9999 -9999 -9999 -9999 -9999
-9999 -9999 -9999 -9999 -9999 -9999 -9999 -9999 -9999 -9999 -9999 -9999 -9999 -9999 -9999 -9999 -9999 646.332 644.5657 642.1866 638.9284 635.348 632.7081 631.3522 630.3437 629.4117 628.5115 628.0569 628.3009 628.8323 629.2751 629.3699 629.0615 628.6176 628.0177 627.2933 626.543 625.3173 623.7935 622.1472 620.4687 618.8673 617.4476 616.7289 615.9604 615.122 614.2827 613.4961 612.7953 612.2211 611.9111 611.5729 611.2592 611.0061 610.8296 610.7394 610.7463 610.8591 611.085 611.4015 611.7714 612.2196 612.7769 613.3037 613.4824 613.5009 613.4698 613.3862 613.2438 613.0139 612.7488 612.5669 612.2642 612.1165 611.6088 611.1568 610.7126 610.2394 609.8041 609.604 609.7047 610.2365 611.3196 612.704 614.3703 615.8914 616.9269 617.5787 618.0622 618.0083 617.5189 617.2676 616.9728 616.2175 615.3868 614.6193 613.8841 613.0682 612.2515 611.6031 611.1011 610.3949 609.5125 608.5757 607.9024 607.9011 608.7429 609.9943 611.4087 612.9767 615.1097 617.2794 619.7894 623.1656 627.8538 633.7335 640.5789 648.9036 658.1168 667.1312 674.7215 680.0839 -9999 -9999 -9999 -9999 -9999 -9999 -9999 -9999 -9999 -9999 -9999 -9999 -9999 -9999 -9999 -9999 -9999
-9999 -9999 -9999 -9999 -9999 -9999 -9999 -9999 -9999 -9999 -9999 -9999 -9999 -9999 -9999 -9999 -9999 648.1551 646.017 643.3306 639.8987 636.1826 633.2899 631.9847 630.8315 629.6124 628.6511 628.1807 628.4382 629.0582 629.5872 629.6733 629.4161 628.9742 628.4017 627.7424 626.9749 625.5658 623.9033 622.1647 620.4432 618.8286 617.4364 616.7428 616.0089 615.1997 614.3795 613.6164 612.9599 612.4626 612.1756 611.7694 611.4202 611.1425 610.9434 610.828 610.7993 610.8607 611.0071 611.2318 611.506 611.8346 612.2343 612.7257 612.7996 612.7925 612.8094 612.7726 612.7 612.5215 612.231 612.1718 611.8328 611.4609 610.8536 610.1356 609.3135 608.4032 607.5319 607.1074 607.0919 607.5214 608.4953 610.0343 611.7843 613.3303 614.7267 615.8378 616.6837 616.8778 616.5134 616.1887 615.7941 615.1084 614.288 613.52 612.9232 612.2119 611.4857 610.845 610.2515 609.5344 608.6849 607.8164 607.1945 607.2297 608.1816 609.8582 611.8159 613.8385 616.1052 618.0194 620.251 623.3589 627.9478 633.8693 640.9009 649.4454 658.7861 667.7504 675.1019 679.9196 -9999 -9999 -9999 -9999 -9999 -9999 -9999 -9999 -9999 -9999 -9999 -9999 -9999 -9999 -9999 -9999 -9999
-9999 -9999 -9999 -9999 -9999 -9999 -9999 -9999 -9999 -9999 -9999 -9999 -9999 -9999 -9999 -9999 -9999 649.6896 647.381 644.4879 640.9275 637.1052 633.8983 632.0631 630.7098 629.5536 628.7041 628.3063 628.5482 629.2791 629.9459 629.9477 629.7289 629.3013 628.722 628.0283 627.1274 625.6754 623.9689 622.2201 620.6152 619.1553 617.9353 617.097 616.201 615.3376 614.516 613.7692 613.1282 612.6129 612.2134 611.9226 611.621 611.3412 611.1194 610.978 610.9193 610.9428 611.0403 611.2047 611.4158 611.6543 611.9288 612.1996 612.2089 612.2116 612.3016 612.2139 612.2054 612.1824 611.9313 611.7312 611.3655 610.8487 610.099 609.1357 607.9673 606.6362 605.3381 604.6702 604.5975 605.095 606.1136 607.5997 609.3662 611.0503 612.5626 613.8666 614.7762 615.2304 615.1949 614.9778 614.6094 614.0024 613.2058 612.4417 612.0616 611.4185 610.7264 610.0681 609.4337 608.7065 607.8817 607.0931 606.5925 606.8677 607.8714 609.9088 612.1713 614.4789 616.7309 618.568 620.6239 623.531 628.0954 634.1288 641.1523 649.7723 659.1329 667.993 675.0776 679.4665 -9999 -9999 -9999 -9999 -9999 -9999 -9999 -9999 -9999 -9999 -9999 -9999 -9999 -9999 -9999 -9999 -9999
-9999 -9999 -9999 -9999 -9999 -9999 -9999 -9999 -9999 -9999 -9999 -9999 -9999 -9999 -9999 -9999 -9999 650.3687 648.0784 645.3265 641.9221 638.1117 634.6661 632.3624 630.7936 629.6496 628.8716 628.4581 628.5864 629.4391 630.3793 630.1614 629.9697 629.5354 628.9128 628.1495 627.1582 625.7139 624.0319 622.3231 620.8919 619.5462 618.3295 617.2268 616.2805 615.4243 614.6334 613.9206 613.3105 612.8205 612.4528 612.1942 611.9008 611.6049 611.3513 611.1851 611.1064 611.1038 611.1782 611.3147 611.4957 611.6603 611.8434 612.035 612.0569 612.0946 612.1995 612.021 611.8953 611.7843 611.5681 611.3022 610.8839 610.256 609.3521 608.1429 606.6062 604.7369 603.1058 602.3235 602.2361 602.8518 603.9482 605.4707 607.2369 609.0085 610.615 611.9521 612.8251 613.5176 613.7265 613.6635 613.4342 612.9858 612.2701 611.6312 611.1581 610.5616 609.8849 609.2043 608.5723 607.8357 606.9897 606.2155 606.0958 607.0134 608.5007 610.6069 612.8687 615.1954 617.2891 619.0733 620.9944 623.6837 628.2162 634.4258 641.3289 649.8254 659.0359 667.6374 674.3525 678.3135 -9999 -9999 -9999 -9999 -9999 -9999 -9999 -9999 -9999 -9999 -9999 -9999 -9999 -9999 -9999 -9999 -9999
-9999 -9999 -9999 -9999 -9999 -9999 -9999 -9999 -9999 -9999 -9999 -9999 -9999 -9999 -9999 -9999 -9999 -9999 648.1886 645.7411 642.7075 639.2219 635.8437 633.1241 631.3567 630.1692 629.4245 628.9694 628.6632 629.3815 630.7181 630.3074 630.2014 629.6937 628.9815 628.1639 627.1616 625.7759 624.1888 622.569 621.2802 619.876 618.4934 617.2397 616.2771 615.4596 614.7207 614.0573 613.4877 613.0316 612.693 612.4415 612.1949 611.8998 611.6179 611.4437 611.3609 611.3502 611.4061 611.5491 611.7478 611.8442 611.962 612.1924 612.2051 612.2117 612.2111 611.9733 611.7327 611.4979 611.2327 610.9052 610.421 609.6882 608.6252 607.1646 605.1885 603.0174 601.2845 600.2807 600.0016 600.6887 601.8375 603.4442 605.2722 607.1129 608.7813 610.1566 611.1631 611.9364 612.2253 612.2769 612.2304 612.0103 611.3898 610.7794 610.2458 609.6406 608.9438 608.1902 607.5741 606.7923 605.8386 605.3413 605.9053 607.3506 609.4421 611.7492 614.0889 616.339 618.0958 619.6825 621.4296 623.7219 627.9308 633.8221 640.847 649.3185 658.2969 666.4227 672.5072 675.7785 -9999 -9999 -9999 -9999 -9999 -9999 -9999 -9999 -9999 -9999 -9999 -9999 -9999 -9999 -9999 -9999 -9999
-9999 -9999 -9999 -9999 -9999 -9999 -9999 -9999 -9999 -9999 -9999 -9999 -9999 -9999 -9999 -9999 -9999 -9999 648.1205 645.9454 643.3742 640.3578 637.2172 634.4647 632.4619 631.1539 630.4202 630.1011 629.4881 628.8545 628.9437 630.3693 630.5578 629.7827 628.9202 628.0879 627.1603 625.8967 624.501 623.1055 621.832 620.2126 618.6222 617.2404 616.2728 615.4955 614.8047 614.1868 613.6566 613.231 612.9147 612.6708 612.441 612.1921 611.8995 611.762 611.7074 611.6942 611.7341 611.8712 612.1696 612.2018 612.2421 612.5448 612.7345 612.8461 612.8175 612.2527 611.8124 611.3919 611.0099 610.5939 610.0209 609.1743 607.9572 606.3216 604.024 601.7538 599.7585 598.4332 597.8034 598.2409 599.5598 601.3948 603.3259 605.2226 606.9574 608.3823 609.4279 610.2277 610.649 610.8381 610.9048 610.7421 610.2632 609.723 609.2003 608.5739 607.8647 607.0522 606.3166 605.3501 604.6536 604.7399 606.0594 607.9906 610.4393 612.8766 615.261 617.2354 618.7778 620.1958 621.8529 623.6763 627.5356 633.1083 640.0428 648.3364 656.915 664.3932 669.8246 672.4078 -9999 -9999 -9999 -9999 -9999 -9999 -9999 -9999 -9999 -9999 -9999 -9999 -9999 -9999 -9999 -9999 -9999
-9999 -9999 -9999 -9999 -9999 -9999 -9999 -9999 -9999 -9999 -9999 -9999 -9999 -9999 -9999 -9999 -9999 -9999 648.0352 646.0207 643.7711 641.2535 638.5717 636.0771 634.0132 632.4244 631.5157 631.2463 631.1038 630.3417 630.486 631.9372 631.247 629.6812 628.6936 627.9272 627.1425 626.0166 624.7693 623.4471 622.0721 620.3945 618.7211 617.2747 616.3519 615.6023 614.9308 614.3347 613.8336 613.4343 613.1456 612.9215 612.706 612.4706 612.2241 612.1978 612.1986 612.197 612.1986 612.2609 612.5966 612.7986 612.9744 613.2601 613.5016 613.6238 613.4874 612.8195 612.1307 611.4792 610.9509 610.4204 609.7394 608.7541 607.3206 605.3766 602.9332 600.6485 598.5789 597.247 596.6055 596.7739 597.701 599.3668 601.3578 603.2568 604.9763 606.507 607.5779 608.4826 608.9974 609.289 609.493 609.3829 608.933 608.4413 607.951 607.2199 606.4145 605.3293 604.3966 603.8187 603.8086 604.9078 606.8718 609.2512 611.7674 614.2029 616.4335 618.0197 619.2235 620.2809 621.5372 623.3691 627.1184 632.4648 639.1843 647.1547 655.15 661.7914 666.8383 669.0485 -9999 -9999 -9999 -9999 -9999 -9999 -9999 -9999 -9999 -9999 -9999 -9999 -9999 -9999 -9999 -9999 -9999
-9999 -9999 -9999 -9999 -9999 -9999 -9999 -9999 -9999 -9999 -9999 -9999 -9999 -9999 -9999 -9999 -9999 -9999 -9999 646.1486 643.9835 641.7575 639.5959 637.6069 635.733 633.9915 632.7051 632.3333 632.2408 631.905 631.4201 630.4849 630.7407 629.0126 628.4211 627.8177 627.1523 626.191 624.996 623.6372 622.16 620.5067 618.8712 617.4443 616.611 615.8369 615.1287 614.5217 614.0369 613.6703 613.4241 613.2528 613.1002 612.9572 612.8551 612.8689 612.9015 612.9302 612.9841 613.1234 613.4083 613.6644 613.9021 614.168 614.3935 614.4758 614.2277 613.4028 612.4005 611.6935 611.0834 610.4305 609.6381 608.5579 607.0264 604.8609 602.3473 599.966 597.8926 596.7888 596.1364 596.0473 596.5631 597.6755 599.3564 601.2094 602.8171 604.3674 605.6627 606.7197 607.2918 607.6652 608.0763 607.9921 607.443 607.0235 606.4789 605.4995 604.45 603.4555 602.6627 602.7767 603.7405 605.5797 607.9672 610.6613 613.007 615.3239 617.1927 618.5355 619.4993 620.2883 621.298 623.1286 626.8307 632.0271 638.532 646.2172 653.6495 659.2982 664.3948 666.6101 -9999 -9999 -9999 -9999 -9999 -9999 -9999 -9999 -9999 -9999 -9999 -9999 -9999 -9999 -9999 -9999 -9999
-9999 -9999 -9999 -9999 -9999 -9999 -9999 -9999 -9999 -9999 -9999 -9999 -9999 -9999 -9999 -9999 -9999 -9999 -9999 -9999 644.3545 642.1484 640.3411 638.9244 637.4418 635.8042 634.4377 633.9677 633.7969 633.4745 632.5315 631.1064 629.7761 629.4711 628.9742 628.2373 627.3555 626.4738 625.2311 623.7705 622.2113 620.635 619.1536 617.9159 617.0649 616.1477 615.3647 614.7383 614.2714 613.9541 613.7766 613.6864 613.6315 613.6069 613.6385 613.73 613.8116 613.8888 614.0177 614.238 614.4984 614.7328 614.9454 615.1571 615.3328 615.3678 615.0273 614.2076 613.1729 612.2487 611.4733 610.6261 609.6886 608.5244 606.9405 604.6851 602.1963 599.9037 598.0887 597.0351 596.2533 595.9064 596.0215 596.6121 597.6483 599.1229 600.6708 602.1523 603.5754 604.7263 605.5692 606.1899 606.6846 606.5456 605.7847 605.2181 604.507 603.6252 602.6932 602.1981 602.0214 602.5078 604.1864 606.5922 609.2936 611.8923 614.0545 616.3215 617.795 618.9132 619.745 620.4126 621.2988 623.0721 626.7496 631.8999 638.3355 645.9887 653.4743 659.2765 663.6296 665.7443 -9999 -9999 -9999 -9999 -9999 -9999 -9999 -9999 -9999 -9999 -9999 -9999 -9999 -9999 -9999 -9999 -9999
-9999 -9999 -9999 -9999 -9999 -9999 -9999 -9999 -9999 -9999 -9999 -9999 -9999 -9999 -9999 -9999 -9999 -9999 -9999 -9999 645.3314 643.0211 641.4874 640.4359 639.1199 637.6238 636.218 635.4789 634.9453 634.5488 633.7834 632.188 630.7041 631.0345 630.1157 629.0414 627.994 626.9586 625.4915 623.8768 622.2469 620.7393 619.366 618.1805 617.1992 616.2976 615.5403 614.9514 614.5392 614.3005 614.2099 614.2179 614.2756 614.377 614.5334 614.7266 614.8658 614.9938 615.2098 615.5409 615.777 615.9335 616.0581 616.1766 616.2766 616.2754 615.9731 615.1668 614.0905 612.9987 612.0057 610.8992 609.7983 608.546 606.9216 604.6433 602.215 600.0509 598.3785 597.2715 596.5873 596.1334 595.9467 596.0784 596.542 597.3254 598.3626 599.8307 601.399 602.6176 603.6445 604.301 604.6387 604.5034 603.9525 603.3671 602.6294 602.0964 601.6726 601.6648 602.1218 603.1057 605.0381 607.6353 610.6352 613.1975 615.3659 617.1241 618.2335 619.223 620.0507 620.7354 621.5768 623.2156 626.8672 632.0267 638.4132 646.0478 653.7056 659.8547 663.8132 665.717 -9999 -9999 -9999 -9999 -9999 -9999 -9999 -9999 -9999 -9999 -9999 -9999 -9999 -9999 -9999 -9999 -9999
-9999 -9999 -9999 -9999 -9999 -9999 -9999 -9999 -9999 -9999 -9999 -9999 -9999 -9999 -9999 -9999 -9999 -9999 -9999 -9999 -9999 -9999 643.1652 642.23 641.018 639.437 637.813 636.4683 635.7302 635.4666 635.1804 633.6939 631.9728 631.8961 630.8104 629.5908 628.3959 627.1479 625.5892 623.9045 622.2524 620.799 619.4847 618.2964 617.2213 616.3538 615.6703 615.1631 614.8348 614.6954 614.7036 614.8235 615.0006 615.2311 615.5081 615.829 616.0026 616.1475 616.4343 616.9387 617.1436 617.2069 617.227 617.239 617.254 617.2394 617.0239 616.1854 615.0085 613.6669 612.2969 611.0905 609.8978 608.5662 606.8968 604.6165 602.2542 600.2491 598.7449 597.7521 597.1473 596.6141 596.2055 595.9713 595.9417 596.1722 596.736 597.7457 599.1633 600.4847 601.5594 602.0995 602.2936 602.2137 601.9285 601.5373 600.9961 600.7955 600.9208 601.4087 602.2651 603.777 605.9587 608.6077 611.6199 614.2372 616.4606 617.8619 618.8109 619.6576 620.4645 621.2529 622.1307 623.542 627.1302 632.2826 638.4348 645.9484 653.6685 660.0029 663.9855 665.71 -9999 -9999 -9999 -9999 -9999 -9999 -9999 -9999 -9999 -9999 -9999 -9999 -9999 -9999 -9999 -9999 -9999
-9999 -9999 -9999 -9999 -9999 -9999 -9999 -9999 -9999 -9999 -9999 -9999 -9999 -9999 -9999 -9999 -9999 -9999 -9999 -9999 -9999 -9999 -9999 644.8323 643.5381 641.6653 639.6857 637.8923 636.5773 636.184 636.0666 634.9697 633.0507 632.0574 630.9704 629.7783 628.5338 627.1805 625.5894 623.8893 622.2407 620.8203 619.5076 618.2834 617.2028 616.3921 615.8048 615.407 615.1825 615.1459 615.2663 615.4958 615.774 616.1373 616.5161 617.0239 617.21 617.3243 617.5757 618.1443 618.4106 618.4958 618.4885 618.4344 618.3638 618.2407 617.9191 617.1545 615.9699 614.4612 612.7838 611.4334 610.0956 608.635 606.8823 604.6035 602.2975 600.45 599.1038 598.2136 597.6405 597.1684 596.6538 596.1621 595.7194 595.4469 595.5016 596.0371 597.07 598.2591 599.1523 599.5874 599.7153 599.6692 599.5258 599.34 599.2317 599.585 600.3634 601.4217 602.6196 604.5138 606.9241 609.6721 612.3655 614.8228 616.9243 618.2186 619.1167 619.9132 620.7781 621.7029 622.7589 623.9395 627.3959 632.5233 638.2319 645.5699 653.2755 659.6927 663.7126 665.715 -9999 -9999 -9999 -9999 -9999 -9999 -9999 -9999 -9999 -9999 -9999 -9999 -9999 -9999 -9999 -9999 -9999
-9999 -9999 -9999 -9999 -9999 -9999 -9999 -9999 -9999 -9999 -9999 -9999 -9999 -9999 -9999 -9999 -9999 -9999 -9999 -9999 -9999 -9999 -9999 -9999 -9999 -9999 -9999 -9999 638.2039 637.3938 637.048 635.7217 633.7139 632.3389 631.0703 629.8147 628.5411 627.1673 625.584 623.9071 622.2831 620.9346 619.6083 618.3228 617.2087 616.4799 615.9968 615.7092 615.5773 615.6405 615.8864 616.2399 616.5781 617.0878 617.4924 618.1672 618.5343 618.8078 619.0986 619.4766 619.7025 619.7842 619.7499 619.6174 619.4482 619.2155 618.8254 618.125 617.0646 615.5861 613.838 612.1382 610.5286 608.8677 606.9843 604.7287 602.4535 600.7424 599.5115 598.6814 598.1244 597.6676 597.1754 596.5464 595.7525 595.0107 594.5042 594.4396 594.9684 596.0162 596.6898 596.9736 597.0433 597.0555 597.1032 597.213 597.5293 598.492 599.9891 601.7246 603.2646 605.2404 607.6767 610.5685 612.8961 615.0558 616.9961 618.2242 619.1172 619.8335 620.5552 621.3685 622.3946 624.0814 627.2859 631.9575 637.6937 645.0771 652.8427 659.3664 663.5331 665.7666 -9999 -9999 -9999 -9999 -9999 -9999 -9999 -9999 -9999 -9999 -9999 -9999 -9999 -9999 -9999 -9999 -9999
-9999 -9999 -9999 -9999 -9999 -9999 -9999 -9999 -9999 -9999 -9999 -9999 -9999 -9999 -9999 -9999 -9999 -9999 -9999 -9999 -9999 -9999 -9999 -9999 -9999 -9999 -9999 -9999 640.1453 638.541 637.5952 636.2712 634.3292 632.6582 631.1477 629.7847 628.4946 627.1584 625.6415 624.0478 622.4975 621.2711 619.9014 618.5298 617.3427 616.7068 616.2958 616.0772 616.0184 616.162 616.5479 617.0701 617.4167 618.1147 618.774 619.4343 619.9342 620.3683 620.6573 620.8766 621.0035 621.0425 620.9613 620.7109 620.451 620.1294 619.7168 619.0787 618.1487 616.8497 615.0868 613.0808 611.2517 609.4103 607.411 605.2343 602.9644 601.3052 600.0865 599.2328 598.6459 598.1696 597.6631 597.0263 595.9757 594.8455 593.793 593.0455 592.9245 593.6376 594.142 594.3549 594.4269 594.5544 594.9161 595.4832 596.3239 597.6578 599.6785 601.8392 603.6874 605.7267 608.0972 611.022 613.1994 615.1633 616.9341 618.0432 618.9801 619.6985 620.3165 621.0683 622.1969 624.1011 627.1687 631.5831 637.3383 644.7641 652.5749 659.1816 663.4719 665.7108 -9999 -9999 -9999 -9999 -9999 -9999 -9999 -9999 -9999 -9999 -9999 -9999 -9999 -9999 -9999 -9999 -9999
-9999 -9999 -9999 -9999 -9999 -9999 -9999 -9999 -9999 -9999 -9999 -9999 -9999 -9999 -9999 -9999 -9999 -9999 -9999 -9999 -9999 -9999 -9999 -9999 -9999 -9999 -9999 -9999 642.4637 640.1244 638.4784 637.0652 634.9227 632.7341 631.0916 629.697 628.4269 627.164 625.7767 624.3542 623.0134 621.8499 620.3694 618.9694 617.8473 617.174 616.7397 616.5661 616.5349 616.6945 617.1984 617.8719 618.5586 619.4144 620.2255 620.835 621.3387 621.9003 622.1397 622.2246 622.2451 622.219 622.0705 621.6437 621.3437 620.9747 620.5654 619.9814 619.1615 618.015 616.4945 614.5209 612.4036 610.4147 608.3969 606.3168 604.0888 602.2726 600.9084 599.9183 599.2396 598.6941 598.0869 597.3011 596.3303 595.0577 593.6212 592.3279 591.8949 592.091 592.254 592.3314 592.3766 592.5802 593.2687 594.3129 595.6377 597.3325 599.5579 601.8898 603.9069 606.0098 608.3337 611.4105 613.9879 616.1135 617.0613 617.9219 618.8647 619.675 620.2933 621.0156 622.2128 624.2573 627.2682 631.5995 637.3689 644.7217 652.4537 659.0474 663.4211 665.6098 -9999 -9999 -9999 -9999 -9999 -9999 -9999 -9999 -9999 -9999 -9999 -9999 -9999 -9999 -9999 -9999 -9999
-9999 -9999 -9999 -9999 -9999 -9999 -9999 -9999 -9999 -9999 -9999 -9999 -9999 -9999 -9999 -9999 -9999 -9999 -9999 -9999 -9999 -9999 -9999 -9999 -9999 -9999 -9999 -9999 645.0956 641.9326 639.6696 637.774 635.4864 632.9553 631.1228 629.6545 628.3795 627.1737 625.9198 624.6154 623.3336 622.1044 620.6885 619.3747 618.3318 617.6398 617.228 617.1723 617.1765 617.314 617.965 618.8295 619.8004 620.864 621.8262 622.3137 622.6422 623.1383 623.3929 623.4648 623.4224 623.267 622.8926 622.3486 622.1204 621.702 621.3549 620.8199 620.0948 619.0422 617.6571 616.0308 613.851 611.7906 609.7028 607.5393 605.3996 603.4972 601.9132 600.7134 599.9312 599.3374 598.6818 597.9241 597.0561 595.7877 594.1698 592.518 591.6408 591.336 591.3318 591.4025 591.4581 591.7002 592.3957 593.7764 595.4429 597.313 599.5751 601.912 603.9417 606.0056 608.3828 611.6058 614.4622 616.641 617.3538 618.1498 619.0018 619.7741 620.4755 621.2214 622.4597 624.6971 627.6373 631.9506 637.7347 644.8034 652.2849 658.6495 662.8109 665.3947 -9999 -9999 -9999 -9999 -9999 -9999 -9999 -9999 -9999 -9999 -9999 -9999 -9999 -9999 -9999 -9999 -9999
-9999 -9999 -9999 -9999 -9999 -9999 -9999 -9999 -9999 -9999 -9999 -9999 -9999 -9999 -9999 -9999 -9999 -9999 -9999 -9999 -9999 -9999 -9999 -9999 -9999 -9999 -9999 -9999 647.6565 643.8778 640.8729 638.4959 636.0262 633.3099 631.2682 629.6964 628.3912 627.2086 626.0859 624.8242 623.4932 622.1768 620.8596 619.6949 618.7849 618.1804 617.8722 617.8462 617.963 618.2843 618.9847 619.9647 621.129 622.3671 623.436 624.0043 624.2803 624.4968 624.6016 624.6014 624.4874 624.2216 623.7764 623.2385 622.8096 622.3243 622.1161 621.6113 621.0169 620.0292 618.7158 617.4305 615.748 613.5851 611.4069 609.168 606.9573 604.9146 602.9281 601.5507 600.6941 600.0919 599.3516 598.5919 597.8353 596.826 595.2664 593.4527 592.0728 591.3416 591.2384 591.3063 591.2827 591.5062 592.2592 593.7925 595.658 597.4927 599.6786 601.947 603.9501 605.9855 608.3787 611.6514 614.6229 616.8707 617.8199 618.5381 619.2798 620.0405 620.7875 621.6188 622.9711 625.447 628.189 632.4155 638.0979 644.8797 652.0521 658.1253 661.9598 665.046 -9999 -9999 -9999 -9999 -9999 -9999 -9999 -9999 -9999 -9999 -9999 -9999 -9999 -9999 -9999 -9999 -9999
-9999 -9999 -9999 -9999 -9999 -9999 -9999 -9999 -9999 -9999 -9999 -9999 -9999 -9999 -9999 -9999 -9999 -9999 -9999 -9999 -9999 -9999 -9999 -9999 -9999 -9999 -9999 -9999 649.3803 645.2352 641.84 639.0851 636.3202 633.5049 631.4239 629.8247 628.5198 627.3631 626.3849 625.0745 623.6145 622.1973 620.9724 619.9753 619.234 618.7683 618.5837 618.655 618.9098 619.3893 620.1594 621.2384 622.5693 624.0238 625.174 625.71 625.8442 625.7742 625.7046 625.6284 625.469 625.1516 624.6959 624.1703 623.6777 623.2037 622.8392 622.3499 622.0052 621.1453 620.0468 618.8936 617.4798 615.7037 613.4396 611.0912 608.7212 606.6858 604.3966 602.5853 601.5168 600.8838 599.9822 599.2183 598.5159 597.6683 596.424 594.5134 592.705 591.7718 591.7131 591.7084 591.4292 591.5601 592.3232 593.9892 596.041 597.7347 599.7894 601.9973 604.0227 606.0762 608.4433 611.6634 614.6052 616.8796 617.9792 618.8052 619.5834 620.3915 621.2282 622.1456 623.6427 625.923 628.7159 632.8947 638.4481 645.0298 652.0381 658.1878 662.566 665.3281 -9999 -9999 -9999 -9999 -9999 -9999 -9999 -9999 -9999 -9999 -9999 -9999 -9999 -9999 -9999 -9999 -9999
-9999 -9999 -9999 -9999 -9999 -9999 -9999 -9999 -9999 -9999 -9999 -9999 -9999 -9999 -9999 -9999 -9999 -9999 -9999 -9999 -9999 -9999 -9999 -9999 -9999 -9999 -9999 -9999 650.1311 645.7906 642.1714 639.2345 636.4407 633.6599 631.6619 630.0777 628.8227 627.8069 626.8904 625.4082 623.7849 622.2581 621.1346 620.3037 619.7363 619.4227 619.3695 619.5697 619.9792 620.6135 621.4481 622.6454 624.1767 625.6633 626.7795 627.1374 627.0911 626.7465 626.5856 626.504 626.3609 626.0243 625.5999 625.1027 624.6133 624.1434 623.7188 623.2719 622.844 622.1505 621.2253 620.2123 619.0072 617.5272 615.6714 613.311 610.8433 608.3953 605.9906 603.8702 602.274 601.276 600.3925 599.661 599.009 598.2672 597.2101 595.6035 593.7587 592.3972 592.2853 591.7336 591.3778 591.5359 592.321 593.9446 595.8173 597.5894 599.7539 602.04 604.1949 606.3561 608.7029 611.7497 614.5381 616.8016 617.906 618.9122 619.8165 620.7159 621.6047 622.651 624.3922 626.6768 629.5037 633.4811 638.8148 645.2244 652.162 658.3735 663.0875 665.6307 -9999 -9999 -9999 -9999 -9999 -9999 -9999 -9999 -9999 -9999 -9999 -9999 -9999 -9999 -9999 -9999 -9999
-9999 -9999 -9999 -9999 -9999 -9999 -9999 -9999 -9999 -9999 -9999 -9999 -9999 -9999 -9999 -9999 -9999 -9999 -9999 -9999 -9999 -9999 -9999 -9999 -9999 -9999 -9999 -9999 650.2186 645.8243 642.139 639.3684 636.8612 634.2437 632.0547 630.3492 629.0595 628.0529 627.0894 625.6705 624.0637 622.5099 621.4932 620.7816 620.3618 620.1775 620.228 620.5497 621.1236 621.9588 622.855 624.2303 625.689 626.8881 627.5868 627.8015 627.6458 627.2615 627.2018 627.2012 627.1425 626.7682 626.4311 625.9757 625.5323 625.0719 624.6193 624.1475 623.6412 622.9961 622.2067 621.3087 620.2808 619.0543 617.5394 615.6334 613.2109 610.6355 607.9722 605.4677 603.2734 601.8414 600.8002 600.0131 599.3735 598.7435 597.9491 596.7468 594.9366 593.0436 592.1757 591.5036 591.1976 591.4427 592.2969 593.8895 595.6525 597.4837 599.7291 602.1143 604.4528 606.8182 609.2411 611.9748 614.5247 616.8302 618.1317 619.1191 620.0313 620.9915 622.1021 623.5104 625.3651 627.5467 630.3441 634.1206 639.1902 645.4889 652.5131 658.7785 663.4839 665.8824 -9999 -9999 -9999 -9999 -9999 -9999 -9999 -9999 -9999 -9999 -9999 -9999 -9999 -9999 -9999 -9999 -9999
-9999 -9999 -9999 -9999 -9999 -9999 -9999 -9999 -9999 -9999 -9999 -9999 -9999 -9999 -9999 -9999 -9999 -9999 -9999 -9999 -9999 -9999 -9999 -9999 -9999 -9999 -9999 -9999 650.0062 645.6356 641.953 639.2394 636.8927 634.5214 632.229 630.4427 629.1217 628.1094 627.1644 625.9921 624.6198 623.2504 622.1988 621.4802 621.1638 621.0674 621.1445 621.4927 622.2548 623.3137 624.4722 625.7703 626.897 627.4556 627.9396 628.1261 628.0457 627.8357 627.7553 627.7076 627.5679 627.2482 627.1332 626.7179 626.3757 625.9343 625.4878 624.9784 624.419 623.7944 623.0885 622.2576 621.3351 620.2968 619.0566 617.5186 615.5811 613.1068 610.4008 607.5892 604.9724 602.8444 601.3854 600.3673 599.6534 599.0813 598.4823 597.6223 596.2515 594.2402 592.5937 591.6113 591.1769 591.3899 592.267 593.8115 595.5251 597.4212 599.7247 602.1793 604.6359 607.1138 609.6167 612.2374 614.7628 616.9683 618.3424 619.3491 620.2517 621.2562 622.519 624.3885 626.4746 628.5831 631.2474 634.8101 639.5677 645.677 652.8218 659.2263 663.7951 665.9965 -9999 -9999 -9999 -9999 -9999 -9999 -9999 -9999 -9999 -9999 -9999 -9999 -9999 -9999 -9999 -9999 -9999
-9999 -9999 -9999 -9999 -9999 -9999 -9999 -9999 -9999 -9999 -9999 -9999 -9999 -9999 -9999 -9999 -9999 -9999 -9999 -9999 -9999 -9999 -9999 -9999 -9999 -9999 -9999 -9999 -9999 645.3864 641.7235 638.979 636.6158 634.0087 631.9371 630.2844 629.0453 628.1045 627.2698 626.4606 625.3844 624.1927 623.137 622.3714 622.1621 622.1356 622.1953 622.5154 623.4744 624.6796 625.9106 627.0133 627.6798 627.9696 628.2341 628.3774 628.3817 628.3096 628.2562 628.1819 628.0244 627.7823 627.5851 627.2542 627.119 626.6881 626.3126 625.7952 625.2303 624.6631 624.004 623.2114 622.2966 621.3331 620.258 618.9619 617.3667 615.4125 612.872 609.9165 606.932 604.2637 602.1353 600.7198 599.8446 599.275 598.7906 598.1754 597.1248 595.4442 593.593 592.1531 591.3851 591.3663 592.0789 593.3127 595.1235 597.2687 599.6677 602.175 604.6727 607.2087 609.7635 612.3732 614.9099 617.0686 618.4918 619.5397 620.5168 621.649 623.1154 625.3011 627.4109 629.5251 632.0878 635.4806 640.0069 645.8029 652.8387 659.317 663.7331 665.7436 -9999 -9999 -9999 -9999 -9999 -9999 -9999 -9999 -9999 -9999 -9999 -9999 -9999 -9999 -9999 -9999 -9999
-9999 -9999 -9999 -9999 -9999 -9999 -9999 -9999 -9999 -9999 -9999 -9999 -9999 -9999 -9999 -9999 -9999 -9999 -9999 -9999 -9999 -9999 -9999 -9999 -9999 -9999 -9999 -9999 -9999 645.1943 641.5635 638.7106 636.1896 633.7753 631.6592 630.0816 628.9703 628.2001 627.6243 627.1166 626.2911 625.265 624.2777 623.572 623.3309 623.3163 623.4459 623.8684 624.8137 625.9855 627.0751 627.8459 628.2618 628.431 628.5591 628.6628 628.7198 628.7341 628.7253 628.6609 628.5143 628.3131 628.1136 627.8712 627.6564 627.2828 627.1014 626.6091 626.1613 625.6088 624.9861 624.2169 623.3146 622.2997 621.2361 620.0133 618.5471 616.8636 614.921 611.9092 608.6323 605.5231 602.7166 600.9451 599.9177 599.3367 598.9421 598.4964 597.7758 596.5323 594.6238 592.7839 591.7086 591.33 591.6626 592.6584 594.6494 597.0422 599.4962 602.0162 604.4841 607.0589 609.6461 612.3171 614.8914 617.0755 618.5413 619.6645 620.7783 622.1558 624.0177 626.3474 628.3735 630.3977 632.7985 636.0381 640.3965 645.9932 652.7179 659.0003 663.203 664.7402 -9999 -9999 -9999 -9999 -9999 -9999 -9999 -9999 -9999 -9999 -9999 -9999 -9999 -9999 -9999 -9999 -9999
-9999 -9999 -9999 -9999 -9999 -9999 -9999 -9999 -9999 -9999 -9999 -9999 -9999 -9999 -9999 -9999 -9999 -9999 -9999 -9999 -9999 -9999 -9999 -9999 -9999 -9999 -9999 -9999 -9999 645.277 641.7198 638.7948 636.0009 633.2947 631.3637 629.9489 628.9767 628.3442 627.9249 627.5844 627.1023 626.2894 625.4032 624.7611 624.5872 624.6085 624.7416 625.1416 626.0538 627.098 627.9041 628.4401 628.7204 628.8441 628.9415 629.0291 629.1079 629.1666 629.1927 629.1522 629.0306 628.8645 628.7019 628.5292 628.3287 628.0356 627.7475 627.3056 627.0673 626.5308 626.0063 625.2695 624.4017 623.3268 622.1295 620.8428 619.3077 617.585 615.9662 613.056 609.8316 606.2822 603.0338 601.0176 599.8784 599.2946 598.9764 598.6802 598.1659 597.2122 595.6592 593.7955 592.2476 591.4833 591.5081 592.3714 594.3011 596.7443 599.1168 601.5695 603.9473 606.5609 609.1798 611.9855 614.6205 616.9051 618.42 619.6335 620.8812 622.4235 624.5531 626.9319 629.0165 631.043 633.2695 636.3414 640.5822 646.0552 652.5599 658.452 662.2635 663.4756 -9999 -9999 -9999 -9999 -9999 -9999 -9999 -9999 -9999 -9999 -9999 -9999 -9999 -9999 -9999 -9999 -9999
-9999 -9999 -9999 -9999 -9999 -9999 -9999 -9999 -9999 -9999 -9999 -9999 -9999 -9999 -9999 -9999 -9999 -9999 -9999 -9999 -9999 -9999 -9999 -9999 -9999 -9999 -9999 -9999 -9999 645.8151 642.4869 639.6492 636.7064 633.7137 631.6663 630.2089 629.2307 628.6086 628.2063 627.9102 627.5891 627.1038 626.3853 625.8523 625.8581 625.9256 625.9971 626.2444 627.0873 627.9277 628.5157 628.868 629.077 629.2156 629.3541 629.4712 629.5618 629.6285 629.6682 629.6503 629.5602 629.4385 629.3354 629.2386 629.0956 628.8552 628.5366 628.139 627.7925 627.3249 627.032 626.374 625.5921 624.4271 622.997 621.7165 620.1797 618.3478 616.3146 613.2393 609.843 606.1841 602.9465 600.9203 599.7588 599.1898 598.9441 598.7806 598.4914 597.8663 596.7368 594.9325 592.9399 591.8092 591.5667 592.2557 593.9301 596.246 598.4478 600.7562 603.0701 605.703 608.363 611.3208 613.9883 616.4077 618.0471 619.422 620.8292 622.5178 624.7842 627.1635 629.2612 631.2365 633.3906 636.2942 640.3739 645.7085 652.0374 657.6506 661.055 661.7662 -9999 -9999 -9999 -9999 -9999 -9999 -9999 -9999 -9999 -9999 -9999 -9999 -9999 -9999 -9999 -9999 -9999
-9999 -9999 -9999 -9999 -9999 -9999 -9999 -9999 -9999 -9999 -9999 -9999 -9999 -9999 -9999 -9999 -9999 -9999 -9999 -9999 -9999 -9999 -9999 -9999 -9999 -9999 -9999 -9999 -9999 646.8848 643.9073 641.3477 638.4836 635.2672 632.8036 631.0453 629.8655 629.0992 628.5769 628.2102 627.922 627.6027 627.2222 627.0784 627.0858 627.1174 627.1271 627.2436 627.8733 628.5643 628.9883 629.1918 629.3335 629.5189 629.7621 629.9312 630.0345 630.0955 630.1355 630.0351 630.0883 630.0211 629.9918 629.9836 629.9176 629.724 629.4015 629.0033 628.6177 628.2322 627.9097 627.4033 626.905 625.8019 624.3444 622.7131 620.8658 618.5054 615.8251 612.3849 608.7036 605.2456 602.488 600.7021 599.6257 599.0795 598.8789 598.8204 598.7082 598.3577 597.5686 596.1722 594.0524 592.3309 591.7162 592.1227 593.3666 595.4563 597.6728 600.0656 602.4781 605.078 607.7028 610.493 613.0649 615.5193 617.4408 619.0808 620.6876 622.5278 624.8652 627.2176 629.2635 631.1445 633.2145 635.9337 639.7623 644.8586 651.0307 656.4622 659.538 659.9531 -9999 -9999 -9999 -9999 -9999 -9999 -9999 -9999 -9999 -9999 -9999 -9999 -9999 -9999 -9999 -9999 -9999
-9999 -9999 -9999 -9999 -9999 -9999 -9999 -9999 -9999 -9999 -9999 -9999 -9999 -9999 -9999 -9999 -9999 -9999 -9999 -9999 -9999 -9999 -9999 -9999 -9999 -9999 -9999 -9999 -9999 648.3829 645.8757 643.5747 640.937 637.826 634.7076 632.4711 630.9293 629.8932 629.1461 628.6149 628.2638 628.0057 627.7777 627.6431 627.558 627.6548 627.7526 627.9628 628.4849 629.0739 629.3876 629.4501 629.5121 629.7241 630.1183 630.3546 630.4735 630.5244 630.562 630.4199 630.5978 630.5923 630.6453 630.7356 630.7538 630.6077 630.286 629.8672 629.4607 629.1178 628.8374 628.5128 628.0697 627.1329 625.6342 623.6553 621.2165 617.999 614.5836 610.9589 607.2916 604.064 601.9392 600.4965 599.5562 599.0214 598.8153 598.8032 598.808 598.6516 598.123 596.993 595.0597 592.9451 591.875 591.809 592.7057 594.8453 597.2124 599.6995 602.217 604.7813 607.3447 609.9354 612.4125 614.8102 616.9622 618.7327 620.4974 622.4826 624.8596 627.1877 629.1198 630.8635 632.783 635.323 638.8781 643.6624 649.7032 655.0604 658.0703 658.3002 -9999 -9999 -9999 -9999 -9999 -9999 -9999 -9999 -9999 -9999 -9999 -9999 -9999 -9999 -9999 -9999 -9999
-9999 -9999 -9999 -9999 -9999 -9999 -9999 -9999 -9999 -9999 -9999 -9999 -9999 -9999 -9999 -9999 -9999 -9999 -9999 -9999 -9999 -9999 -9999 -9999 -9999 -9999 -9999 -9999 -9999 649.7582 647.7303 645.7772 643.4491 640.5588 637.2546 634.4288 632.4155 631.0363 629.9939 629.2272 628.7189 628.4027 628.1969 628.0642 627.9871 628.0533 628.2059 628.5041 629.0057 629.5442 629.7827 629.712 629.6412 629.7833 630.217 630.6943 630.8647 630.9036 630.9471 630.8047 631.0826 631.1359 631.2694 631.4612 631.5721 631.4745 631.1483 630.6926 630.2544 629.9204 629.6731 629.4282 629.0212 628.1404 626.5911 624.0358 620.8768 616.9344 612.923 609.1873 605.8458 603.2142 601.6081 600.4409 599.5829 599.0306 598.7697 598.7405 598.8047 598.7769 598.4658 597.6415 596.1403 593.9033 592.2457 591.74 592.3828 594.3878 596.9321 599.5157 602.1141 604.6483 607.1459 609.5258 611.8461 614.0847 616.3642 618.2482 620.1804 622.3174 624.7119 627.0603 628.8773 630.4655 632.2347 634.5994 637.9403 642.4606 648.3043 653.4142 656.1716 656.8192 -9999 -9999 -9999 -9999 -9999 -9999 -9999 -9999 -9999 -9999 -9999 -9999 -9999 -9999 -9999 -9999 -9999
-9999 -9999 -9999 -9999 -9999 -9999 -9999 -9999 -9999 -9999 -9999 -9999 -9999 -9999 -9999 -9999 -9999 -9999 -9999 -9999 -9999 -9999 -9999 -9999 -9999 -9999 -9999 -9999 -9999 -9999 649.0737 647.5812 645.6552 643.1977 640.0605 636.7487 634.2894 632.5636 631.1837 630.1122 629.3595 628.8643 628.5775 628.4347 628.3683 628.4177 628.6201 629.0005 629.5842 630.1276 630.2839 630.0759 629.8623 629.9263 630.4149 631.152 631.2909 631.276 631.3125 631.4319 631.1896 631.6431 631.8445 632.1359 632.3477 632.3079 631.9775 631.4679 630.9655 630.5961 630.3442 630.0853 629.6337 628.6479 626.8118 623.7493 619.8812 615.3598 611.0726 607.3886 604.3445 602.7421 601.5322 600.5082 599.6642 599.0491 598.7103 598.6307 598.7075 598.77 598.6151 598.0233 596.777 594.6735 592.6882 591.8748 592.2782 594.0936 596.7054 599.3113 601.9402 604.4243 606.8704 609.0199 611.0902 613.1265 615.4255 617.5367 619.6622 621.9147 624.2864 626.737 628.5102 630.0098 631.676 633.9389 637.1603 641.5535 647.2047 651.9934 654.2553 655.8322 -9999 -9999 -9999 -9999 -9999 -9999 -9999 -9999 -9999 -9999 -9999 -9999 -9999 -9999 -9999 -9999 -9999
-9999 -9999 -9999 -9999 -9999 -9999 -9999 -9999 -9999 -9999 -9999 -9999 -9999 -9999 -9999 -9999 -9999 -9999 -9999 -9999 -9999 -9999 -9999 -9999 -9999 -9999 -9999 -9999 -9999 -9999 649.996 648.8088 647.288 645.5634 643.0089 639.8124 636.7192 634.5831 632.7759 631.3081 630.2235 629.4405 628.9744 628.7885 628.744 628.7975 629.0422 629.5251 630.2468 630.9686 631.1036 630.7155 630.434 630.5327 631.0079 631.6733 631.7885 631.6816 631.6904 631.8434 631.5744 632.0988 632.3605 632.7483 633.0736 633.1136 632.7936 632.2228 631.6205 631.1564 630.8381 630.5053 629.9226 628.7391 626.5475 622.9084 618.3977 613.5811 609.2958 606.0231 603.3908 602.486 601.4429 600.486 599.6492 598.9896 598.5779 598.4456 598.5246 598.6556 598.6323 598.2318 597.2192 595.4866 593.4672 592.1848 592.2238 593.7388 596.3421 598.8818 601.4709 603.8792 606.3273 608.3773 610.384 612.4257 614.6608 616.9204 619.0261 621.2131 623.5085 626.125 627.9756 629.514 631.1756 633.4149 636.5969 640.9191 646.4924 651.4299 654.4171 655.8594 -9999 -9999 -9999 -9999 -9999 -9999 -9999 -9999 -9999 -9999 -9999 -9999 -9999 -9999 -9999 -9999 -9999
-9999 -9999 -9999 -9999 -9999 -9999 -9999 -9999 -9999 -9999 -9999 -9999 -9999 -9999 -9999 -9999 -9999 -9999 -9999 -9999 -9999 -9999 -9999 -9999 -9999 -9999 -9999 -9999 -9999 -9999 -9999 649.6483 648.1776 647.4138 645.8145 643.0842 639.9039 637.1752 634.7745 632.797 631.2849 630.1601 629.4326 629.1453 629.125 629.1908 629.4546 630.024 630.9336 631.9945 632.3143 631.8757 631.8849 632.6801 633.3606 633.2318 632.754 632.2663 632.1238 632.2603 631.9592 632.5396 632.8409 633.3241 633.7786 633.9325 633.6535 633.0306 632.2971 631.6764 631.2098 630.7471 629.9807 628.5552 626.0409 621.9435 616.9649 611.9814 607.8839 605.0294 602.5216 601.478 600.8089 600.0831 599.3789 598.7608 598.3309 598.1688 598.257 598.462 598.5792 598.4008 597.7131 596.3698 594.2128 592.3894 592.1024 593.2168 595.7541 598.1626 600.6174 602.9799 605.4432 607.6052 609.6984 611.7783 613.8878 616.2205 618.3146 620.5215 622.8322 625.3512 627.3646 629.0182 630.751 633.045 636.2637 640.5699 646.0107 650.9227 654.1659 655.9133 -9999 -9999 -9999 -9999 -9999 -9999 -9999 -9999 -9999 -9999 -9999 -9999 -9999 -9999 -9999 -9999 -9999
-9999 -9999 -9999 -9999 -9999 -9999 -9999 -9999 -9999 -9999 -9999 -9999 -9999 -9999 -9999 -9999 -9999 -9999 -9999 -9999 -9999 -9999 -9999 -9999 -9999 -9999 -9999 -9999 -9999 -9999 -9999 650.5334 649.893 649.5107 648.4821 646.2733 643.257 640.0316 637.0374 634.5026 632.5022 630.9709 629.9643 629.5502 629.5266 629.5776 629.8012 630.3689 631.3312 632.5912 633.6464 633.5101 634.5801 636.1329 636.8329 635.7171 634.2062 633.0957 632.7152 632.811 632.3441 632.9833 633.3322 633.94 634.5579 634.865 634.6714 634.0135 633.1261 632.2796 631.5886 630.8939 629.8945 628.1788 625.3391 620.8428 615.4977 610.3674 606.3763 603.4136 601.3693 600.2985 599.7494 599.3129 598.8409 598.3501 597.9647 597.8088 597.919 598.1985 598.4542 598.4791 598.055 596.9615 594.9664 592.8071 592.1957 593.1062 595.1799 597.4775 599.9343 602.3829 604.8602 607.1188 609.1152 611.0159 612.9548 615.2888 617.5677 619.9614 622.3947 624.8488 626.9643 628.6047 630.3851 632.7793 636.1028 640.444 645.7092 650.3812 653.6316 655.5945 -9999 -9999 -9999 -9999 -9999 -9999 -9999 -9999 -9999 -9999 -9999 -9999 -9999 -9999 -9999 -9999 -9999
-9999 -9999 -9999 -9999 -9999 -9999 -9999 -9999 -9999 -9999 -9999 -9999 -9999 -9999 -9999 -9999 -9999 -9999 -9999 -9999 -9999 -9999 -9999 -9999 -9999 -9999 -9999 -9999 -9999 -9999 -9999 -9999 651.1624 651.0405 650.5035 649.0421 646.4189 643.0887 639.5372 636.4192 633.8687 631.8737 630.533 629.9818 629.9751 630.0355 630.1503 630.6328 631.5688 632.8595 634.2495 635.5167 637.8138 640.0071 640.6645 638.7984 636.0128 634.1491 633.5079 633.5699 632.7289 633.4333 633.9229 634.7556 635.6008 636.102 636.0422 635.3627 634.2881 633.1391 632.141 631.128 629.7753 627.6907 624.4761 619.6556 614.2046 609.1583 605.2939 602.469 600.5327 599.3649 598.7786 598.4654 598.1744 597.8279 597.5198 597.3967 597.5378 597.8845 598.2599 598.4603 598.2759 597.4805 595.9221 593.5762 592.2855 593.2062 595.0649 597.2283 599.649 602.1362 604.6047 606.8882 608.7582 610.5308 612.4288 614.735 617.1591 619.6423 622.1285 624.4684 626.5503 628.1358 629.9851 632.5214 636.0213 640.5123 645.6416 649.8873 652.8223 654.7467 -9999 -9999 -9999 -9999 -9999 -9999 -9999 -9999 -9999 -9999 -9999 -9999 -9999 -9999 -9999 -9999 -9999
-9999 -9999 -9999 -9999 -9999 -9999 -9999 -9999 -9999 -9999 -9999 -9999 -9999 -9999 -9999 -9999 -9999 -9999 -9999 -9999 -9999 -9999 -9999 -9999 -9999 -9999 -9999 -9999 -9999 -9999 -9999 -9999 -9999 652.3792 652.2946 651.452 649.3188 646.2027 642.4808 638.6765 635.4739 632.9298 631.1666 630.4113 630.475 630.6391 630.6598 631.0905 632.1415 633.6834 635.6386 638.2643 641.2673 643.598 643.9327 641.8459 638.4521 635.5391 634.454 633.1137 633.5437 633.8249 634.7844 636.0415 637.2106 637.9316 638.0498 637.3539 636.0326 634.4715 633.0977 631.6594 629.8492 627.2794 623.6206 618.6207 613.2485 608.3648 604.5505 601.9557 600.1056 598.7872 598.043 597.7079 597.5048 597.2733 597.0494 596.9708 597.1445 597.5443 598.011 598.3475 598.354 597.8107 596.5375 594.3387 593.0164 593.9008 595.5272 597.4241 599.7617 602.1784 604.5823 606.8229 608.6204 610.3496 612.2503 614.5411 617.0077 619.4839 621.9257 624.0407 625.8962 627.5194 629.5016 632.1913 635.8674 640.5593 645.5711 649.2833 652.1505 654.3204 -9999 -9999 -9999 -9999 -9999 -9999 -9999 -9999 -9999 -9999 -9999 -9999 -9999 -9999 -9999 -9999 -9999
-9999 -9999 -9999 -9999 -9999 -9999 -9999 -9999 -9999 -9999 -9999 -9999 -9999 -9999 -9999 -9999 -9999 -9999 -9999 -9999 -9999 -9999 -9999 -9999 -9999 -9999 -9999 -9999 -9999 -9999 -9999 -9999 -9999 654.0461 654.186 653.5893 651.7932 649.0545 645.4929 641.4089 637.5002 634.3221 631.9775 630.8171 630.7841 631.241 631.3377 631.9833 633.4727 635.6342 638.4548 641.5657 644.3712 645.9982 645.3183 643.9393 640.785 637.5579 635.415 634.3349 633.4985 634.6999 636.383 638.202 639.772 640.7051 641.0392 640.3218 638.7098 636.5891 634.7539 632.7375 630.3508 627.232 623.1499 617.9844 612.637 607.8725 603.9348 601.4302 599.7604 598.3605 597.4758 597.0585 596.8781 596.7299 596.588 596.5611 596.7654 597.2012 597.7267 598.1538 598.2883 597.9188 596.85 594.8848 593.6764 594.8671 596.3613 598.0163 600.2908 602.5347 604.7875 606.9073 608.7231 610.4926 612.4016 614.6959 617.0912 619.4738 621.8118 623.7254 625.4375 627.114 629.0773 631.8437 635.6534 640.7133 645.6082 648.8347 651.7502 654.1214 -9999 -9999 -9999 -9999 -9999 -9999 -9999 -9999 -9999 -9999 -9999 -9999 -9999 -9999 -9999 -9999 -9999
-9999 -9999 -9999 -9999 -9999 -9999 -9999 -9999 -9999 -9999 -9999 -9999 -9999 -9999 -9999 -9999 -9999 -9999 -9999 -9999 -9999 -9999 -9999 -9999 -9999 -9999 -9999 -9999 -9999 -9999 -9999 -9999 -9999 -9999 655.7222 655.1605 653.5844 651.3399 648.3526 644.5139 640.3028 636.3936 633.2997 631.5206 631.0519 631.2324 632.1044 633.5233 635.8967 639.0042 642.2767 645.076 646.8047 647.0259 646.6473 645.3455 642.4099 639.3406 637.1146 635.8436 635.8002 637.2305 639.3001 641.5989 643.634 644.837 645.2596 644.5478 642.7575 640.2126 637.4434 634.54 631.4031 627.6092 623.0402 617.6429 612.2667 607.6832 603.557 600.8996 599.1183 597.7654 596.8641 596.4128 596.2572 596.1924 596.1435 596.1823 596.4198 596.8758 597.4302 597.9053 598.1193 597.8811 597.0031 595.3184 594.2773 595.2222 596.9047 598.9044 601.2407 603.3267 605.3243 607.2719 609.2278 611.1439 613.1133 615.4057 617.6058 619.7634 621.9003 623.6356 625.2136 626.8487 628.7379 631.6251 635.6276 640.9214 645.8441 648.9384 651.7352 654.0119 -9999 -9999 -9999 -9999 -9999 -9999 -9999 -9999 -9999 -9999 -9999 -9999 -9999 -9999 -9999 -9999 -9999
-9999 -9999 -9999 -9999 -9999 -9999 -9999 -9999 -9999 -9999 -9999 -9999 -9999 -9999 -9999 -9999 -9999 -9999 -9999 -9999 -9999 -9999 -9999 -9999 -9999 -9999 -9999 -9999 -9999 -9999 -9999 -9999 -9999 -9999 -9999 655.8339 654.3353 652.7076 650.5834 647.4958 643.5868 639.4185 635.7849 633.2909 632.1487 632.3015 633.8008 636.3202 639.6862 643.4144 646.6584 648.5589 648.8744 648.0985 647.3173 645.4794 642.5635 639.6238 637.5692 636.7209 637.4956 639.2658 641.7136 644.4983 646.868 648.0076 648.5589 648.1033 646.5141 643.9965 640.7789 637.086 632.9233 628.2849 623.1495 617.4512 611.9274 607.2523 603.1926 600.4216 598.5336 597.1757 596.2594 595.7772 595.6346 595.6509 595.7098 595.8345 596.1168 596.5847 597.1451 597.6325 597.8851 597.7463 597.0674 595.6433 594.8268 595.6368 597.3919 599.7485 602.15 604.3267 606.2511 608.1842 610.3828 612.5436 614.7348 616.9423 618.9398 620.7919 622.4706 623.9536 625.3162 626.7429 628.5704 631.6483 635.8117 641.2283 646.2927 649.6973 651.9244 653.7079 -9999 -9999 -9999 -9999 -9999 -9999 -9999 -9999 -9999 -9999 -9999 -9999 -9999 -9999 -9999 -9999 -9999
-9999 -9999 -9999 -9999 -9999 -9999 -9999 -9999 -9999 -9999 -9999 -9999 -9999 -9999 -9999 -9999 -9999 -9999 -9999 -9999 -9999 -9999 -9999 -9999 -9999 -9999 -9999 -9999 -9999 -9999 -9999 -9999 -9999 -9999 -9999 -9999 654.4299 653.3026 651.8843 649.7265 646.6802 642.7051 638.7579 635.7542 634.1577 634.3901 636.5195 639.9749 644.1447 648.2166 651.129 651.8474 650.852 649.0286 647.0154 644.7878 641.5953 638.4711 636.4012 636.1022 637.4636 639.6837 642.6237 645.8521 648.332 648.5089 649.4432 649.5896 648.6949 646.7627 643.5267 639.2826 634.3414 628.9475 623.2631 617.28 611.6646 607.0249 602.9974 600.1232 598.1283 596.7236 595.7715 595.2479 595.0956 595.1683 595.329 595.5466 595.8792 596.3522 596.8983 597.3678 597.6165 597.5156 597.0012 595.8347 595.3301 596.295 598.2032 600.8579 603.3036 605.5528 607.6814 609.9236 612.2862 614.629 616.895 618.9786 620.7911 622.4113 623.7567 624.854 625.9692 627.2413 629.1414 632.1494 636.256 641.5245 646.4564 649.6534 651.5245 652.8452 -9999 -9999 -9999 -9999 -9999 -9999 -9999 -9999 -9999 -9999 -9999 -9999 -9999 -9999 -9999 -9999 -9999
-9999 -9999 -9999 -9999 -9999 -9999 -9999 -9999 -9999 -9999 -9999 -9999 -9999 -9999 -9999 -9999 -9999 -9999 -9999 -9999 -9999 -9999 -9999 -9999 -9999 -9999 -9999 -9999 -9999 -9999 -9999 -9999 -9999 -9999 -9999 -9999 -9999 653.4691 652.485 651.1323 648.9259 645.5024 641.5829 638.2894 636.4639 636.865 639.5602 643.6978 648.3817 652.5952 655.1748 654.7736 652.9036 650.4194 647.6567 644.4911 640.6767 637.0933 634.8829 634.8548 636.3835 638.9355 642.2138 645.6658 648.3609 649.2873 649.9894 650.2056 649.2606 648.2055 645.0952 640.4839 634.9992 629.1423 623.0938 616.9009 611.2924 606.8563 602.8466 599.9338 597.8795 596.4335 595.4427 594.8723 594.6936 594.7953 595.0363 595.3407 595.7228 596.197 596.7158 597.1533 597.3629 597.2065 596.6456 595.9708 596.132 597.3859 599.5464 602.1894 604.7839 607.1887 609.6429 612.1392 614.6323 617.0232 619.2188 621.1842 622.8599 624.4001 625.4283 626.1429 627.0063 628.1042 629.9595 632.8931 636.9224 641.7968 646.3893 649.1667 650.3699 651.3907 -9999 -9999 -9999 -9999 -9999 -9999 -9999 -9999 -9999 -9999 -9999 -9999 -9999 -9999 -9999 -9999 -9999
-9999 -9999 -9999 -9999 -9999 -9999 -9999 -9999 -9999 -9999 -9999 -9999 -9999 -9999 -9999 -9999 -9999 -9999 -9999 -9999 -9999 -9999 -9999 -9999 -9999 -9999 -9999 -9999 -9999 -9999 -9999 -9999 -9999 -9999 -9999 -9999 -9999 -9999 -9999 651.3442 650.1215 647.5297 643.9672 640.6164 638.6947 639.2007 642.1586 646.4989 651.1677 655.217 657.6393 656.3494 653.9656 651.0563 647.8045 644.1002 639.9282 636.1095 633.8856 633.8069 635.5422 638.4177 -9999 -9999 -9999 -9999 650.9185 651.3197 650.6364 649.1603 645.7761 640.8491 635.0084 628.8574 622.5273 616.1543 610.5004 606.1326 602.4797 599.7192 597.6973 596.2451 595.2378 594.6368 594.4327 594.5472 594.845 595.2211 595.6465 596.1237 596.6144 597.038 597.2651 597.1838 596.6128 596.3909 597.1587 598.8133 601.2078 603.8987 606.6613 609.1713 611.9175 614.5872 617.1262 619.4163 621.3812 622.9948 624.7963 626.2646 626.9558 627.2669 627.8804 628.917 630.7307 633.5713 637.4441 642.0826 646.3002 648.425 649.1661 649.8712 -9999 -9999 -9999 -9999 -9999 -9999 -9999 -9999 -9999 -9999 -9999 -9999 -9999 -9999 -9999 -9999 -9999
-9999 -9999 -9999 -9999 -9999 -9999 -9999 -9999 -9999 -9999 -9999 -9999 -9999 -9999 -9999 -9999 -9999 -9999 -9999 -9999 -9999 -9999 -9999 -9999 -9999 -9999 -9999 -9999 -9999 -9999 -9999 -9999 -9999 -9999 -9999 -9999 -9999 -9999 -9999 -9999 649.9604 648.4183 645.5623 642.4592 640.5696 640.9686 643.5217 647.1978 650.9886 653.9779 655.3013 654.4084 652.3096 649.5579 646.3782 642.7434 638.7701 635.1189 632.9186 632.9693 635.1603 638.6081 -9999 -9999 -9999 -9999 -9999 652.3777 651.9214 650.0369 646.3557 641.1423 634.9658 628.4692 621.8484 615.3875 609.7825 605.5486 602.1924 599.5825 597.5958 596.1248 595.0997 594.4865 594.277 594.4072 594.7441 595.1722 595.631 596.109 596.5762 596.9823 597.2204 597.1978 596.9239 597.1629 598.3995 600.4143 602.9556 605.8179 608.7184 611.6031 614.4336 617.1249 619.5941 621.677 623.2072 624.3506 626.1248 627.0029 627.5745 627.9684 628.5521 629.5786 631.3665 634.1433 637.8967 642.6481 646.4763 647.9663 648.1008 648.3978 -9999 -9999 -9999 -9999 -9999 -9999 -9999 -9999 -9999 -9999 -9999 -9999 -9999 -9999 -9999 -9999 -9999
-9999 -9999 -9999 -9999 -9999 -9999 -9999 -9999 -9999 -9999 -9999 -9999 -9999 -9999 -9999 -9999 -9999 -9999 -9999 -9999 -9999 -9999 -9999 -9999 -9999 -9999 -9999 -9999 -9999 -9999 -9999 -9999 -9999 -9999 -9999 -9999 -9999 -9999 -9999 650.3391 649.6127 648.2909 646.1305 643.3658 641.5852 641.684 643.1023 645.2706 647.4491 648.9789 649.4258 648.6007 647.036 644.8776 642.3568 639.5451 636.5634 633.7894 632.048 634.0386 636.2406 639.8928 -9999 -9999 -9999 -9999 -9999 654.1467 653.6303 651.3994 647.4056 641.8608 635.2717 628.3637 621.4025 614.8333 609.3369 605.2703 602.1081 599.5985 597.6142 596.0933 595.0275 594.4026 594.2047 594.3599 594.7207 595.1729 595.6506 596.1243 596.575 596.9666 597.1995 597.1658 597.2713 598.0132 599.9039 602.3688 605.1918 608.198 611.2762 614.2072 616.991 619.5776 621.9048 623.7939 625.2134 626.2881 627.0364 627.3094 627.8763 628.3972 629.0323 630.0695 631.8622 634.7001 638.6251 643.2927 646.8134 647.9839 647.889 647.8181 -9999 -9999 -9999 -9999 -9999 -9999 -9999 -9999 -9999 -9999 -9999 -9999 -9999 -9999 -9999 -9999 -9999
-9999 -9999 -9999 -9999 -9999 -9999 -9999 -9999 -9999 -9999 -9999 -9999 -9999 -9999 -9999 -9999 -9999 -9999 -9999 -9999 -9999 -9999 -9999 -9999 -9999 -9999 -9999 -9999 -9999 -9999 -9999 -9999 -9999 -9999 -9999 -9999 -9999 -9999 650.2064 649.1057 648.4291 647.2302 645.3387 642.6169 640.3698 639.5809 639.8583 640.5141 641.0458 641.1798 640.8998 640.155 639.0291 637.5945 636.0281 634.5107 633.2993 632.5088 632.6056 634.7017 637.7927 641.7941 645.9775 -9999 -9999 -9999 -9999 656.3956 655.6941 653.2761 649.0057 643.0848 636.0707 628.7306 621.4318 614.7233 609.2762 605.338 602.2404 599.767 597.7281 596.1179 594.9847 594.349 594.1862 594.392 594.7693 595.2203 595.6995 596.1621 596.5966 596.9811 597.199 597.1769 597.6536 599.454 601.8831 604.7388 607.7929 610.9136 613.9181 616.7698 619.3817 621.7585 623.8833 625.6368 626.8989 627.6554 628.0122 628.1067 628.3839 628.8271 629.4116 630.3717 632.0828 634.9158 638.9948 643.5923 646.9565 648.0103 647.9102 647.7585 -9999 -9999 -9999 -9999 -9999 -9999 -9999 -9999 -9999 -9999 -9999 -9999 -9999 -9999 -9999 -9999 -9999
-9999 -9999 -9999 -9999 -9999 -9999 -9999 -9999 -9999 -9999 -9999 -9999 -9999 -9999 -9999 -9999 -9999 -9999 -9999 -9999 -9999 -9999 -9999 -9999 -9999 -9999 -9999 -9999 -9999 -9999 -9999 -9999 -9999 -9999 -9999 -9999 -9999 650.8782 649.4458 647.8201 646.9671 645.4843 642.9779 639.8885 637.0234 635.4071 634.5333 633.9352 633.1987 632.3698 631.6389 631.0031 630.5271 629.9641 629.404 629.0343 629.7746 631.4502 633.4643 636.3406 639.9385 644.1137 648.3426 -9999 -9999 -9999 -9999 658.4026 657.6771 655.2076 650.8261 644.6831 637.3362 629.5649 621.8966 614.9933 609.5389 605.6995 602.5153 600.0087 597.8423 596.1143 594.9011 594.2524 594.1356 594.4229 594.8267 595.2875 595.7834 596.2446 596.6656 597.0411 597.197 597.3497 598.4942 601.2191 604.0279 607.2736 610.4919 613.49 616.3766 619.0751 621.4621 623.5051 625.4843 627.0952 628.1619 628.7953 629.0422 629.012 629.0892 629.3514 629.7729 630.5277 631.9825 634.6372 638.8311 643.3773 646.7361 647.9916 647.9934 -9999 -9999 -9999 -9999 -9999 -9999 -9999 -9999 -9999 -9999 -9999 -9999 -9999 -9999 -9999 -9999 -9999 -9999
-9999 -9999 -9999 -9999 -9999 -9999 -9999 -9999 -9999 -9999 -9999 -9999 -9999 -9999 -9999 -9999 -9999 -9999 -9999 -9999 -9999 -9999 -9999 -9999 -9999 -9999 -9999 -9999 -9999 -9999 -9999 -9999 -9999 -9999 -9999 -9999 653.0934 651.4331 649.6025 647.3914 645.3144 642.4711 639.0447 635.6567 632.6426 630.3324 628.5722 627.2691 626.1107 624.9858 624.1757 623.6802 623.5658 623.6539 624.1685 625.1639 627.5948 630.8837 634.4747 638.3793 642.4137 646.6093 650.7575 -9999 -9999 -9999 -9999 -9999 659.335 656.8379 652.5655 646.4578 638.9437 630.7338 622.6324 615.4279 609.852 606.0822 602.665 600.1008 597.7705 595.9534 594.6988 594.0404 593.9409 594.2316 594.7319 595.3193 595.9191 596.4585 596.8992 597.194 597.1349 597.5386 599.4801 602.5982 606.1186 609.7048 612.8817 615.7689 618.4759 621.0883 623.1875 624.9228 626.8168 628.2924 629.3063 629.9506 630.2146 630.0435 629.9451 630.0427 630.2649 630.7103 631.7721 634.2023 638.266 642.6384 646.0235 647.7953 648.0864 -9999 -9999 -9999 -9999 -9999 -9999 -9999 -9999 -9999 -9999 -9999 -9999 -9999 -9999 -9999 -9999 -9999 -9999
-9999 -9999 -9999 -9999 -9999 -9999 -9999 -9999 -9999 -9999 -9999 -9999 -9999 -9999 -9999 -9999 -9999 -9999 -9999 -9999 -9999 -9999 -9999 -9999 -9999 -9999 -9999 -9999 -9999 -9999 -9999 -9999 -9999 -9999 -9999 654.3257 653.6267 651.7723 649.2405 646.1172 642.5751 638.4732 634.5645 631.2163 628.2298 625.7216 623.8276 622.2655 620.9069 619.785 619.2982 619.4434 619.6614 619.6747 621.0915 623.2665 626.8035 631.162 635.8842 640.584 644.9217 649.002 652.8726 -9999 -9999 -9999 -9999 -9999 660.1671 657.688 653.8705 648.0649 640.5325 631.9731 623.4034 615.7474 609.7032 605.4098 602.0701 599.4768 597.2844 595.5542 594.3556 593.7249 593.6443 593.984 594.6009 595.3387 596.0658 596.6733 597.0729 597.1996 597.1511 598.0086 600.5409 603.9975 607.9206 611.7303 615.0298 617.9041 620.5474 622.9193 624.9405 626.5826 628.0608 629.3877 630.4755 631.295 631.7074 631.3552 631.0752 631.0459 631.1664 631.0878 631.6609 633.9487 637.6608 641.7314 645.1324 647.3854 -9999 -9999 -9999 -9999 -9999 -9999 -9999 -9999 -9999 -9999 -9999 -9999 -9999 -9999 -9999 -9999 -9999 -9999 -9999
-9999 -9999 -9999 -9999 -9999 -9999 -9999 -9999 -9999 -9999 -9999 -9999 -9999 -9999 -9999 -9999 -9999 -9999 -9999 -9999 -9999 -9999 -9999 -9999 -9999 -9999 -9999 -9999 -9999 -9999 -9999 -9999 -9999 -9999 -9999 653.9084 653.1044 650.9554 647.6625 643.5792 639.1083 634.6968 630.777 627.4497 624.6769 622.4319 620.5695 619.0649 617.9226 617.2812 617.223 617.7488 618.2834 618.076 620.07 622.836 626.9147 631.9277 637.3761 642.6578 647.1788 651.013 654.4507 -9999 -9999 -9999 -9999 -9999 660.316 657.6141 654.6339 649.3159 641.8271 633.0071 624.0422 615.9476 609.3992 604.5695 601.2017 598.6676 596.6371 595.0524 593.9567 593.4 593.3749 593.7708 594.4886 595.3609 596.2065 596.8657 597.1975 597.1104 597.313 598.9175 601.8675 605.6702 609.8146 613.7086 617.1169 620.0419 622.6059 624.8358 626.6225 627.9292 629.1644 630.4545 631.7346 632.9351 633.5635 633.265 632.6356 632.2688 632.1625 631.2898 631.9972 633.9497 636.9668 640.4469 643.623 646.0604 -9999 -9999 -9999 -9999 -9999 -9999 -9999 -9999 -9999 -9999 -9999 -9999 -9999 -9999 -9999 -9999 -9999 -9999 -9999
-9999 -9999 -9999 -9999 -9999 -9999 -9999 -9999 -9999 -9999 -9999 -9999 -9999 -9999 -9999 -9999 -9999 -9999 -9999 -9999 -9999 -9999 -9999 -9999 -9999 -9999 -9999 -9999 -9999 -9999 -9999 -9999 -9999 -9999 652.0385 652.7385 651.7086 648.9857 644.9751 640.1689 635.3506 631.4406 627.5647 624.5302 622.3846 620.33 618.5997 617.3799 616.7816 616.4031 616.463 617.0438 617.2994 617.7727 620.288 623.0797 627.3284 632.717 638.6308 644.3325 648.9973 652.5916 655.6216 -9999 -9999 -9999 -9999 -9999 660.5465 658.441 655.276 650.1445 642.6649 633.6757 624.4376 616.0553 609.1814 604.0306 600.5237 597.9865 596.0504 594.5835 593.5898 593.1154 593.1572 593.6078 594.3989 595.3751 596.3232 597.0123 597.1996 597.1365 597.7881 599.9625 603.1866 607.0933 611.3956 615.532 619.0602 622.0203 624.5339 626.5408 627.9617 629.0963 630.2756 631.6813 633.2923 635.2169 636.5723 636.3867 635.0131 633.7046 632.9212 632.2656 632.7673 634.0497 636.2066 638.9521 641.7783 -9999 -9999 -9999 -9999 -9999 -9999 -9999 -9999 -9999 -9999 -9999 -9999 -9999 -9999 -9999 -9999 -9999 -9999 -9999 -9999
-9999 -9999 -9999 -9999 -9999 -9999 -9999 -9999 -9999 -9999 -9999 -9999 -9999 -9999 -9999 -9999 -9999 -9999 -9999 -9999 -9999 -9999 -9999 -9999 -9999 -9999 -9999 -9999 -9999 -9999 -9999 -9999 -9999 649.2554 650.6729 651.3574 649.822 646.4606 641.8022 636.551 631.614 627.7521 624.5079 622.3184 620.8523 618.9073 617.3871 616.4774 616.1042 616.0308 615.9413 616.268 616.6329 617.5577 619.9991 623.0739 627.4883 633.1029 639.3297 645.4084 650.314 653.813 656.4438 -9999 -9999 -9999 -9999 -9999 660.3331 658.5524 655.5015 650.41 642.8817 633.7802 624.4553 616.0048 609.0291 603.7427 600.1172 597.5388 595.6307 594.2286 593.3046 592.8906 592.981 593.4613 594.2925 595.3354 596.3854 597.1716 597.1811 597.3571 598.6915 601.2647 604.6643 608.4332 612.824 617.1453 620.8096 623.6918 626.1184 627.7977 629.0901 630.2463 631.6021 633.3912 635.6542 638.4338 640.3083 639.993 638.11 636.0339 634.5648 633.7952 633.82 634.2407 635.5446 637.5364 -9999 -9999 -9999 -9999 -9999 -9999 -9999 -9999 -9999 -9999 -9999 -9999 -9999 -9999 -9999 -9999 -9999 -9999 -9999 -9999 -9999
