ncols         283
nrows         45
xllcorner     623250
yllcorner     5916300
cellsize      50
NODATA_value  -9999
-9999 -9999 -9999 -9999 -9999 -9999 -9999 -9999 -9999 -9999 -9999 -9999 -9999 -9999 -9999 737.422 737.9636 739.0276 740.5956 742.4937 744.3571 745.8077 746.5529 746.4506 745.2742 742.8338 739.7961 736.9408 734.8762 733.9424 733.3768 733.0973 732.8004 732.4706 732.1843 731.9965 731.8883 731.8115 731.8076 731.8145 731.8273 731.848 731.9184 732.0988 732.0519 731.8175 731.5795 731.3747 731.215 731.0499 730.9122 730.7999 730.6998 730.6031 730.5165 730.457 730.4469 730.5057 730.6478 730.866 731.1011 731.2688 731.4688 731.7379 731.8132 731.8135 731.8036 731.8083 731.808 731.8026 731.8049 731.8112 731.813 731.8093 731.8404 732.0316 732.0974 732.1299 732.1888 732.2601 732.337 732.3984 732.4247 732.4353 732.4502 732.4421 732.4218 732.3999 732.3115 732.1534 731.8859 731.7874 731.5911 731.5203 731.4887 731.3998 731.3207 731.2281 731.1328 731.0394 730.9432 730.8414 730.7342 730.6252 730.5201 730.4232 730.3389 730.2688 730.2148 730.1801 730.1636 730.1655 730.1824 730.2079 730.2352 730.256 730.2719 730.2827 730.2861 730.2856 730.28 730.28 730.2657 730.2472 730.2289 730.2133 730.1962 730.1764 730.1561 730.1387 730.1273 730.1257 730.1293 730.1394 730.1587 730.1758 730.1924 730.1998 730.201 730.1852 730.1631 730.1184 730.0431 729.9778 729.9435 729.9501 730.0146 730.131 730.2858 730.5805 730.9271 731.2739 731.5778 731.8067 731.8937 732.0027 732.1248 732.2214 732.2396 732.1178 731.7911 731.1892 730.6679 730.3727 730.5067 730.5461 730.8411 731.0556 731.2991 731.6724 731.786 731.8428 732.0883 732.2834 732.3711 732.3777 732.4152 732.3878 732.3414 732.3342 732.2569 732.1287 732.0814 732.1079 732.1791 732.2409 732.2639 732.2587 732.246 732.2296 732.2537 732.4177 732.8186 733.2706 733.6974 734.0747 734.3976 734.7813 735.6286 736.4267 736.9022 737.1034 736.7565 736.5203 736.7084 737.2924 738.1479 739.0457 739.9119 740.5196 740.5581 740.1225 739.488 738.8806 738.2239 737.4289 736.7684 736.4917 737.1366 738.5433 740.2598 741.7839 742.6235 742.3401 741.312 -9999 -9999 -9999 -9999 -9999 -9999 -9999 -9999 -9999 -9999 -9999 -9999 -9999 -9999 -9999 -9999 -9999 -9999 -9999 -9999 -9999 -9999 -9999 -9999 -9999 -9999 -9999 -9999 -9999 -9999 -9999 -9999 -9999 -9999 -9999 -9999 -9999 -9999 -9999 -9999 -9999 -9999 -9999 -9999 -9999 -9999 -9999 -9999 -9999 -9999 -9999 -9999 -9999 -9999 -9999 -9999 -9999 -9999
-9999 -9999 -9999 -9999 -9999 -9999 -9999 -9999 -9999 -9999 -9999 -9999 -9999 -9999 -9999 736.5859 736.2047 736.5342 737.7003 739.5695 741.6749 743.494 744.6917 744.9467 743.9219 741.7518 738.9344 736.2062 734.4057 734.0604 733.4651 733.0443 732.6951 732.3696 732.1024 731.9269 731.8054 731.6342 731.514 731.4336 731.3995 731.432 731.5639 731.787 731.7966 731.6028 731.3923 731.2046 731.0402 730.8834 730.7395 730.6323 730.5509 730.4893 730.4392 730.3993 730.3817 730.4004 730.464 730.5697 730.6966 730.8233 730.9839 731.1702 731.2672 731.3153 731.3566 731.3885 731.4268 731.4497 731.4503 731.4507 731.4615 731.4992 731.598 731.7913 731.8109 731.8099 731.8107 731.8166 731.8163 731.8182 731.8205 731.8187 731.8188 731.8218 731.8215 731.8229 731.8167 731.7888 731.604 731.4938 731.3728 731.306 731.2657 731.2083 731.1451 731.0751 730.9987 730.9216 730.843 730.7601 730.6718 730.5791 730.4873 730.4012 730.3255 730.2635 730.2167 730.1864 730.1744 730.1792 730.198 730.2235 730.2502 730.2636 730.2728 730.28 730.28 730.28 730.274 730.2699 730.2594 730.2455 730.2307 730.2169 730.2025 730.1882 730.1746 730.1632 730.1538 730.1508 730.1563 730.166 730.1819 730.1981 730.2123 730.2233 730.2203 730.2075 730.1851 730.1538 730.1091 730.0713 730.0565 730.0798 730.1583 730.2779 730.4048 730.6367 730.9329 731.2422 731.5176 731.718 731.8113 731.9254 732.0319 732.1111 732.1258 732.0348 731.8066 731.4353 731.1166 730.9907 731.1589 731.3414 731.677 731.7838 731.8372 732.0263 732.1222 732.1843 732.3745 732.6141 732.8032 732.9037 732.9946 732.9362 732.7775 732.6467 732.5323 732.4126 732.3401 732.3788 732.5081 732.6412 732.7112 732.726 732.7157 732.6945 732.7186 732.8998 733.3551 733.9755 734.5728 734.9857 735.2435 735.5977 737.0933 738.3231 738.9482 739.0875 738.9014 738.8486 739.1628 739.8697 740.7399 741.5862 742.3827 742.8841 742.6677 741.9446 741.0999 740.3854 739.7283 739.0734 738.7627 738.5728 738.985 740.1205 741.5316 742.726 743.175 742.8184 -9999 -9999 -9999 -9999 -9999 -9999 -9999 -9999 -9999 -9999 -9999 -9999 -9999 -9999 -9999 -9999 -9999 -9999 -9999 -9999 -9999 -9999 -9999 -9999 -9999 -9999 -9999 -9999 -9999 -9999 -9999 -9999 -9999 -9999 -9999 -9999 -9999 -9999 -9999 -9999 -9999 -9999 -9999 -9999 -9999 -9999 -9999 -9999 -9999 -9999 -9999 -9999 -9999 -9999 -9999 -9999 -9999 -9999 -9999
-9999 -9999 -9999 -9999 -9999 -9999 -9999 -9999 -9999 -9999 -9999 -9999 -9999 -9999 736.423 735.8531 734.8958 734.6945 735.2326 736.7419 738.6658 740.4708 741.7999 742.3176 741.7188 740.1102 737.9218 735.7047 734.2814 733.7458 733.31 732.9166 732.5659 732.2423 731.9867 731.8076 731.6344 731.442 731.2761 731.1554 731.0999 731.129 731.2461 731.3997 731.4337 731.3328 731.187 731.0388 730.8992 730.7612 730.6339 730.5183 730.4343 730.3771 730.343 730.3278 730.3262 730.3385 730.3688 730.4187 730.4859 730.5684 730.6752 730.7942 730.8816 730.9376 730.9859 731.0288 731.064 731.0955 731.1093 731.1139 731.1425 731.2068 731.3169 731.4545 731.5006 731.5071 731.4981 731.4804 731.47 731.4465 731.4284 731.4161 731.4064 731.4051 731.4162 731.4341 731.4508 731.4419 731.3546 731.2711 731.1917 731.136 731.0947 731.0492 730.9978 730.9386 730.8753 730.8083 730.74 730.6709 730.601 730.5295 730.4575 730.3889 730.3278 730.2786 730.2419 730.22 730.2125 730.2201 730.2393 730.2571 730.28 730.28 730.28 730.281 730.2792 730.2767 730.2717 730.2664 730.2581 730.248 730.2372 730.2264 730.2153 730.2053 730.1976 730.1919 730.186 730.1812 730.1857 730.1992 730.2091 730.2217 730.2356 730.2471 730.251 730.2444 730.2338 730.2218 730.2021 730.1848 730.1809 730.2021 730.2795 730.3745 730.4962 730.69 730.9425 731.2147 731.4661 731.6676 731.8088 731.8815 731.953 732.0117 732.0229 731.9586 731.8113 731.6398 731.512 731.5114 731.7454 731.8666 732.1224 732.1926 732.1746 732.2124 732.2543 732.3217 732.5081 732.8119 733.1292 733.3694 733.534 733.4571 733.1649 732.9543 732.8345 732.7302 732.6525 732.6943 732.854 733.0406 733.1679 733.2291 733.2436 733.2057 733.1888 733.3219 733.725 734.4666 735.2972 735.8807 736.1708 736.9933 738.5762 739.8305 740.5811 740.7863 740.7308 740.7417 741.0518 741.7993 742.6046 743.3411 744.095 744.5204 744.1023 743.168 742.1827 741.4049 740.8121 740.3455 740.4332 740.3738 740.538 741.2272 742.129 742.9605 -9999 -9999 -9999 -9999 -9999 -9999 -9999 -9999 -9999 -9999 -9999 -9999 -9999 -9999 -9999 -9999 -9999 -9999 -9999 -9999 -9999 -9999 -9999 -9999 -9999 -9999 -9999 -9999 -9999 -9999 -9999 -9999 -9999 -9999 -9999 -9999 -9999 -9999 -9999 -9999 -9999 -9999 -9999 -9999 -9999 -9999 -9999 -9999 -9999 -9999 -9999 -9999 -9999 -9999 -9999 -9999 -9999 -9999 -9999 -9999 -9999
-9999 -9999 -9999 -9999 -9999 -9999 -9999 -9999 -9999 -9999 -9999 -9999 -9999 -9999 736.9326 736.1696 735.1417 734.3174 734.0782 734.8945 736.1587 737.4919 738.5803 739.1412 738.9482 737.9609 736.6629 735.2319 734.0028 733.3364 732.9293 732.63 732.33 732.0421 731.8113 731.6348 731.4566 731.2636 731.0824 730.9406 730.8643 730.8695 730.946 731.0419 731.0802 731.0428 730.9656 730.8715 730.7704 730.6674 730.5621 730.4657 730.3735 730.3026 730.2623 730.25 730.2609 730.286 730.3164 730.3491 730.3872 730.4354 730.4972 730.5647 730.6238 730.6719 730.7064 730.7434 730.7671 730.7888 730.8051 730.8187 730.8516 730.923 731.0261 731.1342 731.1986 731.2283 731.2357 731.2303 731.2159 731.2073 731.1848 731.1638 731.1475 731.1376 731.1415 731.1602 731.1779 731.1754 731.1349 731.0854 731.0327 730.9885 730.9506 730.911 730.8664 730.8158 730.7603 730.7018 730.641 730.5801 730.5225 730.4687 730.4173 730.3676 730.3241 730.2911 730.2685 730.2565 730.254 730.2615 730.28 730.28 730.2896 730.2886 730.2855 730.2827 730.279 730.2752 730.2709 730.266 730.2593 730.2518 730.2448 730.2383 730.2305 730.2242 730.2211 730.2201 730.2181 730.2142 730.2158 730.2297 730.2412 730.2454 730.2562 730.2666 730.272 730.2718 730.2716 730.28 730.28 730.28 730.2798 730.2802 730.3461 730.4359 730.5531 730.7218 730.9404 731.1809 731.4078 731.5959 731.7322 731.8101 731.8738 731.9303 731.9506 731.924 731.8625 731.8099 731.8035 731.8301 732.0991 732.326 732.5161 732.5051 732.387 732.3152 732.309 732.373 732.5508 732.901 733.3333 733.7596 734.0368 733.9847 733.4885 733.2921 733.2465 733.2307 733.1577 733.15 733.287 733.4745 733.6521 733.7839 733.8539 733.7693 733.6772 733.6899 733.8875 734.4962 735.4901 736.5775 737.0034 738.3597 739.8158 740.9236 741.5345 741.7271 741.6964 741.7127 742.0171 742.7978 743.4468 744.0757 744.8227 745.155 744.8757 -9999 -9999 -9999 741.5259 741.3398 741.7051 741.6946 741.6019 741.9545 -9999 -9999 -9999 -9999 -9999 -9999 -9999 -9999 -9999 -9999 -9999 -9999 -9999 -9999 -9999 -9999 -9999 -9999 -9999 -9999 -9999 -9999 -9999 -9999 -9999 -9999 -9999 -9999 -9999 -9999 -9999 -9999 -9999 -9999 -9999 -9999 -9999 -9999 -9999 -9999 -9999 -9999 -9999 -9999 -9999 -9999 -9999 -9999 -9999 -9999 -9999 -9999 -9999 -9999 -9999 -9999 -9999 -9999 -9999 -9999 -9999 -9999 -9999
-9999 -9999 -9999 -9999 -9999 -9999 -9999 -9999 -9999 -9999 -9999 -9999 -9999 -9999 738.5922 737.8992 736.9997 736.0335 735.2617 734.8789 735.0084 735.4516 735.9247 736.1759 736.3192 735.9417 735.254 734.3707 733.4767 732.8623 732.4785 732.2404 732.0273 731.815 731.6511 731.4957 731.3237 731.132 730.9408 730.7801 730.6771 730.6472 730.6807 730.7354 730.7673 730.7669 730.7426 730.7064 730.6547 730.5878 730.5139 730.4362 730.361 730.2858 730.229 730.2048 730.2123 730.2428 730.2833 730.3212 730.3528 730.3823 730.4133 730.4449 730.4728 730.5005 730.5259 730.5396 730.5579 730.5592 730.5663 730.5771 730.6079 730.672 730.7632 730.8555 730.9282 730.979 731.0122 731.0294 731.0358 731.0306 731.0232 731.0041 730.9844 730.9692 730.9603 730.9647 730.9742 730.9735 730.9523 730.9214 730.887 730.8528 730.8192 730.7835 730.7445 730.701 730.6537 730.6031 730.55 730.4965 730.4472 730.4051 730.3689 730.3348 730.3057 730.2908 730.282 730.28 730.28 730.28 730.2888 730.2898 730.2921 730.2903 730.2864 730.2822 730.2778 730.2736 730.2701 730.2666 730.2617 730.2561 730.2518 730.2495 730.2462 730.2428 730.2428 730.2449 730.2452 730.245 730.2455 730.257 730.2648 730.2691 730.2714 730.28 730.28 730.28 730.28 730.2929 730.3027 730.31 730.3159 730.3314 730.3892 730.4746 730.5849 730.7341 730.9257 731.1396 731.3452 731.5206 731.6556 731.7471 731.8104 731.8747 731.908 731.9132 731.9089 731.9239 731.9822 732.129 732.4345 732.7454 732.9323 732.8188 732.5802 732.4165 732.385 732.4584 732.6052 732.9335 733.4331 734.0351 734.5455 734.5995 733.7363 733.7733 733.9519 734.116 734.0567 733.8886 733.9043 733.9952 734.1861 734.391 734.5544 734.4056 734.2405 734.1786 734.2599 734.3977 735.3412 736.5488 738.0045 739.5795 740.8265 741.6445 742.0176 742.0886 741.9795 741.9291 742.1238 742.8992 743.4533 -9999 -9999 -9999 -9999 -9999 -9999 -9999 -9999 -9999 -9999 -9999 -9999 -9999 -9999 -9999 -9999 -9999 -9999 -9999 -9999 -9999 -9999 -9999 -9999 -9999 -9999 -9999 -9999 -9999 -9999 -9999 -9999 -9999 -9999 -9999 -9999 -9999 -9999 -9999 -9999 -9999 -9999 -9999 -9999 -9999 -9999 -9999 -9999 -9999 -9999 -9999 -9999 -9999 -9999 -9999 -9999 -9999 -9999 -9999 -9999 -9999 -9999 -9999 -9999 -9999 -9999 -9999 -9999 -9999 -9999 -9999 -9999 -9999 -9999 -9999 -9999
-9999 -9999 -9999 -9999 -9999 -9999 -9999 -9999 -9999 -9999 -9999 -9999 -9999 -9999 741.0508 740.5302 739.7115 738.5615 737.2841 736.0811 735.0066 734.5035 734.3528 734.3918 734.4902 734.3581 733.9934 733.5009 732.949 732.4717 732.1446 731.9435 731.8121 731.7056 731.5785 731.4345 731.2623 731.0645 730.8601 730.6774 730.5431 730.4727 730.4637 730.4874 730.5087 730.5259 730.538 730.5477 730.549 730.5262 730.4819 730.4246 730.364 730.3046 730.2505 730.218 730.2164 730.2419 730.2845 730.3287 730.3633 730.3867 730.4016 730.4093 730.4136 730.4176 730.4264 730.4338 730.426 730.4213 730.4092 730.4083 730.4282 730.4773 730.5532 730.6339 730.7048 730.7672 730.8186 730.8588 730.8857 730.899 730.8971 730.8872 730.8687 730.8489 730.8351 730.8249 730.8217 730.8157 730.8011 730.7793 730.7534 730.7255 730.6963 730.6647 730.6299 730.5927 730.5536 730.5127 730.4695 730.4244 730.3832 730.3501 730.3247 730.3007 730.28 730.28 730.28 730.2813 730.2828 730.2836 730.2871 730.288 730.2882 730.2864 730.283 730.2791 730.2753 730.2716 730.2688 730.267 730.2642 730.2606 730.2588 730.2593 730.2596 730.2596 730.2626 730.2645 730.2657 730.267 730.27 730.28 730.28 730.28 730.28 730.2814 730.2797 730.2781 730.2792 730.2884 730.2991 730.31 730.3231 730.3499 730.4087 730.4932 730.5973 730.731 730.901 731.0938 731.283 731.4503 731.5915 731.7096 731.8095 731.8519 731.8881 731.9169 731.9536 732.0226 732.1441 732.3546 732.7261 733.162 733.4525 733.1917 732.8237 732.5861 732.5704 732.7032 732.8049 733.0143 733.5114 734.1737 734.861 735.3045 734.0156 734.7164 735.2153 735.6382 735.5938 735.1246 734.8798 734.7058 734.8311 735.0184 735.1819 735.054 734.8679 734.7288 734.6783 734.511 735.7971 737.5239 739.2268 740.5865 741.4404 741.9881 742.1544 -9999 -9999 -9999 -9999 -9999 -9999 -9999 -9999 -9999 -9999 -9999 -9999 -9999 -9999 -9999 -9999 -9999 -9999 -9999 -9999 -9999 -9999 -9999 -9999 -9999 -9999 -9999 -9999 -9999 -9999 -9999 -9999 -9999 -9999 -9999 -9999 -9999 -9999 -9999 -9999 -9999 -9999 -9999 -9999 -9999 -9999 -9999 -9999 -9999 -9999 -9999 -9999 -9999 -9999 -9999 -9999 -9999 -9999 -9999 -9999 -9999 -9999 -9999 -9999 -9999 -9999 -9999 -9999 -9999 -9999 -9999 -9999 -9999 -9999 -9999 -9999 -9999 -9999 -9999 -9999 -9999 -9999
-9999 -9999 -9999 -9999 -9999 -9999 -9999 -9999 -9999 -9999 -9999 -9999 -9999 -9999 -9999 743.2123 742.4093 741.0423 739.3655 737.629 735.9509 734.5609 733.7767 733.5068 733.4581 733.3541 733.1185 732.7776 732.4469 732.1641 731.9521 731.8397 731.8096 731.7284 731.5968 731.4572 731.2783 731.067 730.8432 730.6348 730.4675 730.3564 730.3052 730.2999 730.3118 730.3326 730.3689 730.4095 730.4512 730.4757 730.4662 730.4317 730.3832 730.3383 730.3025 730.283 730.2861 730.3108 730.3502 730.393 730.4271 730.4469 730.4528 730.4474 730.4333 730.4185 730.4068 730.3994 730.3841 730.3571 730.3318 730.3147 730.3227 730.351 730.4048 730.473 730.5375 730.5975 730.6567 730.7075 730.749 730.7775 730.7892 730.7847 730.7708 730.7516 730.7299 730.7143 730.7004 730.6882 730.6733 730.655 730.6337 730.6104 730.5845 730.5569 730.5269 730.4951 730.4633 730.4309 730.3983 730.3645 730.3339 730.3087 730.2956 730.28 730.2692 730.2694 730.2719 730.2747 730.277 730.2783 730.28 730.2808 730.2806 730.2795 730.2772 730.2745 730.2723 730.2699 730.2682 730.2682 730.2673 730.2655 730.2658 730.2689 730.2705 730.2726 730.28 730.28 730.28 730.28 730.28 730.2874 730.2883 730.2865 730.2832 730.2797 730.2745 730.2706 730.27 730.2752 730.2841 730.2964 730.3156 730.349 730.4106 730.4961 730.5961 730.7178 730.871 731.0468 731.2228 731.3828 731.5243 731.6495 731.7529 731.8102 731.8705 731.9248 731.9932 732.1051 732.291 732.4952 732.9353 733.5463 734.1527 733.7054 733.2034 732.9031 732.9337 733.2212 733.3204 733.371 733.8347 734.3755 734.6848 734.3597 735.3045 736.58 737.4593 737.9443 737.9556 737.3337 736.4861 735.814 735.7928 735.8021 735.8724 735.8049 735.6918 735.4571 735.1431 735.8771 737.3156 738.9727 740.3691 741.1373 741.5176 741.77 -9999 -9999 -9999 -9999 -9999 -9999 -9999 -9999 -9999 -9999 -9999 -9999 -9999 -9999 -9999 -9999 -9999 -9999 -9999 -9999 -9999 -9999 -9999 -9999 -9999 -9999 -9999 -9999 -9999 -9999 -9999 -9999 -9999 -9999 -9999 -9999 -9999 -9999 -9999 -9999 -9999 -9999 -9999 -9999 -9999 -9999 -9999 -9999 -9999 -9999 -9999 -9999 -9999 -9999 -9999 -9999 -9999 -9999 -9999 -9999 -9999 -9999 -9999 -9999 -9999 -9999 -9999 -9999 -9999 -9999 -9999 -9999 -9999 -9999 -9999 -9999 -9999 -9999 -9999 -9999 -9999 -9999 -9999
-9999 -9999 -9999 -9999 -9999 -9999 -9999 -9999 -9999 -9999 -9999 -9999 -9999 -9999 -9999 -9999 744.4731 743.0254 741.1691 739.1904 737.2551 735.4932 734.121 733.4839 733.1786 732.967 732.7135 732.4078 732.1112 731.9137 731.8085 731.7861 731.8147 731.8083 731.6775 731.5665 731.3745 731.1412 730.8909 730.6522 730.4513 730.3024 730.2106 730.1732 730.1745 730.1962 730.2428 730.3066 730.3718 730.4298 730.4592 730.451 730.4223 730.3906 730.3747 730.3809 730.4096 730.4524 730.4977 730.5364 730.5632 730.5751 730.5705 730.554 730.5284 730.4957 730.4653 730.4357 730.4042 730.3622 730.319 730.283 730.2803 730.2904 730.3193 730.3666 730.4236 730.4725 730.5235 730.5765 730.6212 730.6566 730.6794 730.6847 730.6758 730.6581 730.6384 730.6154 730.5978 730.5806 730.5637 730.5463 730.5284 730.5087 730.4868 730.4631 730.4386 730.4129 730.3877 730.3632 730.3395 730.3156 730.2983 730.28 730.28 730.2697 730.2626 730.262 730.2643 730.2672 730.2697 730.2712 730.2723 730.273 730.2733 730.2732 730.2721 730.2708 730.2704 730.2698 730.2697 730.2719 730.2717 730.2712 730.2726 730.28 730.28 730.28 730.2887 730.2923 730.2927 730.2916 730.291 730.2939 730.2941 730.2905 730.2842 730.2763 730.2676 730.2607 730.2573 730.2587 730.2651 730.2776 730.3005 730.3384 730.4024 730.4893 730.5867 730.6997 730.8403 731.0034 731.1687 731.3218 731.4606 731.5912 731.7134 731.81 731.8677 731.9404 732.022 732.125 732.2805 732.5187 733.0485 733.7789 734.7813 734.666 733.9271 733.519 733.5273 733.9427 734.2958 734.4844 735.0561 735.7178 736.1395 736.2275 737.172 738.3207 739.228 739.7234 739.9551 739.456 738.606 737.9087 737.3915 736.9252 736.6417 736.8517 736.9852 736.9409 736.8314 737.6123 738.8535 740.1331 740.9903 741.2201 741.0875 -9999 -9999 -9999 -9999 -9999 -9999 -9999 -9999 -9999 -9999 -9999 -9999 -9999 -9999 -9999 -9999 -9999 -9999 -9999 -9999 -9999 -9999 -9999 -9999 -9999 -9999 -9999 -9999 -9999 -9999 -9999 -9999 -9999 -9999 -9999 -9999 -9999 -9999 -9999 -9999 -9999 -9999 -9999 -9999 -9999 -9999 -9999 -9999 -9999 -9999 -9999 -9999 -9999 -9999 -9999 -9999 -9999 -9999 -9999 -9999 -9999 -9999 -9999 -9999 -9999 -9999 -9999 -9999 -9999 -9999 -9999 -9999 -9999 -9999 -9999 -9999 -9999 -9999 -9999 -9999 -9999 -9999 -9999 -9999
-9999 -9999 -9999 -9999 -9999 -9999 -9999 -9999 -9999 -9999 -9999 -9999 -9999 -9999 -9999 -9999 -9999 744.2863 742.4938 740.5834 738.7556 737.0448 735.5061 734.3714 733.6129 733.1571 732.7964 732.4338 732.0931 731.8616 731.7793 731.8112 731.8942 731.9277 731.8371 731.8045 731.5648 731.2913 731.0023 730.7264 730.4896 730.306 730.1783 730.1078 730.0919 730.1143 730.1668 730.2434 730.3254 730.3984 730.4528 730.4749 730.47 730.4619 730.4707 730.508 730.5736 730.6534 730.724 730.7658 730.7834 730.7815 730.7598 730.729 730.6919 730.646 730.593 730.5397 730.4808 730.4156 730.3499 730.2957 730.2744 730.2772 730.2861 730.3069 730.3502 730.3875 730.4199 730.4619 730.5071 730.5405 730.5673 730.5818 730.5798 730.5675 730.5478 730.5289 730.5062 730.4893 730.4727 730.4554 730.439 730.4235 730.406 730.3868 730.3673 730.3492 730.3306 730.3123 730.2985 730.28 730.28 730.2681 730.2645 730.2593 730.256 730.2565 730.259 730.2618 730.2642 730.2656 730.2667 730.2676 730.2686 730.2698 730.2697 730.27 730.2723 730.2724 730.2736 730.28 730.28 730.28 730.28 730.2893 730.2943 730.2975 730.3037 730.3073 730.3074 730.305 730.3027 730.3018 730.2993 730.2938 730.2849 730.2738 730.2617 730.2513 730.2451 730.2429 730.2466 730.2582 730.283 730.3234 730.3884 730.4768 730.5737 730.6815 730.8138 730.9678 731.1252 731.272 731.4055 731.5363 731.6743 731.8087 731.8529 731.9797 732.0938 732.1926 732.3463 732.6674 733.327 734.3381 735.6328 735.826 735.2507 734.793 734.6943 735.042 735.5966 736.0529 736.6832 737.3188 737.6658 737.6324 738.4497 739.2097 739.8676 740.4073 740.8109 740.7487 740.183 739.7153 739.259 738.7537 738.4418 738.6924 738.7505 738.2365 736.8829 738.2747 739.4219 740.6503 741.1655 740.9844 -9999 -9999 -9999 -9999 -9999 -9999 -9999 -9999 -9999 -9999 -9999 -9999 -9999 -9999 -9999 -9999 -9999 -9999 -9999 -9999 -9999 -9999 -9999 -9999 -9999 -9999 -9999 -9999 -9999 -9999 -9999 -9999 -9999 -9999 -9999 -9999 -9999 -9999 -9999 -9999 -9999 -9999 -9999 -9999 -9999 -9999 -9999 -9999 -9999 -9999 -9999 -9999 -9999 -9999 -9999 -9999 -9999 -9999 -9999 -9999 -9999 -9999 -9999 -9999 -9999 -9999 -9999 -9999 -9999 -9999 -9999 -9999 -9999 -9999 -9999 -9999 -9999 -9999 -9999 -9999 -9999 -9999 -9999 -9999 -9999
-9999 -9999 -9999 -9999 -9999 -9999 -9999 -9999 -9999 -9999 -9999 -9999 -9999 -9999 -9999 -9999 -9999 -9999 743.4525 741.8516 740.3492 738.9088 737.4223 736.0007 734.7014 733.8768 733.3333 732.8606 732.4165 732.0891 731.9543 732.003 732.1564 732.2926 732.3232 732.2495 731.8529 731.5116 731.1664 730.8447 730.5702 730.3545 730.1979 730.0987 730.0603 730.0795 730.1359 730.2222 730.3156 730.3978 730.4601 730.4994 730.519 730.5385 730.5822 730.6627 730.7758 730.9057 731.0168 731.0682 731.0806 731.064 731.0142 730.9651 730.9171 730.8562 730.7838 730.7003 730.6082 730.5066 730.4077 730.3285 730.2802 730.28 730.28 730.28 730.3054 730.3262 730.3414 730.371 730.4056 730.4375 730.4598 730.4796 730.4875 730.4807 730.466 730.4472 730.4309 730.4119 730.3977 730.3838 730.3695 730.3572 730.3447 730.3303 730.3146 730.3055 730.295 730.28 730.28 730.2675 730.2628 730.2559 730.2522 730.25 730.2498 730.2521 730.2559 730.2593 730.2616 730.2633 730.2653 730.2661 730.2678 730.2716 730.2717 730.2729 730.28 730.28 730.28 730.2902 730.2962 730.3001 730.3038 730.3113 730.3174 730.3215 730.3252 730.3269 730.3256 730.3217 730.317 730.3129 730.307 730.2982 730.2869 730.2734 730.2588 730.245 730.2357 730.231 730.2318 730.2415 730.2662 730.3082 730.3726 730.4616 730.5602 730.6661 730.7941 730.9433 731.0968 731.2393 731.3649 731.4844 731.6111 731.7365 731.8243 732.0904 732.2631 732.3538 732.4861 732.8342 733.6481 735.1036 736.4849 736.978 736.7321 736.4083 736.1833 736.344 736.9205 737.5981 738.3241 738.8066 738.9408 738.9077 739.2666 739.636 739.9353 740.2386 740.9431 741.1741 740.9924 740.6587 740.1897 739.8412 738.7878 739.8307 739.6139 738.6066 736.9346 737.7888 738.9137 740.1636 740.7377 -9999 -9999 -9999 -9999 -9999 -9999 -9999 -9999 -9999 -9999 -9999 -9999 -9999 -9999 -9999 -9999 -9999 -9999 -9999 -9999 -9999 -9999 -9999 -9999 -9999 -9999 -9999 -9999 -9999 -9999 -9999 -9999 -9999 -9999 -9999 -9999 -9999 -9999 -9999 -9999 -9999 -9999 -9999 -9999 -9999 -9999 -9999 -9999 -9999 -9999 -9999 -9999 -9999 -9999 -9999 -9999 -9999 -9999 -9999 -9999 -9999 -9999 -9999 -9999 -9999 -9999 -9999 -9999 -9999 -9999 -9999 -9999 -9999 -9999 -9999 -9999 -9999 -9999 -9999 -9999 -9999 -9999 -9999 -9999 -9999 -9999
-9999 -9999 -9999 -9999 -9999 -9999 -9999 -9999 -9999 -9999 -9999 -9999 -9999 -9999 -9999 -9999 -9999 -9999 744.2703 743.1879 742.1711 741.073 739.6965 738.1136 736.5114 735.2101 734.3645 733.6879 733.0676 732.601 732.3633 732.3847 732.5988 732.8218 732.9007 732.7414 732.2457 731.7759 731.3551 730.9854 730.675 730.4319 730.2538 730.1344 730.0756 730.0834 730.1454 730.2361 730.3418 730.4342 730.4997 730.5415 730.5725 730.6162 730.6973 730.8295 731.0068 731.2039 731.373 731.4257 731.4327 731.4066 731.3083 731.2423 731.1901 731.1119 731.0193 730.9073 730.7739 730.6273 730.4825 730.3601 730.2801 730.2554 730.2533 730.2608 730.28 730.28 730.2802 730.3082 730.3288 730.3477 730.3617 730.3861 730.4017 730.4034 730.3932 730.38 730.3655 730.3546 730.3411 730.3286 730.3171 730.3107 730.3037 730.2947 730.28 730.28 730.28 730.269 730.2647 730.2568 730.2513 730.2464 730.2435 730.2432 730.2452 730.2498 730.2555 730.2604 730.2626 730.2649 730.2692 730.2695 730.2715 730.28 730.28 730.28 730.291 730.2985 730.3049 730.3154 730.3243 730.3313 730.3373 730.3438 730.3489 730.3521 730.3531 730.3521 730.3484 730.3425 730.3358 730.3287 730.3195 730.3069 730.2925 730.2772 730.2604 730.2434 730.2304 730.2234 730.2225 730.2305 730.2534 730.2958 730.3588 730.4471 730.5488 730.6565 730.784 730.9324 731.0868 731.2307 731.3544 731.4704 731.6091 731.8043 732.0751 732.3988 732.5769 732.6175 732.6804 732.9876 733.6825 735.0303 736.5166 737.6541 737.9379 737.898 737.6932 737.7284 738.1681 738.9305 739.6413 739.9763 739.9953 739.7866 740.0037 740.176 740.3174 740.6705 741.0424 741.2454 741.1475 740.7843 740.0399 739.518 739.1339 739.6652 739.9664 739.1004 737.8761 736.9861 738.1366 739.275 -9999 -9999 -9999 -9999 -9999 -9999 -9999 -9999 -9999 -9999 -9999 -9999 -9999 -9999 -9999 -9999 -9999 -9999 -9999 -9999 -9999 -9999 -9999 -9999 -9999 -9999 -9999 -9999 -9999 -9999 -9999 -9999 -9999 -9999 -9999 -9999 -9999 -9999 -9999 -9999 -9999 -9999 -9999 -9999 -9999 -9999 -9999 -9999 -9999 -9999 -9999 -9999 -9999 -9999 -9999 -9999 -9999 -9999 -9999 -9999 -9999 -9999 -9999 -9999 -9999 -9999 -9999 -9999 -9999 -9999 -9999 -9999 -9999 -9999 -9999 -9999 -9999 -9999 -9999 -9999 -9999 -9999 -9999 -9999 -9999 -9999 -9999
-9999 -9999 -9999 -9999 -9999 -9999 -9999 -9999 -9999 -9999 -9999 -9999 -9999 -9999 -9999 -9999 -9999 -9999 -9999 744.6645 744.249 743.471 742.158 740.4927 738.7433 737.2194 736.0119 735.0173 734.0712 733.3864 732.9874 732.9344 733.1991 733.4669 733.4999 733.1376 732.5264 731.8995 731.5138 731.1256 730.7881 730.5244 730.3313 730.2002 730.1285 730.122 730.1844 730.2835 730.3988 730.5059 730.5822 730.6229 730.6513 730.7044 730.8171 731.0012 731.2464 731.5238 731.7816 731.824 731.8249 731.7872 731.5999 731.529 731.4917 731.3884 731.2822 731.1421 730.9646 730.7671 730.568 730.3978 730.2801 730.2346 730.2229 730.2303 730.2434 730.2472 730.2551 730.28 730.28 730.28 730.2802 730.3125 730.3303 730.3355 730.3313 730.3243 730.3171 730.3103 730.3043 730.2948 730.28 730.28 730.28 730.28 730.2687 730.2656 730.2646 730.259 730.2546 730.2494 730.2449 730.2416 730.2399 730.2409 730.2446 730.2507 730.2593 730.2666 730.2678 730.2701 730.28 730.28 730.28 730.2922 730.3002 730.3073 730.3193 730.3307 730.3416 730.3532 730.3635 730.3719 730.3787 730.3842 730.3878 730.389 730.3875 730.3832 730.3767 730.3685 730.3594 730.3497 730.3375 730.3218 730.3046 730.2873 730.2686 730.2483 730.2308 730.2208 730.2188 730.2261 730.2469 730.2885 730.3499 730.4369 730.5428 730.656 730.7868 730.9376 731.0975 731.2494 731.3801 731.5004 731.6477 731.8594 732.356 732.7889 732.9752 732.9276 732.8165 732.8575 733.2289 734.2527 735.829 737.2974 738.3564 738.8753 738.9165 738.9272 739.1549 739.7988 740.3423 740.7046 740.792 -9999 -9999 -9999 -9999 -9999 -9999 741.2732 740.8315 740.0499 739.2243 738.742 738.318 739.0264 739.9164 739.5745 738.74 738.0706 -9999 -9999 -9999 -9999 -9999 -9999 -9999 -9999 -9999 -9999 -9999 -9999 -9999 -9999 -9999 -9999 -9999 -9999 -9999 -9999 -9999 -9999 -9999 -9999 -9999 -9999 -9999 -9999 -9999 -9999 -9999 -9999 -9999 -9999 -9999 -9999 -9999 -9999 -9999 -9999 -9999 -9999 -9999 -9999 -9999 -9999 -9999 -9999 -9999 -9999 -9999 -9999 -9999 -9999 -9999 -9999 -9999 -9999 -9999 -9999 -9999 -9999 -9999 -9999 -9999 -9999 -9999 -9999 -9999 -9999 -9999 -9999 -9999 -9999 -9999 -9999 -9999 -9999 -9999 -9999 -9999 -9999 -9999 -9999 -9999 -9999 -9999 -9999 -9999
-9999 -9999 -9999 -9999 -9999 -9999 -9999 -9999 -9999 -9999 -9999 -9999 -9999 -9999 -9999 -9999 -9999 -9999 -9999 -9999 746.2106 745.7584 744.5517 742.9073 741.1416 739.5801 738.244 736.9267 735.5455 734.5409 733.8512 733.6286 733.9597 734.2134 734.1046 733.5293 732.8435 732.2029 731.7524 731.2761 730.9048 730.6263 730.423 730.2845 730.2062 730.1925 730.2463 730.3591 730.4858 730.6144 730.7113 730.7623 730.7834 730.8311 730.9604 731.1922 731.4961 731.827 732.1378 732.2813 732.2946 732.128 731.8491 731.8096 731.7969 731.6445 731.5503 731.389 731.1642 730.9083 730.6584 730.4369 730.28 730.2213 730.2029 730.2007 730.2079 730.2158 730.2246 730.2382 730.2413 730.2435 730.2515 730.28 730.28 730.28 730.28 730.28 730.28 730.28 730.28 730.28 730.2678 730.2639 730.2633 730.2632 730.2579 730.2554 730.2543 730.2517 730.249 730.2462 730.2438 730.2423 730.2418 730.244 730.2492 730.2559 730.2679 730.28 730.28 730.28 730.2947 730.3041 730.3118 730.3245 730.3364 730.3483 730.3619 730.3757 730.3889 730.4014 730.412 730.4207 730.4271 730.4312 730.4329 730.4318 730.4274 730.4204 730.4108 730.4 730.3887 730.3764 730.3617 730.3435 730.3245 730.3058 730.2852 730.2616 730.2395 730.2255 730.2219 730.229 730.2482 730.2875 730.348 730.4336 730.5451 730.6687 730.8069 730.9636 731.1318 731.2963 731.4424 731.5859 731.7975 732.1299 732.6978 733.1964 733.3958 733.2765 733.0104 732.8204 732.8902 733.4506 735.1135 736.649 738.2825 739.1467 739.4794 739.5767 -9999 -9999 -9999 -9999 -9999 -9999 -9999 -9999 -9999 -9999 -9999 -9999 -9999 -9999 -9999 738.0365 737.8854 -9999 -9999 -9999 -9999 -9999 -9999 -9999 -9999 -9999 -9999 -9999 -9999 -9999 -9999 -9999 -9999 -9999 -9999 -9999 -9999 -9999 -9999 -9999 -9999 -9999 -9999 -9999 -9999 -9999 -9999 -9999 -9999 -9999 -9999 -9999 -9999 -9999 -9999 -9999 -9999 -9999 -9999 -9999 -9999 -9999 -9999 -9999 -9999 -9999 -9999 -9999 -9999 -9999 -9999 -9999 -9999 -9999 -9999 -9999 -9999 -9999 -9999 -9999 -9999 -9999 -9999 -9999 -9999 -9999 -9999 -9999 -9999 -9999 -9999 -9999 -9999 -9999 -9999 -9999 -9999 -9999 -9999 -9999 -9999 -9999 -9999 -9999 -9999 -9999 -9999 -9999 -9999 -9999 -9999
-9999 -9999 -9999 -9999 -9999 -9999 -9999 -9999 -9999 -9999 -9999 -9999 -9999 -9999 -9999 -9999 -9999 -9999 -9999 -9999 -9999 747.5609 746.6207 745.0994 743.4363 741.9666 740.6498 739.2869 737.7311 736.2098 735.0672 734.5412 734.9619 735.0374 734.4667 733.8185 733.1263 732.4194 731.8119 731.3528 731.0099 730.7408 730.5308 730.3813 730.2975 730.2807 730.3352 730.4503 730.6078 730.7623 730.8984 730.9788 730.998 731.0335 731.1682 731.4498 731.8271 732.2374 732.5615 732.766 732.8329 732.5856 732.2843 732.1317 732.009 731.8264 731.8016 731.627 731.3456 731.0408 730.7433 730.4816 730.2819 730.2273 730.1981 730.1831 730.1786 730.1822 730.1907 730.2003 730.2065 730.2134 730.2242 730.2394 730.2426 730.2433 730.2448 730.2476 730.2511 730.2549 730.2582 730.2599 730.2552 730.2527 730.2519 730.2516 730.2496 730.2487 730.2485 730.2484 730.2482 730.2479 730.2479 730.2488 730.2493 730.2524 730.2601 730.2646 730.28 730.2964 730.3064 730.3158 730.3315 730.3459 730.3589 730.3731 730.3873 730.4016 730.4166 730.4315 730.4455 730.4579 730.4681 730.4761 730.4813 730.4836 730.4834 730.4798 730.4728 730.4631 730.4512 730.4379 730.4241 730.4095 730.3925 730.3726 730.3526 730.3333 730.3112 730.2845 730.2584 730.2405 730.2346 730.2406 730.2583 730.2941 730.3539 730.4393 730.557 730.6956 730.8474 731.0154 731.1942 731.3714 731.5248 731.6563 731.8246 732.2789 732.9297 733.5031 733.7505 733.623 733.2993 733.0336 733.0552 733.5972 734.9413 736.1336 737.8342 739.0251 739.6201 739.8153 -9999 -9999 -9999 -9999 -9999 -9999 -9999 -9999 -9999 -9999 -9999 -9999 -9999 -9999 -9999 -9999 -9999 -9999 -9999 -9999 -9999 -9999 -9999 -9999 -9999 -9999 -9999 -9999 -9999 -9999 -9999 -9999 -9999 -9999 -9999 -9999 -9999 -9999 -9999 -9999 -9999 -9999 -9999 -9999 -9999 -9999 -9999 -9999 -9999 -9999 -9999 -9999 -9999 -9999 -9999 -9999 -9999 -9999 -9999 -9999 -9999 -9999 -9999 -9999 -9999 -9999 -9999 -9999 -9999 -9999 -9999 -9999 -9999 -9999 -9999 -9999 -9999 -9999 -9999 -9999 -9999 -9999 -9999 -9999 -9999 -9999 -9999 -9999 -9999 -9999 -9999 -9999 -9999 -9999 -9999 -9999 -9999 -9999 -9999 -9999 -9999 -9999 -9999 -9999 -9999 -9999 -9999 -9999 -9999 -9999 -9999
-9999 -9999 -9999 -9999 -9999 -9999 -9999 -9999 -9999 -9999 -9999 -9999 -9999 -9999 -9999 -9999 -9999 -9999 -9999 -9999 -9999 -9999 748.1407 746.7898 745.2869 743.9398 742.7061 741.3997 739.8496 738.1699 736.7301 736.1537 736.3236 736.0574 734.9446 734.2512 733.552 732.7245 731.9396 731.4913 731.1702 730.895 730.6647 730.4922 730.3937 730.3755 730.4355 730.5659 730.7471 730.9584 731.1565 731.3046 731.3379 731.3627 731.4892 731.8283 732.2913 732.7308 732.9875 733.1707 733.3035 732.9851 732.6815 732.4872 732.3131 732.1237 731.9955 731.7991 731.4745 731.1367 730.8246 730.5564 730.3635 730.2796 730.2102 730.1722 730.1553 730.1508 730.155 730.1636 730.1729 730.1829 730.1947 730.2068 730.2126 730.2162 730.2201 730.2246 730.2299 730.2354 730.2405 730.2438 730.2443 730.2445 730.2452 730.2456 730.2455 730.2458 730.2473 730.2496 730.2518 730.2543 730.2567 730.2614 730.2618 730.2654 730.28 730.28 730.3024 730.3267 730.347 730.3657 730.385 730.403 730.4192 730.4348 730.4502 730.4655 730.481 730.4959 730.5095 730.5212 730.5305 730.5369 730.5403 730.5409 730.5385 730.5325 730.523 730.5109 730.4971 730.4818 730.4659 730.4492 730.4303 730.4093 730.3888 730.3693 730.3463 730.3174 730.2881 730.2675 730.2594 730.2635 730.2793 730.3105 730.3683 730.455 730.5787 730.7349 730.9072 731.0942 731.2902 731.4866 731.6567 731.8058 731.9587 732.381 733.0303 733.6458 733.96 733.8853 733.5828 733.3149 733.309 733.7337 734.478 735.6483 737.3851 738.7944 739.5297 739.785 739.8029 -9999 -9999 -9999 -9999 -9999 -9999 -9999 -9999 -9999 -9999 -9999 -9999 -9999 -9999 -9999 -9999 -9999 -9999 -9999 -9999 -9999 -9999 -9999 -9999 -9999 -9999 -9999 -9999 -9999 -9999 -9999 -9999 -9999 -9999 -9999 -9999 -9999 -9999 -9999 -9999 -9999 -9999 -9999 -9999 -9999 -9999 -9999 -9999 -9999 -9999 -9999 -9999 -9999 -9999 -9999 -9999 -9999 -9999 -9999 -9999 -9999 -9999 -9999 -9999 -9999 -9999 -9999 -9999 -9999 -9999 -9999 -9999 -9999 -9999 -9999 -9999 -9999 -9999 -9999 -9999 -9999 -9999 -9999 -9999 -9999 -9999 -9999 -9999 -9999 -9999 -9999 -9999 -9999 -9999 -9999 -9999 -9999 -9999 -9999 -9999 -9999 -9999 -9999 -9999 -9999 -9999 -9999 -9999 -9999 -9999
-9999 -9999 -9999 -9999 -9999 -9999 -9999 -9999 -9999 -9999 -9999 -9999 -9999 -9999 -9999 -9999 -9999 -9999 -9999 -9999 -9999 -9999 -9999 -9999 746.4041 745.2465 744.1581 743.0226 741.6597 740.1085 738.6476 737.7485 737.5371 737.0934 736.2192 735.146 734.3175 733.2903 732.3889 731.8137 731.4402 731.1017 730.8197 730.6119 730.4898 730.4649 730.5352 730.6885 730.9067 731.1755 731.4808 731.7734 731.8749 731.9268 732.0066 732.3787 732.8356 733.2569 733.3492 733.3606 733.1339 733.189 733.0363 732.8707 732.6484 732.3866 732.118 731.8144 731.4991 731.1797 730.8751 730.6108 730.4084 730.2802 730.2025 730.1566 730.1316 730.1213 730.1208 730.1273 730.1375 730.1502 730.1641 730.1771 730.1871 730.1946 730.2017 730.2087 730.2157 730.2224 730.2287 730.2339 730.2372 730.2402 730.2431 730.2451 730.246 730.2473 730.2502 730.2548 730.259 730.265 730.2684 730.28 730.28 730.28 730.301 730.3181 730.345 730.3745 730.4022 730.4276 730.451 730.4719 730.4901 730.5066 730.5223 730.5376 730.5526 730.5668 730.5795 730.59 730.5977 730.6022 730.6036 730.6021 730.5975 730.5893 730.5776 730.5634 730.5478 730.531 730.5135 730.4955 730.4756 730.4542 730.4336 730.4139 730.3901 730.3596 730.3281 730.3058 730.297 730.2995 730.3124 730.339 730.3926 730.4808 730.61 730.7823 730.9791 731.1912 731.4131 731.6351 731.8128 731.9529 732.0953 732.4468 733.0231 733.6223 733.9877 733.9991 733.7626 733.4991 733.3793 733.5085 733.95 735.3001 736.9027 738.333 739.1899 739.5079 739.5338 739.5924 -9999 -9999 -9999 -9999 -9999 -9999 -9999 -9999 -9999 -9999 -9999 -9999 -9999 -9999 -9999 -9999 -9999 -9999 -9999 -9999 -9999 -9999 -9999 -9999 -9999 -9999 -9999 -9999 -9999 -9999 -9999 -9999 -9999 -9999 -9999 -9999 -9999 -9999 -9999 -9999 -9999 -9999 -9999 -9999 -9999 -9999 -9999 -9999 -9999 -9999 -9999 -9999 -9999 -9999 -9999 -9999 -9999 -9999 -9999 -9999 -9999 -9999 -9999 -9999 -9999 -9999 -9999 -9999 -9999 -9999 -9999 -9999 -9999 -9999 -9999 -9999 -9999 -9999 -9999 -9999 -9999 -9999 -9999 -9999 -9999 -9999 -9999 -9999 -9999 -9999 -9999 -9999 -9999 -9999 -9999 -9999 -9999 -9999 -9999 -9999 -9999 -9999 -9999 -9999 -9999 -9999 -9999 -9999 -9999
-9999 -9999 -9999 -9999 -9999 -9999 -9999 -9999 -9999 -9999 -9999 -9999 -9999 -9999 -9999 -9999 -9999 -9999 -9999 -9999 -9999 -9999 -9999 -9999 -9999 745.8419 745.0319 744.1763 743.0533 741.7739 740.4756 739.4091 738.8568 738.3035 737.5109 736.0999 735.2407 733.8939 732.84 732.1688 731.748 731.3162 730.9694 730.7206 730.5778 730.5441 730.6235 730.8033 731.0625 731.3866 731.79 732.3083 732.741 732.9886 732.9717 733.0849 733.3258 733.5933 733.7734 733.9603 733.9837 734.0126 733.6931 733.3523 732.9855 732.6008 732.2094 731.8179 731.4988 731.1887 730.8959 730.6373 730.4293 730.2802 730.1935 730.1411 730.1102 730.0938 730.0889 730.0927 730.1029 730.1169 730.1332 730.1495 730.1638 730.1763 730.1874 730.1978 730.2072 730.2158 730.2236 730.2302 730.2357 730.2411 730.2466 730.2507 730.2519 730.2532 730.2571 730.2646 730.2687 730.28 730.28 730.2976 730.3099 730.3224 730.3459 730.3722 730.4034 730.4368 730.4694 730.4995 730.5264 730.5495 730.5691 730.5859 730.6012 730.6155 730.6293 730.642 730.6532 730.6622 730.6682 730.671 730.6705 730.6669 730.6602 730.6501 730.6362 730.6202 730.6031 730.5852 730.5664 730.5475 730.5277 730.5068 730.4868 730.4671 730.4426 730.4108 730.3779 730.3552 730.3467 730.3488 730.3588 730.381 730.4291 730.5175 730.6511 730.8342 731.0531 731.2894 731.5391 731.7985 732.0232 732.1895 732.3077 732.5527 732.9854 733.4905 733.8613 733.9591 733.8222 733.5995 733.4193 733.3983 733.7195 734.7046 736.0834 737.4856 738.494 738.9119 739.0075 739.0875 739.5504 740.2557 -9999 -9999 -9999 -9999 -9999 -9999 -9999 -9999 -9999 -9999 -9999 -9999 -9999 -9999 -9999 -9999 -9999 -9999 -9999 -9999 -9999 -9999 -9999 -9999 -9999 -9999 -9999 -9999 -9999 -9999 -9999 -9999 -9999 -9999 -9999 -9999 -9999 -9999 -9999 -9999 -9999 -9999 -9999 -9999 -9999 -9999 -9999 -9999 -9999 -9999 -9999 -9999 -9999 -9999 -9999 -9999 -9999 -9999 -9999 -9999 -9999 -9999 -9999 -9999 -9999 -9999 -9999 -9999 -9999 -9999 -9999 -9999 -9999 -9999 -9999 -9999 -9999 -9999 -9999 -9999 -9999 -9999 -9999 -9999 -9999 -9999 -9999 -9999 -9999 -9999 -9999 -9999 -9999 -9999 -9999 -9999 -9999 -9999 -9999 -9999 -9999 -9999 -9999 -9999 -9999 -9999 -9999
-9999 -9999 -9999 -9999 -9999 -9999 -9999 -9999 -9999 -9999 -9999 -9999 -9999 -9999 -9999 -9999 -9999 -9999 -9999 -9999 -9999 -9999 -9999 -9999 -9999 -9999 745.139 744.7894 743.9434 743.0339 742.1107 741.1635 740.4643 739.8011 739.0447 737.5558 735.8065 734.2646 733.1721 732.4449 731.8889 731.4744 731.0934 730.8085 730.6454 730.6095 730.6965 730.9025 731.2028 731.5671 731.9937 732.8124 733.6243 734.1421 733.8657 733.681 733.6478 733.7728 734.015 734.4097 734.7875 734.9703 734.3328 733.7278 733.1802 732.6846 732.2362 731.8235 731.4875 731.1749 730.888 730.6376 730.4332 730.2802 730.1884 730.129 730.0907 730.0686 730.0594 730.0607 730.0704 730.0861 730.105 730.1248 730.1437 730.1611 730.1769 730.1909 730.2034 730.2148 730.2249 730.2331 730.2395 730.2465 730.2553 730.2625 730.2631 730.2634 730.2672 730.28 730.28 730.2975 730.3125 730.3345 730.3563 730.3792 730.4076 730.4393 730.4741 730.5106 730.5463 730.5794 730.6086 730.6333 730.6536 730.6702 730.6844 730.697 730.7087 730.7195 730.7289 730.7363 730.741 730.7425 730.7406 730.7352 730.7264 730.7144 730.6988 730.6809 730.6625 730.6433 730.6237 730.6044 730.5856 730.5663 730.5472 730.5281 730.5034 730.471 730.4379 730.4154 730.4081 730.4106 730.4186 730.4371 730.4796 730.5659 730.7017 730.8898 731.1222 731.3755 731.6271 731.8387 732.1978 732.4597 732.59 732.7326 732.9861 733.3315 733.6475 733.8051 733.7744 733.6194 733.42 733.277 733.37 733.877 734.7121 736.0131 737.1061 737.8056 738.2664 738.6116 739.116 739.9426 740.8656 -9999 -9999 -9999 -9999 -9999 -9999 -9999 -9999 -9999 -9999 -9999 -9999 -9999 -9999 -9999 -9999 -9999 -9999 -9999 -9999 -9999 -9999 -9999 -9999 -9999 -9999 -9999 -9999 -9999 -9999 -9999 -9999 -9999 -9999 -9999 -9999 -9999 -9999 -9999 -9999 -9999 -9999 -9999 -9999 -9999 -9999 -9999 -9999 -9999 -9999 -9999 -9999 -9999 -9999 -9999 -9999 -9999 -9999 -9999 -9999 -9999 -9999 -9999 -9999 -9999 -9999 -9999 -9999 -9999 -9999 -9999 -9999 -9999 -9999 -9999 -9999 -9999 -9999 -9999 -9999 -9999 -9999 -9999 -9999 -9999 -9999 -9999 -9999 -9999 -9999 -9999 -9999 -9999 -9999 -9999 -9999 -9999 -9999 -9999 -9999 -9999 -9999 -9999 -9999 -9999 -9999
-9999 -9999 -9999 -9999 -9999 -9999 -9999 -9999 -9999 -9999 -9999 -9999 -9999 -9999 -9999 -9999 -9999 -9999 -9999 -9999 -9999 -9999 -9999 -9999 -9999 -9999 -9999 -9999 744.0194 743.736 743.2894 742.6631 741.9262 741.2255 740.5176 739.0533 736.9787 734.8322 733.6329 732.909 732.3315 731.7563 731.2493 730.8975 730.701 730.6543 730.748 730.9753 731.3291 731.7883 732.3054 733.144 734.1317 734.973 734.3251 734.0497 733.7128 733.6904 733.9664 734.3954 734.9866 735.478 734.5742 733.6829 732.9902 732.4482 732.1071 731.7913 731.4347 731.117 730.8412 730.6069 730.4203 730.2805 730.1857 730.1171 730.0703 730.042 730.0295 730.0302 730.0409 730.059 730.0815 730.1055 730.1289 730.1508 730.1707 730.1885 730.2045 730.2192 730.2322 730.2421 730.2479 730.2549 730.2675 730.28 730.28 730.28 730.28 730.2975 730.312 730.3347 730.3595 730.3877 730.4169 730.4475 730.4809 730.5167 730.5543 730.5929 730.6305 730.6653 730.6958 730.7212 730.7416 730.7574 730.7699 730.7802 730.7893 730.7977 730.8054 730.8115 730.8154 730.8161 730.8132 730.8066 730.7961 730.782 730.7646 730.7451 730.7252 730.705 730.6847 730.6656 730.6483 730.6311 730.6135 730.5951 730.5713 730.5397 730.5077 730.4865 730.4807 730.4846 730.4918 730.5074 730.5457 730.6274 730.7625 730.9502 731.1893 731.4717 731.7946 732.092 732.4391 732.7383 732.8892 732.9552 733.0415 733.2062 733.4176 733.588 733.6426 733.5635 733.373 733.1542 733.0566 733.229 733.6769 734.4047 735.4098 736.313 737.2787 738.0002 738.6737 739.463 740.5217 740.9343 -9999 -9999 -9999 -9999 -9999 -9999 -9999 -9999 -9999 -9999 -9999 -9999 -9999 -9999 -9999 -9999 -9999 -9999 -9999 -9999 -9999 -9999 -9999 -9999 -9999 -9999 -9999 -9999 -9999 -9999 -9999 -9999 -9999 -9999 -9999 -9999 -9999 -9999 -9999 -9999 -9999 -9999 -9999 -9999 -9999 -9999 -9999 -9999 -9999 -9999 -9999 -9999 -9999 -9999 -9999 -9999 -9999 -9999 -9999 -9999 -9999 -9999 -9999 -9999 -9999 -9999 -9999 -9999 -9999 -9999 -9999 -9999 -9999 -9999 -9999 -9999 -9999 -9999 -9999 -9999 -9999 -9999 -9999 -9999 -9999 -9999 -9999 -9999 -9999 -9999 -9999 -9999 -9999 -9999 -9999 -9999 -9999 -9999 -9999 -9999 -9999 -9999 -9999 -9999 -9999
-9999 -9999 -9999 -9999 -9999 -9999 -9999 -9999 -9999 -9999 -9999 -9999 -9999 -9999 -9999 -9999 -9999 -9999 -9999 -9999 -9999 -9999 -9999 -9999 -9999 -9999 -9999 -9999 -9999 -9999 -9999 -9999 742.8656 742.2862 741.7322 740.3196 738.1024 735.678 734.3112 733.5603 732.9046 732.0228 731.4275 731.0148 730.7714 730.689 730.7617 730.9772 731.3247 731.7791 732.2366 732.8905 733.5641 734.009 734.163 734.2708 733.4415 733.2061 733.3198 733.5389 733.8572 733.946 733.4927 732.9168 732.4028 731.926 731.7688 731.5156 731.2344 730.9723 730.738 730.5347 730.38 730.2792 730.1732 730.0942 730.0408 730.009 729.9956 729.9978 730.0121 730.0352 730.063 730.0923 730.1208 730.1472 730.1707 730.1915 730.2103 730.2285 730.2452 730.2577 730.2606 730.2646 730.28 730.2955 730.3035 730.3096 730.3176 730.3365 730.3593 730.3875 730.4192 730.4534 730.4886 730.5249 730.5627 730.6019 730.6418 730.6819 730.7205 730.7557 730.7865 730.8118 730.8314 730.8457 730.8559 730.8635 730.8698 730.8757 730.8817 730.8872 730.8909 730.8917 730.8885 730.881 730.869 730.8528 730.8333 730.812 730.7909 730.7698 730.749 730.7303 730.7147 730.7001 730.684 730.6664 730.6445 730.6156 730.5863 730.5677 730.5643 730.5701 730.5781 730.592 730.6277 730.704 730.8347 731.0134 731.2384 731.5035 731.8219 732.2643 732.6495 732.9826 733.159 733.1711 733.1298 733.1404 733.2264 733.3585 733.4567 733.4471 733.3062 733.0848 732.9075 732.8942 733.0736 733.4182 733.9016 734.6691 735.9073 737.1679 738.1843 739.1734 740.2396 740.873 739.761 -9999 -9999 -9999 -9999 -9999 -9999 -9999 -9999 -9999 -9999 -9999 -9999 -9999 -9999 -9999 -9999 -9999 -9999 -9999 -9999 -9999 -9999 -9999 -9999 -9999 -9999 -9999 -9999 -9999 -9999 -9999 -9999 -9999 -9999 -9999 -9999 -9999 -9999 -9999 -9999 -9999 -9999 -9999 -9999 -9999 -9999 -9999 -9999 -9999 -9999 -9999 -9999 -9999 -9999 -9999 -9999 -9999 -9999 -9999 -9999 -9999 -9999 -9999 -9999 -9999 -9999 -9999 -9999 -9999 -9999 -9999 -9999 -9999 -9999 -9999 -9999 -9999 -9999 -9999 -9999 -9999 -9999 -9999 -9999 -9999 -9999 -9999 -9999 -9999 -9999 -9999 -9999 -9999 -9999 -9999 -9999 -9999 -9999 -9999 -9999 -9999 -9999 -9999 -9999
-9999 -9999 -9999 -9999 -9999 -9999 -9999 -9999 -9999 -9999 -9999 -9999 -9999 -9999 -9999 -9999 -9999 -9999 -9999 -9999 -9999 -9999 -9999 -9999 -9999 -9999 -9999 -9999 -9999 -9999 -9999 -9999 -9999 742.9667 742.6234 741.3254 739.179 736.7571 735.0906 734.2627 733.418 732.5454 731.8035 731.2657 730.9175 730.7518 730.754 730.9033 731.168 731.5035 731.8532 732.3345 732.7324 733.0358 733.3085 733.4875 732.9014 732.5706 732.4254 732.2462 732.2742 732.2743 732.1132 731.9189 731.7411 731.4475 731.2742 731.105 730.9297 730.7573 730.5872 730.4153 730.2806 730.1957 730.1129 730.0441 729.9945 729.965 729.9547 729.9615 729.9822 730.0127 730.0486 730.0854 730.1204 730.1514 730.1782 730.2009 730.2207 730.2415 730.2624 730.28 730.28 730.28 730.3005 730.3216 730.3379 730.3519 730.3677 730.3905 730.4188 730.4521 730.4891 730.5283 730.5684 730.6093 730.6509 730.693 730.7351 730.7761 730.8149 730.85 730.8798 730.9038 730.9218 730.934 730.9415 730.9461 730.9495 730.9531 730.958 730.9635 730.9678 730.9694 730.9664 730.9582 730.9448 730.9266 730.9049 730.8817 730.8589 730.837 730.8159 730.7978 730.7838 730.7719 730.7573 730.7404 730.7209 730.6965 730.6719 730.6577 730.6578 730.6666 730.6768 730.6911 730.726 730.799 730.9239 731.0941 731.2999 731.5343 731.8167 732.2876 732.7701 733.1887 733.4208 733.3867 733.239 733.142 733.1143 733.1705 733.2672 733.314 733.269 733.1331 732.9864 732.9181 732.9216 733.0426 733.2495 733.691 734.5489 736.0037 737.5079 738.8018 739.8729 740.3992 739.7949 -9999 -9999 -9999 -9999 -9999 -9999 -9999 -9999 -9999 -9999 -9999 -9999 -9999 -9999 -9999 -9999 -9999 -9999 -9999 -9999 -9999 -9999 -9999 -9999 -9999 -9999 -9999 -9999 -9999 -9999 -9999 -9999 -9999 -9999 -9999 -9999 -9999 -9999 -9999 -9999 -9999 -9999 -9999 -9999 -9999 -9999 -9999 -9999 -9999 -9999 -9999 -9999 -9999 -9999 -9999 -9999 -9999 -9999 -9999 -9999 -9999 -9999 -9999 -9999 -9999 -9999 -9999 -9999 -9999 -9999 -9999 -9999 -9999 -9999 -9999 -9999 -9999 -9999 -9999 -9999 -9999 -9999 -9999 -9999 -9999 -9999 -9999 -9999 -9999 -9999 -9999 -9999 -9999 -9999 -9999 -9999 -9999 -9999 -9999 -9999 -9999 -9999 -9999 -9999
-9999 -9999 -9999 -9999 -9999 -9999 -9999 -9999 -9999 -9999 -9999 -9999 -9999 -9999 -9999 -9999 -9999 -9999 -9999 -9999 -9999 -9999 -9999 -9999 -9999 -9999 -9999 -9999 -9999 -9999 -9999 -9999 -9999 743.1173 742.9353 741.9956 740.1091 737.812 735.7655 734.7901 734.0884 733.363 732.4968 731.7684 731.2196 730.8923 730.7731 730.8176 730.9772 731.2045 731.463 731.7535 731.8625 731.9423 732.0532 732.124 731.9285 731.7969 731.6764 731.4368 731.3361 731.2977 731.2452 731.1876 731.1061 730.9335 730.7607 730.6665 730.5925 730.5165 730.4243 730.2815 730.1765 730.0989 730.0306 729.974 729.9332 729.9105 729.9069 729.9216 729.9513 729.9918 730.0378 730.0841 730.1268 730.1636 730.194 730.2175 730.2354 730.2574 730.28 730.2997 730.3096 730.3197 730.3406 730.3641 730.3857 730.4061 730.4282 730.4553 730.488 730.5256 730.5667 730.6096 730.6537 730.6985 730.7437 730.7888 730.8328 730.8748 730.9132 730.9471 730.9751 730.9969 731.0124 731.0218 731.0262 731.0278 731.0286 731.0308 731.0351 731.0411 731.0467 731.0493 731.0469 731.0384 731.0234 731.0032 730.9791 730.9536 730.9291 730.9064 730.8851 730.8674 730.8551 730.8448 730.8318 730.8157 730.7991 730.7803 730.7623 730.7543 730.7597 730.7729 730.787 730.8038 730.8394 730.9119 731.033 731.202 731.403 731.6208 731.8409 732.3335 732.8888 733.4156 733.7477 733.6718 733.4166 733.2701 733.1386 733.0991 733.1582 733.2507 733.3365 733.3374 733.2738 733.2125 733.0785 733.0591 733.0902 733.2535 733.7719 734.8502 736.6663 738.1458 739.1934 739.8098 739.5234 -9999 -9999 -9999 -9999 -9999 -9999 -9999 -9999 -9999 -9999 -9999 -9999 -9999 -9999 -9999 -9999 -9999 -9999 -9999 -9999 -9999 -9999 -9999 -9999 -9999 -9999 -9999 -9999 -9999 -9999 -9999 -9999 -9999 -9999 -9999 -9999 -9999 -9999 -9999 -9999 -9999 -9999 -9999 -9999 -9999 -9999 -9999 -9999 -9999 -9999 -9999 -9999 -9999 -9999 -9999 -9999 -9999 -9999 -9999 -9999 -9999 -9999 -9999 -9999 -9999 -9999 -9999 -9999 -9999 -9999 -9999 -9999 -9999 -9999 -9999 -9999 -9999 -9999 -9999 -9999 -9999 -9999 -9999 -9999 -9999 -9999 -9999 -9999 -9999 -9999 -9999 -9999 -9999 -9999 -9999 -9999 -9999 -9999 -9999 -9999 -9999 -9999 -9999 -9999
-9999 -9999 -9999 -9999 -9999 -9999 -9999 -9999 -9999 -9999 -9999 -9999 -9999 -9999 -9999 -9999 -9999 -9999 -9999 -9999 -9999 -9999 -9999 -9999 -9999 -9999 -9999 -9999 -9999 -9999 -9999 -9999 -9999 742.9809 742.8862 742.2029 740.7346 738.858 737.0403 735.8807 735.3448 734.8419 733.9698 732.7241 731.7614 731.1551 730.8563 730.7723 730.8171 730.929 731.0659 731.187 731.2064 731.1979 731.2125 731.2316 731.1612 731.066 730.916 730.7769 730.7111 730.6884 730.6766 730.6647 730.6266 730.5121 730.3082 730.2803 730.2802 730.2811 730.2759 730.167 730.071 729.9974 729.9382 729.8923 729.8618 729.8489 729.8549 729.8799 729.9211 729.9738 730.0319 730.0889 730.1401 730.183 730.218 730.2433 730.2548 730.28 730.3065 730.3311 730.3511 730.3709 730.3951 730.421 730.4462 730.4708 730.4976 730.5287 730.565 730.6057 730.6497 730.6957 730.7429 730.791 730.8396 730.8877 730.934 730.9767 731.0144 731.0464 731.0719 731.0906 731.1028 731.109 731.1105 731.1095 731.1083 731.1096 731.1141 731.1213 731.1287 731.1327 731.1309 731.1218 731.1053 731.0825 731.0558 731.0281 731.0018 730.9778 730.9563 730.9388 730.9272 730.9183 730.9061 730.8909 730.8773 730.8652 730.8552 730.855 730.8678 730.8873 730.9069 730.928 730.9646 731.0371 731.1549 731.324 731.5378 731.797 732.0112 732.4399 733.0046 733.6283 734.1593 734.1238 733.8608 733.715 733.4277 733.2789 733.2583 733.3618 733.5921 733.6914 733.6058 733.4258 733.3238 733.2483 733.2311 733.2671 733.6064 734.5017 736.3237 737.7478 738.5474 738.9485 738.8898 -9999 -9999 -9999 -9999 -9999 -9999 -9999 -9999 -9999 -9999 -9999 -9999 -9999 -9999 -9999 -9999 -9999 -9999 -9999 -9999 -9999 -9999 -9999 -9999 -9999 -9999 -9999 -9999 -9999 -9999 -9999 -9999 -9999 -9999 -9999 -9999 -9999 -9999 -9999 -9999 -9999 -9999 -9999 -9999 -9999 -9999 -9999 -9999 -9999 -9999 -9999 -9999 -9999 -9999 -9999 -9999 -9999 -9999 -9999 -9999 -9999 -9999 -9999 -9999 -9999 -9999 -9999 -9999 -9999 -9999 -9999 -9999 -9999 -9999 -9999 -9999 -9999 -9999 -9999 -9999 -9999 -9999 -9999 -9999 -9999 -9999 -9999 -9999 -9999 -9999 -9999 -9999 -9999 -9999 -9999 -9999 -9999 -9999 -9999 -9999 -9999 -9999 -9999 -9999
-9999 -9999 -9999 -9999 -9999 -9999 -9999 -9999 -9999 -9999 -9999 -9999 -9999 -9999 -9999 -9999 -9999 -9999 -9999 -9999 -9999 -9999 -9999 -9999 -9999 -9999 -9999 -9999 -9999 -9999 -9999 -9999 -9999 742.4164 742.3712 741.8203 740.9113 739.7474 738.5447 737.6494 737.3177 736.8655 735.8087 734.1301 732.5251 731.5325 731.0167 730.7964 730.7312 730.7339 730.7596 730.7739 730.7421 730.6917 730.6445 730.6421 730.614 730.5298 730.3265 730.2783 730.2731 730.2741 730.2758 730.2786 730.2809 730.2607 730.0903 730.0272 730.0265 730.0463 730.0549 730.004 729.9414 729.8854 729.8395 729.8054 729.7858 729.7841 729.8019 729.8395 729.8942 729.9608 730.0325 730.1014 730.161 730.2087 730.2487 730.28 730.2801 730.3117 730.3459 730.3776 730.4061 730.4336 730.4619 730.4901 730.5175 730.5449 730.575 730.6091 730.6482 730.6912 730.7371 730.7851 730.8349 730.886 730.9379 730.9891 731.0377 731.0812 731.118 731.1474 731.1695 731.1847 731.1934 731.1966 731.1959 731.193 731.1908 731.1918 731.1972 731.2058 731.2148 731.2202 731.2189 731.209 731.1904 731.1649 731.1355 731.1055 731.0771 731.0519 731.0297 731.0118 730.9999 730.9911 730.9796 730.965 730.9541 730.9496 730.9492 730.9576 730.9792 731.0071 731.0334 731.0599 731.0985 731.1676 731.2776 731.424 731.6029 731.8096 732.0719 732.484 733.0327 733.6531 734.2468 734.7861 735.1137 734.8029 734.1976 733.9098 733.7401 733.7401 734.0896 734.1238 733.766 733.5894 733.668 733.5218 733.5547 733.6321 734.0281 735.0188 736.617 737.6005 738.0078 738.0899 738.0785 -9999 -9999 -9999 -9999 -9999 -9999 -9999 -9999 -9999 -9999 -9999 -9999 -9999 -9999 -9999 -9999 -9999 -9999 -9999 -9999 -9999 -9999 -9999 -9999 -9999 -9999 -9999 -9999 -9999 -9999 -9999 -9999 -9999 -9999 -9999 -9999 -9999 -9999 -9999 -9999 -9999 -9999 -9999 -9999 -9999 -9999 -9999 -9999 -9999 -9999 -9999 -9999 -9999 -9999 -9999 -9999 -9999 -9999 -9999 -9999 -9999 -9999 -9999 -9999 -9999 -9999 -9999 -9999 -9999 -9999 -9999 -9999 -9999 -9999 -9999 -9999 -9999 -9999 -9999 -9999 -9999 -9999 -9999 -9999 -9999 -9999 -9999 -9999 -9999 -9999 -9999 -9999 -9999 -9999 -9999 -9999 -9999 -9999 -9999 -9999 -9999 -9999 -9999 -9999
-9999 -9999 -9999 -9999 -9999 -9999 -9999 -9999 -9999 -9999 -9999 -9999 -9999 -9999 -9999 -9999 -9999 -9999 -9999 -9999 -9999 -9999 -9999 -9999 -9999 -9999 -9999 -9999 -9999 -9999 -9999 -9999 -9999 -9999 741.3103 740.9766 740.5927 740.1459 739.7339 739.2611 739.1248 738.6532 737.3737 735.3546 733.4016 731.9718 731.2451 730.9053 730.7452 730.6552 730.5869 730.5249 730.4585 730.3898 730.2867 730.2794 730.281 730.2623 730.066 729.964 729.9274 729.917 729.9178 729.9255 729.934 729.92 729.838 729.7961 729.8003 729.8259 729.8446 729.832 729.8026 729.7695 729.7403 729.7195 729.7119 729.7217 729.7518 729.8029 729.8719 729.9539 730.041 730.1233 730.1912 730.2396 730.28 730.3152 730.3356 730.3685 730.4055 730.4418 730.4762 730.5089 730.5403 730.5699 730.5983 730.6273 730.6594 730.6958 730.7366 730.781 730.8279 730.8773 730.9292 730.9832 731.0382 731.0924 731.1429 731.187 731.2225 731.2489 731.2671 731.2783 731.284 731.2855 731.2839 731.2806 731.2784 731.2798 731.2861 731.2961 731.3066 731.313 731.3117 731.3005 731.2795 731.2511 731.2186 731.186 731.1557 731.1289 731.1058 731.0865 731.0729 731.0627 731.051 731.0375 731.0292 731.032 731.0427 731.0612 731.0918 731.1288 731.1627 731.195 731.2365 731.3036 731.4055 731.5322 731.6698 731.8157 732.1063 732.531 733.0962 733.762 734.4338 735.5543 736.1553 736.2303 735.7177 735.1854 734.7769 734.4499 734.7861 734.3213 733.7888 733.6792 734.1164 733.9188 734.0817 734.2192 734.7325 735.8514 737.2237 737.7742 737.8608 737.8362 737.8489 -9999 -9999 -9999 -9999 -9999 -9999 -9999 -9999 -9999 -9999 -9999 -9999 -9999 -9999 -9999 -9999 -9999 -9999 -9999 -9999 -9999 -9999 -9999 -9999 -9999 -9999 -9999 -9999 -9999 -9999 -9999 -9999 -9999 -9999 -9999 -9999 -9999 -9999 -9999 -9999 -9999 -9999 -9999 -9999 -9999 -9999 -9999 -9999 -9999 -9999 -9999 -9999 -9999 -9999 -9999 -9999 -9999 -9999 -9999 -9999 -9999 -9999 -9999 -9999 -9999 -9999 -9999 -9999 -9999 -9999 -9999 -9999 -9999 -9999 -9999 -9999 -9999 -9999 -9999 -9999 -9999 -9999 -9999 -9999 -9999 -9999 -9999 -9999 -9999 -9999 -9999 -9999 -9999 -9999 -9999 -9999 -9999 -9999 -9999 -9999 -9999 -9999 -9999 -9999
-9999 -9999 -9999 -9999 -9999 -9999 -9999 -9999 -9999 -9999 -9999 -9999 -9999 -9999 -9999 -9999 -9999 -9999 -9999 -9999 -9999 -9999 -9999 -9999 -9999 -9999 -9999 -9999 -9999 -9999 -9999 -9999 -9999 -9999 -9999 740.0807 740.0001 739.9751 740.0826 740.0792 740.0719 739.6965 738.3445 736.1609 734.0581 732.3944 731.5336 731.1094 730.8723 730.7028 730.5567 730.4258 730.3263 730.2775 730.1464 730.0787 730.0444 729.9935 729.8545 729.7421 729.6755 729.6403 729.6246 729.6213 729.6226 729.6146 729.5859 729.5772 729.5974 729.6329 729.6643 729.6772 729.674 729.6623 729.6495 729.6421 729.6463 729.6676 729.7095 729.7728 729.8559 729.9535 730.0569 730.1544 730.2327 730.2801 730.3257 730.3678 730.4039 730.4429 730.4834 730.5233 730.5615 730.5973 730.63 730.6595 730.6876 730.7168 730.7498 730.7875 730.8295 730.8744 730.9219 730.972 731.0256 731.0819 731.1399 731.1967 731.2489 731.2929 731.3265 731.3492 731.363 731.3705 731.3745 731.3765 731.3766 731.3745 731.3729 731.375 731.382 731.3929 731.4043 731.4114 731.4097 731.3966 731.3729 731.3413 731.3057 731.2705 731.238 731.2096 731.1849 731.1635 731.1464 731.1335 731.1205 731.1082 731.1028 731.1121 731.1342 731.1642 731.2037 731.2491 731.2905 731.3278 731.3727 731.4427 731.5446 731.6727 731.8076 731.9446 732.2036 732.6525 733.3065 734.2573 735.345 736.3342 737.007 737.2794 737.1461 736.8625 736.4655 735.9394 735.3736 734.6796 734.0274 733.8441 734.6679 734.5919 735.0869 735.1879 735.7048 736.8749 737.6075 737.9814 737.9092 737.9502 -9999 -9999 -9999 -9999 -9999 -9999 -9999 -9999 -9999 -9999 -9999 -9999 -9999 -9999 -9999 -9999 -9999 -9999 -9999 -9999 -9999 -9999 -9999 -9999 -9999 -9999 -9999 -9999 -9999 -9999 -9999 -9999 -9999 -9999 -9999 -9999 -9999 -9999 -9999 -9999 -9999 -9999 -9999 -9999 -9999 -9999 -9999 -9999 -9999 -9999 -9999 -9999 -9999 -9999 -9999 -9999 -9999 -9999 -9999 -9999 -9999 -9999 -9999 -9999 -9999 -9999 -9999 -9999 -9999 -9999 -9999 -9999 -9999 -9999 -9999 -9999 -9999 -9999 -9999 -9999 -9999 -9999 -9999 -9999 -9999 -9999 -9999 -9999 -9999 -9999 -9999 -9999 -9999 -9999 -9999 -9999 -9999 -9999 -9999 -9999 -9999 -9999 -9999 -9999 -9999
-9999 -9999 -9999 -9999 -9999 -9999 -9999 -9999 -9999 -9999 -9999 -9999 -9999 -9999 -9999 -9999 -9999 -9999 -9999 -9999 -9999 -9999 -9999 -9999 -9999 -9999 -9999 -9999 -9999 -9999 -9999 -9999 -9999 -9999 -9999 -9999 739.4006 739.2932 739.7111 739.8769 739.8909 739.5597 738.386 736.3818 734.4407 732.8778 731.9014 731.4175 731.1134 730.8726 730.6608 730.4583 730.282 730.1967 730.075 729.9764 729.912 729.8419 729.7257 729.6119 729.5244 729.4617 729.4207 729.3965 729.3834 729.3763 729.3749 729.3928 729.4318 729.4807 729.5253 729.5556 729.5709 729.5758 729.5768 729.5811 729.5963 729.6281 729.68 729.7534 729.8478 729.9589 730.0774 730.1893 730.2797 730.3303 730.3835 730.4366 730.4856 730.5325 730.5776 730.6208 730.6615 730.6985 730.7306 730.7583 730.7844 730.8125 730.8455 730.8837 730.926 730.9707 731.0182 731.0688 731.1236 731.1821 731.2424 731.3011 731.3544 731.3979 731.429 731.4474 731.4562 731.4603 731.4643 731.4701 731.4755 731.4761 731.4756 731.4779 731.4847 731.4956 731.5073 731.5146 731.5121 731.4962 731.4696 731.4353 731.3969 731.3593 731.3251 731.295 731.2682 731.2433 731.2214 731.2039 731.1891 731.1772 731.1752 731.1902 731.2234 731.2653 731.3132 731.3647 731.4121 731.4527 731.4993 731.5747 731.6823 731.809 731.9327 732.0709 732.3452 732.7792 733.4882 734.6789 735.8521 736.8768 737.6567 738.1504 738.3647 738.2966 737.9951 737.5449 736.9183 736.1694 735.4138 734.9769 735.3156 736.09 736.9286 737.237 737.5216 737.8621 737.9551 738.1195 738.1329 738.5057 -9999 -9999 -9999 -9999 -9999 -9999 -9999 -9999 -9999 -9999 -9999 -9999 -9999 -9999 -9999 -9999 -9999 -9999 -9999 -9999 -9999 -9999 -9999 -9999 -9999 -9999 -9999 -9999 -9999 -9999 -9999 -9999 -9999 -9999 -9999 -9999 -9999 -9999 -9999 -9999 -9999 -9999 -9999 -9999 -9999 -9999 -9999 -9999 -9999 -9999 -9999 -9999 -9999 -9999 -9999 -9999 -9999 -9999 -9999 -9999 -9999 -9999 -9999 -9999 -9999 -9999 -9999 -9999 -9999 -9999 -9999 -9999 -9999 -9999 -9999 -9999 -9999 -9999 -9999 -9999 -9999 -9999 -9999 -9999 -9999 -9999 -9999 -9999 -9999 -9999 -9999 -9999 -9999 -9999 -9999 -9999 -9999 -9999 -9999 -9999 -9999 -9999 -9999 -9999 -9999
-9999 -9999 -9999 -9999 -9999 -9999 -9999 -9999 -9999 -9999 -9999 -9999 -9999 -9999 -9999 -9999 -9999 -9999 -9999 -9999 -9999 -9999 -9999 -9999 -9999 -9999 -9999 -9999 -9999 -9999 -9999 -9999 -9999 -9999 -9999 739.4137 738.937 738.6128 738.5577 738.5239 738.4426 738.1282 737.2521 735.9068 734.4295 733.1592 732.2893 731.7927 731.4406 731.146 730.9008 730.6559 730.4406 730.2791 730.1158 729.9778 729.9001 729.8297 729.7134 729.5945 729.4916 729.4002 729.3284 729.2771 729.2427 729.2272 729.2346 729.2684 729.3225 729.3839 729.4385 729.4786 729.5042 729.5194 729.5304 729.5446 729.5694 729.6102 729.6698 729.7493 729.8504 729.9707 730.0999 730.2156 730.2806 730.3696 730.4503 730.5215 730.5836 730.6387 730.6884 730.7341 730.7758 730.812 730.8416 730.8656 730.8881 730.9138 730.9454 730.983 731.0247 731.0688 731.1158 731.1667 731.2227 731.2826 731.3442 731.4037 731.4569 731.5001 731.5289 731.5421 731.5455 731.5464 731.552 731.5653 731.5815 731.5854 731.5853 731.5869 731.5925 731.6022 731.613 731.6201 731.6169 731.5968 731.5676 731.532 731.4911 731.4514 731.4165 731.3856 731.3567 731.327 731.2988 731.2755 731.2578 731.2468 731.2481 731.2681 731.3104 731.3634 731.4188 731.4734 731.5248 731.5681 731.6107 731.6944 731.8095 731.9338 732.0626 732.2404 732.5071 732.9646 733.6286 734.8219 735.9836 737.0815 738.0929 738.8477 739.0604 739.0569 738.9385 738.5837 738.076 737.5734 736.9868 736.6002 736.7908 737.581 738.3793 738.5924 738.72 738.8095 738.6562 738.741 739.0093 -9999 -9999 -9999 -9999 -9999 -9999 -9999 -9999 -9999 -9999 -9999 -9999 -9999 -9999 -9999 -9999 -9999 -9999 -9999 -9999 -9999 -9999 -9999 -9999 -9999 -9999 -9999 -9999 -9999 -9999 -9999 -9999 -9999 -9999 -9999 -9999 -9999 -9999 -9999 -9999 -9999 -9999 -9999 -9999 -9999 -9999 -9999 -9999 -9999 -9999 -9999 -9999 -9999 -9999 -9999 -9999 -9999 -9999 -9999 -9999 -9999 -9999 -9999 -9999 -9999 -9999 -9999 -9999 -9999 -9999 -9999 -9999 -9999 -9999 -9999 -9999 -9999 -9999 -9999 -9999 -9999 -9999 -9999 -9999 -9999 -9999 -9999 -9999 -9999 -9999 -9999 -9999 -9999 -9999 -9999 -9999 -9999 -9999 -9999 -9999 -9999 -9999 -9999 -9999 -9999 -9999
-9999 -9999 -9999 -9999 -9999 -9999 -9999 -9999 -9999 -9999 -9999 -9999 -9999 -9999 -9999 -9999 -9999 -9999 -9999 -9999 -9999 -9999 -9999 -9999 -9999 -9999 -9999 -9999 -9999 -9999 -9999 -9999 -9999 -9999 -9999 739.1976 738.3687 737.7363 737.1401 736.7399 736.5494 736.4323 736.0986 735.2506 734.1919 733.2346 732.5397 732.1006 731.79 731.4818 731.2582 730.9803 730.7268 730.4909 730.2764 730.0864 730.0194 729.9692 729.8283 729.7028 729.5938 729.4698 729.3647 729.2835 729.219 729.1837 729.1869 729.2263 729.2894 729.3582 729.4166 729.4565 729.4822 729.5004 729.5173 729.5391 729.5724 729.6216 729.6865 729.767 729.8684 729.9937 730.1351 730.2783 730.3558 730.4522 730.5477 730.632 730.7036 730.7642 730.8167 730.863 730.9036 730.9368 730.9618 730.9805 730.998 731.02 731.0492 731.085 731.1249 731.1676 731.2136 731.2645 731.321 731.3817 731.4431 731.5018 731.554 731.5973 731.6257 731.6332 731.6309 731.6285 731.6356 731.6586 731.6943 731.6993 731.6985 731.6989 731.7021 731.7084 731.7162 731.7219 731.7195 731.6919 731.6623 731.6293 731.586 731.5452 731.5114 731.4822 731.4521 731.4161 731.3801 731.3503 731.3299 731.3198 731.3245 731.3486 731.3965 731.4583 731.519 731.5745 731.6297 731.6803 731.7097 731.8097 731.9358 732.074 732.2269 732.4191 732.7345 733.2416 733.9307 734.9504 736.0624 737.2468 738.4271 739.1366 739.2579 739.2014 739.1714 738.9796 738.546 738.124 737.7839 737.7747 737.9226 738.3916 738.9605 739.2678 739.4379 739.4821 739.3849 739.5583 -9999 -9999 -9999 -9999 -9999 -9999 -9999 -9999 -9999 -9999 -9999 -9999 -9999 -9999 -9999 -9999 -9999 -9999 -9999 -9999 -9999 -9999 -9999 -9999 -9999 -9999 -9999 -9999 -9999 -9999 -9999 -9999 -9999 -9999 -9999 -9999 -9999 -9999 -9999 -9999 -9999 -9999 -9999 -9999 -9999 -9999 -9999 -9999 -9999 -9999 -9999 -9999 -9999 -9999 -9999 -9999 -9999 -9999 -9999 -9999 -9999 -9999 -9999 -9999 -9999 -9999 -9999 -9999 -9999 -9999 -9999 -9999 -9999 -9999 -9999 -9999 -9999 -9999 -9999 -9999 -9999 -9999 -9999 -9999 -9999 -9999 -9999 -9999 -9999 -9999 -9999 -9999 -9999 -9999 -9999 -9999 -9999 -9999 -9999 -9999 -9999 -9999 -9999 -9999 -9999 -9999 -9999
-9999 -9999 -9999 -9999 -9999 -9999 -9999 -9999 -9999 -9999 -9999 -9999 -9999 -9999 -9999 -9999 -9999 -9999 -9999 -9999 -9999 -9999 -9999 -9999 -9999 -9999 -9999 -9999 -9999 -9999 -9999 -9999 -9999 -9999 740.5467 739.0737 737.8626 736.8029 735.7985 734.9918 734.8865 735.6372 735.3875 734.692 733.8811 733.2004 732.7167 732.3929 732.1414 731.874 731.7347 731.4088 731.1403 730.8354 730.5638 730.3234 730.2811 730.2563 730.05 729.9348 729.8422 729.6723 729.5367 729.4313 729.3264 729.259 729.2481 729.2855 729.3508 729.4203 729.4729 729.4987 729.5125 729.5259 729.5441 729.5713 729.6127 729.6708 729.7408 729.816 729.9095 730.0319 730.1638 730.2826 730.4308 730.5651 730.6794 730.773 730.8488 730.9107 730.9628 731.0073 731.0442 731.0719 731.0901 731.1017 731.1129 731.13 731.1555 731.1882 731.2253 731.2656 731.3103 731.3607 731.4171 731.4771 731.5366 731.5922 731.6412 731.6863 731.7198 731.7219 731.7157 731.7112 731.7164 731.7425 731.8092 731.8101 731.81 731.81 731.81 731.81 731.81 731.8101 731.8098 731.7684 731.7457 731.7238 731.6768 731.6368 731.6083 731.5853 731.5574 731.5118 731.4671 731.4321 731.41 731.4012 731.4083 731.4352 731.4844 731.5505 731.6148 731.6658 731.7292 731.8088 731.8143 731.9474 732.0956 732.2544 732.4243 732.6321 732.9278 733.3995 734.1926 735.2216 736.3548 737.6185 738.8162 -9999 -9999 739.0074 738.997 738.8146 738.4604 738.1263 737.8928 738.0746 738.312 738.6476 739.0325 739.621 740.0462 740.355 740.5927 -9999 -9999 -9999 -9999 -9999 -9999 -9999 -9999 -9999 -9999 -9999 -9999 -9999 -9999 -9999 -9999 -9999 -9999 -9999 -9999 -9999 -9999 -9999 -9999 -9999 -9999 -9999 -9999 -9999 -9999 -9999 -9999 -9999 -9999 -9999 -9999 -9999 -9999 -9999 -9999 -9999 -9999 -9999 -9999 -9999 -9999 -9999 -9999 -9999 -9999 -9999 -9999 -9999 -9999 -9999 -9999 -9999 -9999 -9999 -9999 -9999 -9999 -9999 -9999 -9999 -9999 -9999 -9999 -9999 -9999 -9999 -9999 -9999 -9999 -9999 -9999 -9999 -9999 -9999 -9999 -9999 -9999 -9999 -9999 -9999 -9999 -9999 -9999 -9999 -9999 -9999 -9999 -9999 -9999 -9999 -9999 -9999 -9999 -9999 -9999 -9999 -9999 -9999 -9999 -9999 -9999 -9999 -9999
-9999 -9999 -9999 -9999 -9999 -9999 -9999 -9999 -9999 -9999 -9999 -9999 -9999 -9999 -9999 -9999 -9999 -9999 -9999 -9999 -9999 -9999 -9999 -9999 -9999 -9999 -9999 -9999 -9999 -9999 -9999 -9999 -9999 -9999 740.8668 739.2252 737.6746 736.2622 734.9922 733.8459 734.0729 734.9194 734.7424 734.1477 733.5387 733.1617 732.9514 732.8215 732.7167 732.5284 732.2817 731.9228 731.7015 731.3384 731.0912 730.8953 730.7131 730.557 730.337 730.291 730.2341 729.9832 729.8422 729.7371 729.5741 729.4631 729.4345 729.4653 729.5254 729.5869 729.6224 729.6129 729.6003 729.6027 729.6188 729.6486 729.6965 729.7662 729.8467 729.9094 729.9899 730.1246 730.2796 730.4291 730.591 730.7374 730.8563 730.9487 731.0205 731.0776 731.1252 731.165 731.1958 731.2152 731.2241 731.2269 731.2307 731.2419 731.2628 731.2914 731.3248 731.3619 731.4047 731.4542 731.5095 731.5676 731.6226 731.6721 731.713 731.7609 731.8097 731.8101 731.8101 731.8101 731.8099 731.8115 731.8826 731.9106 731.9186 731.9185 731.9143 731.9034 731.8888 731.8732 731.8508 731.8101 731.81 731.8096 731.7546 731.7233 731.7063 731.6951 731.6763 731.6136 731.5617 731.5266 731.5065 731.4998 731.5074 731.5331 731.5778 731.6418 731.7098 731.7424 731.8109 731.9511 732.0223 732.1606 732.3097 732.4819 732.6816 732.9193 733.2592 733.8234 734.8786 735.9996 737.1112 738.2344 739.2674 -9999 -9999 -9999 -9999 -9999 -9999 737.9969 737.9592 738.2202 738.4855 738.7668 739.1265 739.9045 -9999 -9999 -9999 -9999 -9999 -9999 -9999 -9999 -9999 -9999 -9999 -9999 -9999 -9999 -9999 -9999 -9999 -9999 -9999 -9999 -9999 -9999 -9999 -9999 -9999 -9999 -9999 -9999 -9999 -9999 -9999 -9999 -9999 -9999 -9999 -9999 -9999 -9999 -9999 -9999 -9999 -9999 -9999 -9999 -9999 -9999 -9999 -9999 -9999 -9999 -9999 -9999 -9999 -9999 -9999 -9999 -9999 -9999 -9999 -9999 -9999 -9999 -9999 -9999 -9999 -9999 -9999 -9999 -9999 -9999 -9999 -9999 -9999 -9999 -9999 -9999 -9999 -9999 -9999 -9999 -9999 -9999 -9999 -9999 -9999 -9999 -9999 -9999 -9999 -9999 -9999 -9999 -9999 -9999 -9999 -9999 -9999 -9999 -9999 -9999 -9999 -9999 -9999 -9999 -9999 -9999 -9999 -9999 -9999 -9999 -9999
-9999 -9999 -9999 -9999 -9999 -9999 -9999 -9999 -9999 -9999 -9999 -9999 -9999 -9999 -9999 -9999 -9999 -9999 -9999 -9999 -9999 -9999 -9999 -9999 -9999 -9999 -9999 -9999 -9999 -9999 -9999 -9999 -9999 -9999 741.7786 740.1826 738.5031 736.7598 734.984 733.8774 733.6747 733.99 734.0304 733.6074 733.2368 733.2583 733.3945 733.5124 733.6237 733.4968 733.1527 732.7447 732.3704 731.9562 731.775 731.6271 731.3038 731.108 730.9677 730.867 730.6466 730.3544 730.2849 730.2202 729.9665 729.809 729.7695 729.7914 729.8348 729.8744 729.8807 729.8009 729.7501 729.7401 729.7528 729.7803 729.8292 729.9121 730.0202 730.0594 730.1143 730.279 730.4679 730.6494 730.8208 730.9675 731.077 731.1558 731.2144 731.2607 731.2998 731.3323 731.3549 731.3632 731.3606 731.3528 731.3481 731.353 731.3687 731.3923 731.4211 731.4548 731.496 731.5444 731.5973 731.6526 731.6998 731.7428 731.7653 731.81 731.8677 731.9052 731.9355 731.959 731.9727 731.9823 732.0193 732.0399 732.0446 732.0367 732.0251 732.0005 731.9661 731.9337 731.903 731.8727 731.8627 731.8502 731.8104 731.8099 731.8101 731.8103 731.8083 731.7158 731.6691 731.6453 731.6329 731.6295 731.6346 731.6519 731.682 731.7318 731.8092 731.8103 731.8799 732.0165 732.1703 732.362 732.5247 732.7271 732.9684 733.2618 733.6695 734.357 735.6707 736.9342 738.0561 739.0402 -9999 -9999 -9999 -9999 -9999 -9999 -9999 -9999 -9999 -9999 -9999 -9999 -9999 -9999 -9999 -9999 -9999 -9999 -9999 -9999 -9999 -9999 -9999 -9999 -9999 -9999 -9999 -9999 -9999 -9999 -9999 -9999 -9999 -9999 -9999 -9999 -9999 -9999 -9999 -9999 -9999 -9999 -9999 -9999 -9999 -9999 -9999 -9999 -9999 -9999 -9999 -9999 -9999 -9999 -9999 -9999 -9999 -9999 -9999 -9999 -9999 -9999 -9999 -9999 -9999 -9999 -9999 -9999 -9999 -9999 -9999 -9999 -9999 -9999 -9999 -9999 -9999 -9999 -9999 -9999 -9999 -9999 -9999 -9999 -9999 -9999 -9999 -9999 -9999 -9999 -9999 -9999 -9999 -9999 -9999 -9999 -9999 -9999 -9999 -9999 -9999 -9999 -9999 -9999 -9999 -9999 -9999 -9999 -9999 -9999 -9999 -9999 -9999 -9999 -9999 -9999 -9999 -9999 -9999 -9999 -9999 -9999 -9999 -9999 -9999
-9999 -9999 -9999 -9999 -9999 -9999 -9999 -9999 -9999 -9999 -9999 -9999 -9999 -9999 -9999 -9999 -9999 -9999 -9999 -9999 -9999 -9999 -9999 -9999 -9999 -9999 -9999 -9999 -9999 -9999 -9999 -9999 -9999 -9999 742.869 741.4588 739.8929 738.1472 736.2583 734.715 733.8655 733.4885 733.3616 733.2368 733.2534 733.6847 734.2126 734.6053 734.9959 734.8711 734.3529 733.8689 733.3893 732.9056 732.5768 732.301 731.9563 731.8234 731.7616 731.6362 731.2814 731.0313 730.9459 730.8278 730.5173 730.3358 730.2957 730.3024 730.3076 730.2917 730.2512 730.0519 729.9673 729.9547 729.9641 729.9814 730.0157 730.0986 730.2676 730.28 730.2982 730.5074 730.7328 730.9305 731.1019 731.2418 731.3284 731.3823 731.42 731.4507 731.4786 731.5026 731.5161 731.5095 731.4939 731.4746 731.4613 731.46 731.4705 731.4889 731.5123 731.5428 731.5836 731.6315 731.679 731.7326 731.7654 731.8098 731.8102 731.8653 731.9447 732.0234 732.0938 732.1476 732.1788 732.1886 732.1967 732.199 732.196 732.1807 732.1547 732.1105 732.0503 731.9984 731.9626 731.9409 731.9331 731.9297 731.9225 731.9323 731.9406 731.9363 731.9032 731.8135 731.8098 731.8102 731.8103 731.8105 731.8105 731.8103 731.8099 731.811 731.8658 731.8906 731.9462 732.0568 732.2194 732.4286 732.6575 732.9165 733.2153 733.5524 733.9835 734.6634 736.1704 737.6091 738.7977 739.6154 -9999 -9999 -9999 -9999 -9999 -9999 -9999 -9999 -9999 -9999 -9999 -9999 -9999 -9999 -9999 -9999 -9999 -9999 -9999 -9999 -9999 -9999 -9999 -9999 -9999 -9999 -9999 -9999 -9999 -9999 -9999 -9999 -9999 -9999 -9999 -9999 -9999 -9999 -9999 -9999 -9999 -9999 -9999 -9999 -9999 -9999 -9999 -9999 -9999 -9999 -9999 -9999 -9999 -9999 -9999 -9999 -9999 -9999 -9999 -9999 -9999 -9999 -9999 -9999 -9999 -9999 -9999 -9999 -9999 -9999 -9999 -9999 -9999 -9999 -9999 -9999 -9999 -9999 -9999 -9999 -9999 -9999 -9999 -9999 -9999 -9999 -9999 -9999 -9999 -9999 -9999 -9999 -9999 -9999 -9999 -9999 -9999 -9999 -9999 -9999 -9999 -9999 -9999 -9999 -9999 -9999 -9999 -9999 -9999 -9999 -9999 -9999 -9999 -9999 -9999 -9999 -9999 -9999 -9999 -9999 -9999 -9999 -9999 -9999 -9999
-9999 -9999 -9999 -9999 -9999 -9999 -9999 -9999 -9999 -9999 -9999 -9999 -9999 -9999 -9999 -9999 -9999 -9999 -9999 -9999 -9999 -9999 -9999 -9999 -9999 -9999 -9999 -9999 -9999 -9999 -9999 -9999 -9999 -9999 743.3873 742.3619 741.2173 739.7781 737.9753 736.0054 734.6643 733.7698 733.3115 733.2467 733.4824 734.4226 735.4808 736.4147 736.9404 736.642 735.8433 735.3253 734.7788 734.172 733.7101 733.3471 732.9749 732.7705 732.6227 732.3671 731.9879 731.8327 731.8038 731.7394 731.5164 731.1799 731.0671 731.0502 731.005 730.8397 730.6387 730.3556 730.2842 730.277 730.2785 730.2797 730.2806 730.3057 730.4897 730.5913 730.6849 730.8741 731.0846 731.2562 731.4048 731.536 731.5862 731.6085 731.6232 731.6368 731.6516 731.666 731.6718 731.6446 731.6171 731.5865 731.5659 731.5601 731.5663 731.5791 731.5963 731.6232 731.6667 731.7175 731.7511 731.8096 731.8103 731.8478 731.8778 731.9489 732.0569 732.1788 732.2911 732.3731 732.4124 732.4106 732.3911 732.3783 732.3778 732.3657 732.3214 732.2433 732.1468 732.0688 732.0269 732.0155 732.024 732.0437 732.0654 732.0912 732.1118 732.1165 732.0946 732.05 732.046 732.0536 732.0629 732.0682 732.062 732.0398 732.0055 731.9757 731.9846 732.0046 732.0447 732.1223 732.2584 732.4545 732.6949 732.9781 733.3157 733.653 734.0323 734.4479 736.0367 737.6337 738.9816 739.8793 -9999 -9999 -9999 -9999 -9999 -9999 -9999 -9999 -9999 -9999 -9999 -9999 -9999 -9999 -9999 -9999 -9999 -9999 -9999 -9999 -9999 -9999 -9999 -9999 -9999 -9999 -9999 -9999 -9999 -9999 -9999 -9999 -9999 -9999 -9999 -9999 -9999 -9999 -9999 -9999 -9999 -9999 -9999 -9999 -9999 -9999 -9999 -9999 -9999 -9999 -9999 -9999 -9999 -9999 -9999 -9999 -9999 -9999 -9999 -9999 -9999 -9999 -9999 -9999 -9999 -9999 -9999 -9999 -9999 -9999 -9999 -9999 -9999 -9999 -9999 -9999 -9999 -9999 -9999 -9999 -9999 -9999 -9999 -9999 -9999 -9999 -9999 -9999 -9999 -9999 -9999 -9999 -9999 -9999 -9999 -9999 -9999 -9999 -9999 -9999 -9999 -9999 -9999 -9999 -9999 -9999 -9999 -9999 -9999 -9999 -9999 -9999 -9999 -9999 -9999 -9999 -9999 -9999 -9999 -9999 -9999 -9999 -9999 -9999 -9999
-9999 -9999 -9999 -9999 -9999 -9999 -9999 -9999 -9999 -9999 -9999 -9999 -9999 -9999 -9999 -9999 -9999 -9999 -9999 -9999 -9999 -9999 -9999 -9999 -9999 -9999 -9999 -9999 -9999 -9999 -9999 -9999 -9999 -9999 742.9501 742.3918 741.929 741.1335 739.6981 737.7396 735.8645 734.4393 733.5291 733.2746 733.8624 735.1098 736.4845 737.7698 738.3577 738.3641 737.7452 737.1179 736.5701 735.8732 735.3452 734.8823 734.3109 733.9769 733.7424 733.3749 732.9946 732.8077 732.7355 732.5778 732.2201 731.8537 731.7696 731.7668 731.7095 731.4247 731.2115 730.9988 730.8218 730.7324 730.7054 730.7086 730.7239 730.7676 730.8909 731.001 731.1161 731.2814 731.4662 731.5721 731.6685 731.8037 731.8106 731.8101 731.8101 731.8101 731.81 731.8101 731.8091 731.7516 731.7229 731.682 731.6578 731.6509 731.6549 731.6625 731.672 731.6927 731.7438 731.8093 731.8112 731.8722 731.8966 731.927 731.9722 732.0637 732.2056 732.3736 732.5288 732.6344 732.6709 732.6409 732.5841 732.5663 732.5984 732.6215 732.5466 732.4136 732.2653 732.1526 732.1004 732.1003 732.1318 732.1819 732.2338 732.2827 732.3236 732.349 732.3519 732.3403 732.343 732.3549 732.3684 732.3748 732.3618 732.3188 732.2512 732.1846 732.1475 732.1489 732.1812 732.2366 732.3376 732.4944 732.6942 732.9175 733.1479 733.3501 733.608 734.6179 736.0175 737.457 738.714 739.5101 -9999 -9999 -9999 -9999 -9999 -9999 -9999 -9999 -9999 -9999 -9999 -9999 -9999 -9999 -9999 -9999 -9999 -9999 -9999 -9999 -9999 -9999 -9999 -9999 -9999 -9999 -9999 -9999 -9999 -9999 -9999 -9999 -9999 -9999 -9999 -9999 -9999 -9999 -9999 -9999 -9999 -9999 -9999 -9999 -9999 -9999 -9999 -9999 -9999 -9999 -9999 -9999 -9999 -9999 -9999 -9999 -9999 -9999 -9999 -9999 -9999 -9999 -9999 -9999 -9999 -9999 -9999 -9999 -9999 -9999 -9999 -9999 -9999 -9999 -9999 -9999 -9999 -9999 -9999 -9999 -9999 -9999 -9999 -9999 -9999 -9999 -9999 -9999 -9999 -9999 -9999 -9999 -9999 -9999 -9999 -9999 -9999 -9999 -9999 -9999 -9999 -9999 -9999 -9999 -9999 -9999 -9999 -9999 -9999 -9999 -9999 -9999 -9999 -9999 -9999 -9999 -9999 -9999 -9999 -9999 -9999 -9999 -9999 -9999 -9999
-9999 -9999 -9999 -9999 -9999 -9999 -9999 -9999 -9999 -9999 -9999 -9999 -9999 -9999 -9999 -9999 -9999 -9999 -9999 -9999 -9999 -9999 -9999 -9999 -9999 -9999 -9999 -9999 -9999 -9999 -9999 -9999 -9999 -9999 -9999 741.3473 741.8151 741.807 740.9778 739.1226 737.0523 735.2113 733.8568 733.3122 734.1851 735.367 736.4985 737.5773 738.2834 738.3328 738.3574 738.68 738.6296 738.2877 737.8406 737.0369 736.0106 735.4608 735.1358 734.5883 734.1104 733.8547 733.715 733.4116 732.8347 732.3907 732.2109 732.1478 732.0511 731.848 731.7856 731.6917 731.4254 731.2736 731.2272 731.2341 731.2584 731.2977 731.365 731.4342 731.5129 731.6291 731.7985 731.8098 731.8132 731.9177 731.9596 731.9752 731.9796 731.9734 731.9548 731.9244 731.88 731.8107 731.8095 731.7561 731.736 731.7327 731.7365 731.74 731.7412 731.7499 731.8104 731.9005 731.9513 732.0016 732.0251 732.0468 732.0963 732.2056 732.3818 732.5969 732.7955 732.9197 732.9459 732.8804 732.7681 732.7596 732.8788 733.0051 732.8613 732.6401 732.4241 732.2694 732.2 732.2037 732.2543 732.3327 732.4152 732.4934 732.5614 732.6124 732.6418 732.6553 732.6697 732.6868 732.701 732.7024 732.6792 732.6166 732.5179 732.4141 732.3404 732.3128 732.3323 732.3842 732.4648 732.5818 732.7274 732.8915 733.0792 733.3215 733.6683 734.8008 735.9736 737.0302 737.9523 738.6573 -9999 -9999 -9999 -9999 -9999 -9999 -9999 -9999 -9999 -9999 -9999 -9999 -9999 -9999 -9999 -9999 -9999 -9999 -9999 -9999 -9999 -9999 -9999 -9999 -9999 -9999 -9999 -9999 -9999 -9999 -9999 -9999 -9999 -9999 -9999 -9999 -9999 -9999 -9999 -9999 -9999 -9999 -9999 -9999 -9999 -9999 -9999 -9999 -9999 -9999 -9999 -9999 -9999 -9999 -9999 -9999 -9999 -9999 -9999 -9999 -9999 -9999 -9999 -9999 -9999 -9999 -9999 -9999 -9999 -9999 -9999 -9999 -9999 -9999 -9999 -9999 -9999 -9999 -9999 -9999 -9999 -9999 -9999 -9999 -9999 -9999 -9999 -9999 -9999 -9999 -9999 -9999 -9999 -9999 -9999 -9999 -9999 -9999 -9999 -9999 -9999 -9999 -9999 -9999 -9999 -9999 -9999 -9999 -9999 -9999 -9999 -9999 -9999 -9999 -9999 -9999 -9999 -9999 -9999 -9999 -9999 -9999 -9999 -9999 -9999
-9999 -9999 -9999 -9999 -9999 -9999 -9999 -9999 -9999 -9999 -9999 -9999 -9999 -9999 -9999 -9999 -9999 -9999 -9999 -9999 -9999 -9999 -9999 -9999 -9999 -9999 -9999 -9999 -9999 -9999 -9999 -9999 -9999 -9999 -9999 739.7653 740.7396 741.6555 741.4753 739.836 737.8339 735.9042 734.2112 733.3544 734.176 734.623 735.2386 735.9751 736.5377 736.8412 737.3748 738.4719 739.2361 739.8185 739.9933 739.4153 738.2754 737.2358 736.6637 735.912 735.2959 734.9468 734.6957 734.0683 733.3817 732.9104 732.6847 732.5804 732.4852 732.3571 732.2849 732.1998 732.0132 731.8804 731.818 731.8018 731.7999 731.8009 731.8053 731.8072 731.8073 731.8118 731.9089 731.9408 731.9626 732.0308 732.085 732.1221 732.1426 732.1392 732.1057 732.0496 731.981 731.9106 731.8693 731.8106 731.8099 731.8099 731.8099 731.8099 731.8099 731.8106 731.9086 732.0289 732.1166 732.1677 732.1816 732.1893 732.234 732.3542 732.5601 732.8201 733.0585 733.1873 733.2037 733.1229 732.9421 732.9785 733.2695 733.6119 733.2935 732.9503 732.6609 732.4539 732.3488 732.337 732.3867 732.4801 732.5892 732.7009 732.8005 732.8798 732.9367 732.9755 733.0049 733.0277 733.0377 733.0251 732.984 732.9005 732.7744 732.637 732.534 732.4877 732.4967 732.5458 732.622 732.7144 732.8111 732.9191 733.1173 733.5613 734.1603 735.144 735.9702 736.5266 736.962 737.4517 -9999 -9999 -9999 -9999 -9999 -9999 -9999 -9999 -9999 -9999 -9999 -9999 -9999 -9999 -9999 -9999 -9999 -9999 -9999 -9999 -9999 -9999 -9999 -9999 -9999 -9999 -9999 -9999 -9999 -9999 -9999 -9999 -9999 -9999 -9999 -9999 -9999 -9999 -9999 -9999 -9999 -9999 -9999 -9999 -9999 -9999 -9999 -9999 -9999 -9999 -9999 -9999 -9999 -9999 -9999 -9999 -9999 -9999 -9999 -9999 -9999 -9999 -9999 -9999 -9999 -9999 -9999 -9999 -9999 -9999 -9999 -9999 -9999 -9999 -9999 -9999 -9999 -9999 -9999 -9999 -9999 -9999 -9999 -9999 -9999 -9999 -9999 -9999 -9999 -9999 -9999 -9999 -9999 -9999 -9999 -9999 -9999 -9999 -9999 -9999 -9999 -9999 -9999 -9999 -9999 -9999 -9999 -9999 -9999 -9999 -9999 -9999 -9999 -9999 -9999 -9999 -9999 -9999 -9999 -9999 -9999 -9999 -9999 -9999 -9999
-9999 -9999 -9999 -9999 -9999 -9999 -9999 -9999 -9999 -9999 -9999 -9999 -9999 -9999 -9999 -9999 -9999 -9999 -9999 -9999 -9999 -9999 -9999 -9999 -9999 -9999 -9999 -9999 -9999 -9999 -9999 -9999 -9999 -9999 -9999 -9999 739.4442 740.4251 740.7114 739.4953 737.8246 736.0865 734.4348 733.5961 733.3853 733.5559 734.0986 734.6549 735.0002 735.167 735.5151 736.7816 738.6099 740.3074 741.2 741.2156 740.3629 739.3157 738.3429 737.4528 736.7218 736.2424 735.7198 735.0027 734.2811 733.8101 733.5441 733.3593 733.2241 733.0704 732.9235 732.8788 732.977 732.7239 732.4846 732.3373 732.2434 732.1691 732.111 732.0504 731.9847 731.9345 731.979 732.0203 732.0643 732.1311 732.2025 732.2688 732.3179 732.3285 732.2836 732.2056 732.1194 732.0432 731.986 731.9347 731.9105 731.8876 731.8641 731.8502 731.8589 731.906 732.0275 732.1721 732.284 732.3384 732.3403 732.3289 732.359 732.4779 732.7009 732.9951 733.2588 733.3315 733.3293 733.3248 733.1321 733.3149 733.9455 734.4755 733.8466 733.4001 733.0514 732.7687 732.5771 732.5036 732.5146 732.6003 732.7303 732.8792 733.0152 733.1276 733.2181 733.2877 733.3354 733.3611 733.3593 733.3214 733.2506 733.1411 732.9889 732.8257 732.7004 732.6447 732.6565 732.7162 732.8019 732.884 732.9305 732.9232 732.9814 733.4644 734.5007 735.6342 736.0382 736.1212 736.0809 -9999 -9999 -9999 -9999 -9999 -9999 -9999 -9999 -9999 -9999 -9999 -9999 -9999 -9999 -9999 -9999 -9999 -9999 -9999 -9999 -9999 -9999 -9999 -9999 -9999 -9999 -9999 -9999 -9999 -9999 -9999 -9999 -9999 -9999 -9999 -9999 -9999 -9999 -9999 -9999 -9999 -9999 -9999 -9999 -9999 -9999 -9999 -9999 -9999 -9999 -9999 -9999 -9999 -9999 -9999 -9999 -9999 -9999 -9999 -9999 -9999 -9999 -9999 -9999 -9999 -9999 -9999 -9999 -9999 -9999 -9999 -9999 -9999 -9999 -9999 -9999 -9999 -9999 -9999 -9999 -9999 -9999 -9999 -9999 -9999 -9999 -9999 -9999 -9999 -9999 -9999 -9999 -9999 -9999 -9999 -9999 -9999 -9999 -9999 -9999 -9999 -9999 -9999 -9999 -9999 -9999 -9999 -9999 -9999 -9999 -9999 -9999 -9999 -9999 -9999 -9999 -9999 -9999 -9999 -9999 -9999 -9999 -9999 -9999 -9999 -9999
-9999 -9999 -9999 -9999 -9999 -9999 -9999 -9999 -9999 -9999 -9999 -9999 -9999 -9999 -9999 -9999 -9999 -9999 -9999 -9999 -9999 -9999 -9999 -9999 -9999 -9999 -9999 -9999 -9999 -9999 -9999 -9999 -9999 -9999 -9999 -9999 -9999 738.9796 739.1934 738.4025 737.1305 735.5677 734.1309 734.0574 733.6693 733.4277 733.5723 733.8497 733.9878 734.0831 734.5113 735.7087 737.473 739.9136 741.6068 742.1562 741.8746 741.1985 740.4219 739.6552 738.9692 738.4264 737.796 737.0338 736.2841 735.6826 735.2132 734.7433 734.462 734.1602 733.7548 733.5204 733.861 733.3925 733.027 732.7942 732.6273 732.4717 732.346 732.2322 732.125 732.0455 732.0443 732.077 732.1344 732.2174 732.3195 732.4293 732.525 732.5663 732.5063 732.4037 732.3006 732.2177 732.149 732.089 732.0377 731.9823 731.9266 731.8921 731.9047 731.9835 732.1313 732.3003 732.4313 732.4888 732.4774 732.4434 732.4513 732.5545 732.7725 733.074 733.3314 733.1193 733.0267 733.1912 733.5471 733.9828 734.5632 735.0231 734.7719 734.1747 733.7331 733.3015 732.9264 732.717 732.6204 732.6655 732.8148 733.0084 733.1896 733.3469 733.4829 733.5906 733.6561 733.6752 733.6484 733.573 733.4595 733.317 733.1416 732.9564 732.8162 732.7582 732.7823 732.8628 732.973 733.0742 733.1003 732.9504 732.6873 733.3761 734.6874 735.809 736.066 735.9977 -9999 -9999 -9999 -9999 -9999 -9999 -9999 -9999 -9999 -9999 -9999 -9999 -9999 -9999 -9999 -9999 -9999 -9999 -9999 -9999 -9999 -9999 -9999 -9999 -9999 -9999 -9999 -9999 -9999 -9999 -9999 -9999 -9999 -9999 -9999 -9999 -9999 -9999 -9999 -9999 -9999 -9999 -9999 -9999 -9999 -9999 -9999 -9999 -9999 -9999 -9999 -9999 -9999 -9999 -9999 -9999 -9999 -9999 -9999 -9999 -9999 -9999 -9999 -9999 -9999 -9999 -9999 -9999 -9999 -9999 -9999 -9999 -9999 -9999 -9999 -9999 -9999 -9999 -9999 -9999 -9999 -9999 -9999 -9999 -9999 -9999 -9999 -9999 -9999 -9999 -9999 -9999 -9999 -9999 -9999 -9999 -9999 -9999 -9999 -9999 -9999 -9999 -9999 -9999 -9999 -9999 -9999 -9999 -9999 -9999 -9999 -9999 -9999 -9999 -9999 -9999 -9999 -9999 -9999 -9999 -9999 -9999 -9999 -9999 -9999 -9999 -9999
-9999 -9999 -9999 -9999 -9999 -9999 -9999 -9999 -9999 -9999 -9999 -9999 -9999 -9999 -9999 -9999 -9999 -9999 -9999 -9999 -9999 -9999 -9999 -9999 -9999 -9999 -9999 -9999 -9999 -9999 -9999 -9999 -9999 -9999 -9999 -9999 -9999 -9999 737.9355 737.4433 736.4346 734.8958 733.4166 734.6434 734.116 733.5673 733.4738 733.5133 733.4596 733.5079 733.9756 735.1941 736.9131 739.5015 741.5574 742.5859 742.7626 742.4697 742.0093 741.543 741.0432 740.5654 740.0293 739.361 738.6899 738.0218 737.4132 736.8375 736.3679 735.7792 734.9581 734.1206 733.538 733.4795 733.338 733.1603 732.9714 732.741 732.5448 732.3818 732.2465 732.1509 732.1064 732.1267 732.1957 732.3044 732.4484 732.6161 732.7808 732.8832 732.7844 732.6496 732.5295 732.4446 732.3563 732.2694 732.1862 732.0972 732.0081 731.9481 731.9534 732.0454 732.2134 732.4048 732.5529 732.6122 732.5851 732.5272 732.5142 732.6002 732.7963 733.0674 733.3267 733.2105 733.7348 734.2143 734.5565 734.9344 735.3907 735.9261 735.9434 735.4572 734.8246 734.1003 733.4595 733.0443 732.7269 732.6792 732.8477 733.0959 733.3346 733.5527 733.7478 733.8964 733.9683 733.9594 733.8862 733.7614 733.598 733.4169 733.2238 733.0273 732.8738 732.8141 732.8485 732.9478 733.0793 733.2144 733.2816 733.1052 732.627 733.6985 735.0676 735.8596 736.0602 735.999 -9999 -9999 -9999 -9999 -9999 -9999 -9999 -9999 -9999 -9999 -9999 -9999 -9999 -9999 -9999 -9999 -9999 -9999 -9999 -9999 -9999 -9999 -9999 -9999 -9999 -9999 -9999 -9999 -9999 -9999 -9999 -9999 -9999 -9999 -9999 -9999 -9999 -9999 -9999 -9999 -9999 -9999 -9999 -9999 -9999 -9999 -9999 -9999 -9999 -9999 -9999 -9999 -9999 -9999 -9999 -9999 -9999 -9999 -9999 -9999 -9999 -9999 -9999 -9999 -9999 -9999 -9999 -9999 -9999 -9999 -9999 -9999 -9999 -9999 -9999 -9999 -9999 -9999 -9999 -9999 -9999 -9999 -9999 -9999 -9999 -9999 -9999 -9999 -9999 -9999 -9999 -9999 -9999 -9999 -9999 -9999 -9999 -9999 -9999 -9999 -9999 -9999 -9999 -9999 -9999 -9999 -9999 -9999 -9999 -9999 -9999 -9999 -9999 -9999 -9999 -9999 -9999 -9999 -9999 -9999 -9999 -9999 -9999 -9999 -9999 -9999 -9999
-9999 -9999 -9999 -9999 -9999 -9999 -9999 -9999 -9999 -9999 -9999 -9999 -9999 -9999 -9999 -9999 -9999 -9999 -9999 -9999 -9999 -9999 -9999 -9999 -9999 -9999 -9999 -9999 -9999 -9999 -9999 -9999 -9999 -9999 -9999 -9999 -9999 -9999 737.2768 736.9202 736.0096 734.8489 733.9145 734.1775 733.9781 733.5044 733.6227 733.6063 733.3481 733.3575 733.8021 735.0281 736.5114 739.279 741.5667 742.8168 743.2309 743.187 742.9484 742.6541 742.3247 741.9927 741.6675 741.2201 740.7684 740.237 739.6888 739.1653 738.5876 737.7803 736.6313 735.407 734.3933 734.0664 733.8007 733.5422 733.276 732.9414 732.6822 732.4832 732.329 732.2068 732.1644 732.1997 732.2896 732.4277 732.6166 732.8448 733.09 733.314 733.1129 732.9451 732.8077 732.7392 732.609 732.4702 732.3467 732.2256 732.1066 732.0205 732.0106 732.1027 732.2834 732.4958 732.6628 732.7247 732.6776 732.5986 732.584 732.6937 732.918 733.184 733.4423 734.0602 734.9025 735.5458 735.8347 736.0965 736.5974 737.1311 737.2997 736.8124 736.0042 735.1447 734.3851 733.6966 732.9851 732.746 732.9144 733.21 733.5054 733.7902 734.0484 734.2244 734.2721 734.1998 734.0525 733.8672 733.6583 733.4426 733.2389 733.0504 732.8948 732.8237 732.8551 732.9487 733.0668 733.1636 733.1421 732.5121 732.9873 734.1735 735.4244 736.0029 736.1896 -9999 -9999 -9999 -9999 -9999 -9999 -9999 -9999 -9999 -9999 -9999 -9999 -9999 -9999 -9999 -9999 -9999 -9999 -9999 -9999 -9999 -9999 -9999 -9999 -9999 -9999 -9999 -9999 -9999 -9999 -9999 -9999 -9999 -9999 -9999 -9999 -9999 -9999 -9999 -9999 -9999 -9999 -9999 -9999 -9999 -9999 -9999 -9999 -9999 -9999 -9999 -9999 -9999 -9999 -9999 -9999 -9999 -9999 -9999 -9999 -9999 -9999 -9999 -9999 -9999 -9999 -9999 -9999 -9999 -9999 -9999 -9999 -9999 -9999 -9999 -9999 -9999 -9999 -9999 -9999 -9999 -9999 -9999 -9999 -9999 -9999 -9999 -9999 -9999 -9999 -9999 -9999 -9999 -9999 -9999 -9999 -9999 -9999 -9999 -9999 -9999 -9999 -9999 -9999 -9999 -9999 -9999 -9999 -9999 -9999 -9999 -9999 -9999 -9999 -9999 -9999 -9999 -9999 -9999 -9999 -9999 -9999 -9999 -9999 -9999 -9999 -9999 -9999
-9999 -9999 -9999 -9999 -9999 -9999 -9999 -9999 -9999 -9999 -9999 -9999 -9999 -9999 -9999 -9999 -9999 -9999 -9999 -9999 -9999 -9999 -9999 -9999 -9999 -9999 -9999 -9999 -9999 -9999 -9999 -9999 -9999 -9999 -9999 -9999 -9999 -9999 737.9426 737.065 736.0063 735.0535 734.4417 734.2961 734.0407 733.39 734.0108 734.1178 733.8601 733.9106 734.2579 734.6437 736.3835 739.3409 741.6268 742.876 743.3318 743.4358 743.3369 743.1553 742.9225 742.6317 742.3508 742.1007 741.9258 741.8278 741.6448 741.3639 740.8415 739.9579 738.6036 737.0778 735.6529 734.9606 734.3646 733.8624 733.3116 732.8967 732.6482 732.489 732.3732 732.3021 732.3065 732.3842 732.4977 732.6537 732.8785 733.1503 733.4374 733.8405 733.475 733.314 733.133 733.12 732.8928 732.6724 732.5055 732.3566 732.2124 732.1025 732.0746 732.1608 732.3517 732.5899 732.787 732.8589 732.7826 732.6851 732.7059 732.9349 733.3748 733.9576 734.5984 735.4623 736.3206 736.8351 737.0119 737.234 737.8517 738.3983 738.569 737.983 737.121 736.3654 735.6833 734.9537 733.9045 733.1714 733.2286 733.4948 733.7985 734.1222 734.425 734.587 734.5546 734.3727 734.1266 733.878 733.6392 733.4084 733.208 733.0439 732.9095 732.8325 732.8413 732.9056 732.993 733.0035 732.7939 733.0186 733.8598 734.9454 735.8645 736.2545 -9999 -9999 -9999 -9999 -9999 -9999 -9999 -9999 -9999 -9999 -9999 -9999 -9999 -9999 -9999 -9999 -9999 -9999 -9999 -9999 -9999 -9999 -9999 -9999 -9999 -9999 -9999 -9999 -9999 -9999 -9999 -9999 -9999 -9999 -9999 -9999 -9999 -9999 -9999 -9999 -9999 -9999 -9999 -9999 -9999 -9999 -9999 -9999 -9999 -9999 -9999 -9999 -9999 -9999 -9999 -9999 -9999 -9999 -9999 -9999 -9999 -9999 -9999 -9999 -9999 -9999 -9999 -9999 -9999 -9999 -9999 -9999 -9999 -9999 -9999 -9999 -9999 -9999 -9999 -9999 -9999 -9999 -9999 -9999 -9999 -9999 -9999 -9999 -9999 -9999 -9999 -9999 -9999 -9999 -9999 -9999 -9999 -9999 -9999 -9999 -9999 -9999 -9999 -9999 -9999 -9999 -9999 -9999 -9999 -9999 -9999 -9999 -9999 -9999 -9999 -9999 -9999 -9999 -9999 -9999 -9999 -9999 -9999 -9999 -9999 -9999 -9999 -9999 -9999
-9999 -9999 -9999 -9999 -9999 -9999 -9999 -9999 -9999 -9999 -9999 -9999 -9999 -9999 -9999 -9999 -9999 -9999 -9999 -9999 -9999 -9999 -9999 -9999 -9999 -9999 -9999 -9999 -9999 -9999 -9999 -9999 -9999 -9999 -9999 -9999 -9999 -9999 -9999 737.4422 736.1978 735.4041 734.9475 734.6292 734.2891 733.9187 734.132 734.2219 734.1951 734.4313 734.9457 734.598 736.7026 739.654 741.6674 742.5888 743.0295 743.2881 -9999 -9999 -9999 -9999 742.3838 742.2626 742.3175 742.6803 743.0395 743.0747 742.7516 741.9971 740.6324 738.9082 737.1044 735.5728 734.7429 734.0447 733.3761 732.9761 732.8234 732.7405 732.6636 732.6355 732.6924 732.8293 732.9482 733.0818 733.3226 733.638 733.9703 734.2419 734.1089 733.8711 733.5165 733.5689 733.1376 732.8365 732.6515 732.4849 732.3166 732.1826 732.1366 732.2165 732.4204 732.6964 732.9471 733.0518 732.9247 732.8026 732.8837 733.3069 734.1025 735.0411 736.0263 736.9773 737.7213 738.0074 738.0624 738.2322 -9999 739.3025 739.347 738.8021 738.014 737.4775 737.2233 736.688 735.5612 734.4674 734.076 734.1206 734.3088 734.5936 734.8975 734.9731 734.7817 734.441 734.0905 733.7999 733.5594 733.3427 733.1635 733.0378 732.938 732.8701 732.8667 732.903 733.0522 733.2966 733.4116 733.972 734.8784 735.7539 736.2739 736.5215 -9999 -9999 -9999 -9999 -9999 -9999 -9999 -9999 -9999 -9999 -9999 -9999 -9999 -9999 -9999 -9999 -9999 -9999 -9999 -9999 -9999 -9999 -9999 -9999 -9999 -9999 -9999 -9999 -9999 -9999 -9999 -9999 -9999 -9999 -9999 -9999 -9999 -9999 -9999 -9999 -9999 -9999 -9999 -9999 -9999 -9999 -9999 -9999 -9999 -9999 -9999 -9999 -9999 -9999 -9999 -9999 -9999 -9999 -9999 -9999 -9999 -9999 -9999 -9999 -9999 -9999 -9999 -9999 -9999 -9999 -9999 -9999 -9999 -9999 -9999 -9999 -9999 -9999 -9999 -9999 -9999 -9999 -9999 -9999 -9999 -9999 -9999 -9999 -9999 -9999 -9999 -9999 -9999 -9999 -9999 -9999 -9999 -9999 -9999 -9999 -9999 -9999 -9999 -9999 -9999 -9999 -9999 -9999 -9999 -9999 -9999 -9999 -9999 -9999 -9999 -9999 -9999 -9999 -9999 -9999 -9999 -9999 -9999 -9999 -9999 -9999 -9999 -9999 -9999
-9999 -9999 -9999 -9999 -9999 -9999 -9999 -9999 -9999 -9999 -9999 -9999 -9999 -9999 -9999 -9999 -9999 -9999 -9999 -9999 -9999 -9999 -9999 -9999 -9999 -9999 -9999 -9999 -9999 -9999 -9999 -9999 -9999 -9999 -9999 -9999 -9999 -9999 -9999 -9999 736.4192 735.7155 735.292 734.99 734.656 734.3381 734.2142 734.1644 734.1854 734.2848 734.5244 734.7921 737.0267 739.7348 741.0776 741.8814 742.4435 -9999 -9999 -9999 -9999 -9999 -9999 -9999 -9999 -9999 -9999 -9999 744.0117 743.6842 742.6102 740.8889 738.9451 737.162 735.8192 734.8004 733.9023 733.4984 733.5232 733.5249 733.4348 733.4077 733.5038 733.7254 733.8131 733.8354 734.0093 734.2881 734.6476 734.9431 735.0248 734.8053 734.2391 733.6624 733.1922 732.9395 732.8032 732.6224 732.418 732.2529 732.1876 732.2631 732.4843 732.8092 733.14 733.3167 733.1136 732.9691 733.1114 733.7349 734.8823 736.158 737.369 738.2773 738.8307 738.9621 -9999 -9999 -9999 -9999 -9999 739.2515 738.6049 738.3375 738.6696 738.5592 737.58 736.3184 735.3879 735.1437 735.0659 735.1848 735.4515 735.3438 734.9012 734.3654 733.9396 733.6709 733.4729 733.2937 733.1482 733.0613 732.9879 732.9289 732.8939 732.9301 733.0939 733.4233 733.9886 734.8286 735.7407 736.3914 736.7277 -9999 -9999 -9999 -9999 -9999 -9999 -9999 -9999 -9999 -9999 -9999 -9999 -9999 -9999 -9999 -9999 -9999 -9999 -9999 -9999 -9999 -9999 -9999 -9999 -9999 -9999 -9999 -9999 -9999 -9999 -9999 -9999 -9999 -9999 -9999 -9999 -9999 -9999 -9999 -9999 -9999 -9999 -9999 -9999 -9999 -9999 -9999 -9999 -9999 -9999 -9999 -9999 -9999 -9999 -9999 -9999 -9999 -9999 -9999 -9999 -9999 -9999 -9999 -9999 -9999 -9999 -9999 -9999 -9999 -9999 -9999 -9999 -9999 -9999 -9999 -9999 -9999 -9999 -9999 -9999 -9999 -9999 -9999 -9999 -9999 -9999 -9999 -9999 -9999 -9999 -9999 -9999 -9999 -9999 -9999 -9999 -9999 -9999 -9999 -9999 -9999 -9999 -9999 -9999 -9999 -9999 -9999 -9999 -9999 -9999 -9999 -9999 -9999 -9999 -9999 -9999 -9999 -9999 -9999 -9999 -9999 -9999 -9999 -9999 -9999 -9999 -9999 -9999 -9999 -9999
-9999 -9999 -9999 -9999 -9999 -9999 -9999 -9999 -9999 -9999 -9999 -9999 -9999 -9999 -9999 -9999 -9999 -9999 -9999 -9999 -9999 -9999 -9999 -9999 -9999 -9999 -9999 -9999 -9999 -9999 -9999 -9999 -9999 -9999 -9999 -9999 -9999 -9999 -9999 -9999 -9999 735.9938 735.5458 735.2524 734.9923 734.6371 734.1991 734.0032 733.9962 734.0005 734.1256 734.6414 736.9703 739.5518 740.4536 741.1467 741.7361 -9999 -9999 -9999 -9999 -9999 -9999 -9999 -9999 -9999 -9999 -9999 744.6738 744.9752 744.4599 742.8878 740.913 739.0442 737.5345 736.3347 735.3069 734.6465 734.9774 735.041 734.8433 734.7846 734.9357 735.2568 735.3165 735.1608 735.1437 735.3161 735.7045 736.0533 736.32 736.0528 735.3329 734.3416 733.5747 733.1436 733.0354 732.7916 732.5209 732.3151 732.2317 732.3058 732.5463 732.9204 733.3217 733.4962 733.3624 733.2681 733.4859 734.4161 735.6538 737.107 738.3336 739.0432 739.3976 -9999 -9999 -9999 -9999 -9999 -9999 -9999 -9999 739.2583 739.9133 740.1794 739.4885 738.3679 737.3747 736.6538 736.0581 735.8031 736.065 735.6425 734.8615 734.1382 733.7137 733.5797 733.4789 733.3469 733.2275 733.1227 733.0334 733.0337 733.0803 733.1611 733.3842 733.8998 734.5558 735.4586 736.3778 737.0646 737.413 -9999 -9999 -9999 -9999 -9999 -9999 -9999 -9999 -9999 -9999 -9999 -9999 -9999 -9999 -9999 -9999 -9999 -9999 -9999 -9999 -9999 -9999 -9999 -9999 -9999 -9999 -9999 -9999 -9999 -9999 -9999 -9999 -9999 -9999 -9999 -9999 -9999 -9999 -9999 -9999 -9999 -9999 -9999 -9999 -9999 -9999 -9999 -9999 -9999 -9999 -9999 -9999 -9999 -9999 -9999 -9999 -9999 -9999 -9999 -9999 -9999 -9999 -9999 -9999 -9999 -9999 -9999 -9999 -9999 -9999 -9999 -9999 -9999 -9999 -9999 -9999 -9999 -9999 -9999 -9999 -9999 -9999 -9999 -9999 -9999 -9999 -9999 -9999 -9999 -9999 -9999 -9999 -9999 -9999 -9999 -9999 -9999 -9999 -9999 -9999 -9999 -9999 -9999 -9999 -9999 -9999 -9999 -9999 -9999 -9999 -9999 -9999 -9999 -9999 -9999 -9999 -9999 -9999 -9999 -9999 -9999 -9999 -9999 -9999 -9999 -9999 -9999 -9999 -9999 -9999
