ncols         185
nrows         69
xllcorner     638700
yllcorner     5530050
cellsize      50
NODATA_value  -9999
-9999 -9999 -9999 -9999 -9999 -9999 -9999 -9999 -9999 -9999 -9999 -9999 -9999 -9999 -9999 -9999 -9999 -9999 959.998 959.9375 959.9985 960.0072 959.9193 959.4658 958.9067 958.5018 958.2505 958.1078 958.0375 957.9983 957.9548 957.8947 957.8349 957.8118 957.7915 957.7522 957.6698 957.5695 957.4784 957.3877 957.2809 957.1746 957.126 957.0558 957.0026 956.9462 956.8576 956.7411 956.5862 956.3922 956.175 955.9562 955.7563 955.6323 955.5104 955.3868 955.268 955.1587 955.0575 954.9641 954.8791 954.8033 954.7371 954.6804 954.6321 954.5909 954.5565 954.5292 954.5074 954.4889 954.4716 954.4573 954.4488 954.4473 954.451 954.4573 954.4656 954.4778 954.4954 954.5183 954.545 954.5745 954.6053 954.635 954.66 954.677 954.6852 954.6865 954.6837 954.6801 954.6791 954.6821 954.6882 954.6952 954.7025 954.7117 954.7239 954.7387 954.7545 954.7719 954.793 954.8199 954.853 954.8911 954.9332 954.978 955.0247 955.0725 955.1222 955.1749 955.2308 955.2839 955.3282 955.3615 955.3829 955.3917 955.3915 955.3915 955.3976 955.4036 955.3923 955.3541 955.2838 955.1956 955.108 955.036 954.9883 954.9642 954.9539 954.939 954.9251 954.9358 954.9872 955.072 955.1693 955.2942 955.4481 955.5691 955.7271 955.7562 955.7834 955.9181 955.9811 956.0284 956.1283 956.2281 956.329 956.4235 956.4972 956.6063 956.7979 956.9697 957.1884 957.2573 957.3734 957.9432 958.8118 959.5865 959.8931 959.6049 959.3107 959.9678 961.2028 961.0228 960.2565 959.5625 959.1047 958.8906 -9999 -9999 -9999 -9999 -9999 -9999 -9999 -9999 -9999 -9999 -9999 -9999 -9999 -9999 -9999 -9999 -9999
-9999 -9999 -9999 -9999 -9999 -9999 -9999 -9999 -9999 -9999 -9999 -9999 -9999 -9999 -9999 -9999 -9999 -9999 959.9309 959.8993 960.1027 960.4905 960.6234 960.0554 959.22 958.6765 958.3589 958.1884 958.1086 958.0588 957.9992 957.9152 957.8206 957.7427 957.6811 957.6461 957.5745 957.475 957.3749 957.2808 957.2062 957.1231 957.0551 956.985 956.9222 956.855 956.7661 956.6512 956.504 956.3236 956.1219 955.9221 955.7476 955.593 955.457 955.3293 955.2084 955.0964 954.9941 954.9016 954.8192 954.7475 954.686 954.6343 954.5905 954.5524 954.5185 954.489 954.4642 954.4426 954.4224 954.4034 954.3885 954.3802 954.378 954.3799 954.3843 954.3923 954.4055 954.4238 954.4454 954.4695 954.4954 954.5221 954.5471 954.567 954.5797 954.5854 954.5862 954.5846 954.584 954.5863 954.5917 954.5984 954.6055 954.6138 954.6246 954.6377 954.6516 954.666 954.6827 954.705 954.734 954.7684 954.8076 954.8504 954.8962 954.9443 954.9953 955.0493 955.1071 955.1647 955.2148 955.2544 955.284 955.3036 955.3147 955.3218 955.3297 955.3358 955.3303 955.306 955.2589 955.1921 955.116 955.0439 954.9862 954.9435 954.9132 954.8888 954.8691 954.8652 954.8899 954.9454 955.0265 955.1329 955.2558 955.3694 955.4799 955.5343 955.6044 955.7352 955.7499 955.7643 955.8909 955.9668 956.0182 956.0594 956.098 956.1733 956.3596 956.5144 956.6875 956.92 957.3543 958.201 959.5746 960.7913 961.2393 960.332 959.1926 959.5021 960.6082 960.8619 960.1777 959.4102 959.1178 959.0436 959.0569 -9999 -9999 -9999 -9999 -9999 -9999 -9999 -9999 -9999 -9999 -9999 -9999 -9999 -9999 -9999 -9999
-9999 -9999 -9999 -9999 -9999 -9999 -9999 -9999 -9999 -9999 -9999 -9999 -9999 -9999 -9999 -9999 -9999 -9999 -9999 960.0364 960.4731 960.9218 960.9694 960.5543 959.673 958.9451 958.548 958.3533 958.2795 958.2171 958.126 958.0046 957.869 957.7443 957.6473 957.5861 957.5206 957.4379 957.3547 957.2802 957.2223 957.1382 957.0529 956.9719 956.8971 956.8217 956.7306 956.6154 956.472 956.3007 956.1099 955.9183 955.7472 955.5883 955.4467 955.3139 955.1881 955.0718 954.9669 954.8737 954.7916 954.7205 954.6594 954.6074 954.5633 954.5248 954.4896 954.457 954.4276 954.4016 954.3777 954.3546 954.3339 954.3185 954.3098 954.3066 954.3073 954.3115 954.3204 954.3346 954.3522 954.3716 954.3925 954.4149 954.4377 954.4587 954.4754 954.4866 954.4924 954.4948 954.4965 954.4998 954.5055 954.5127 954.5201 954.5278 954.5369 954.548 954.5602 954.5728 954.5866 954.6049 954.6296 954.6606 954.6968 954.7371 954.7806 954.8271 954.8768 954.9301 954.9871 955.047 955.1034 955.1506 955.1877 955.2156 955.2349 955.2484 955.26 955.2701 955.2728 955.2617 955.2344 955.189 955.1279 955.0617 955.0014 954.9521 954.9119 954.8809 954.8578 954.8458 954.8529 954.886 954.9454 955.0275 955.121 955.2107 955.2923 955.3553 955.4292 955.52 955.5632 955.6196 955.7367 955.7502 955.7502 955.7499 955.7513 955.7863 955.9712 956.0897 956.2222 956.5665 957.2576 958.3956 960.1172 961.6609 962.4153 961.0344 959.4423 958.9774 959.715 960.4477 960.3693 959.9617 959.6968 959.7459 959.7523 -9999 -9999 -9999 -9999 -9999 -9999 -9999 -9999 -9999 -9999 -9999 -9999 -9999 -9999 -9999 -9999
-9999 -9999 -9999 -9999 -9999 -9999 -9999 -9999 -9999 -9999 -9999 -9999 -9999 -9999 -9999 -9999 -9999 -9999 -9999 -9999 960.837 961.0481 960.9998 960.6227 959.9413 959.2858 958.833 958.6128 958.5731 958.4866 958.3369 958.1544 957.9661 957.7953 957.6588 957.5638 957.4938 957.4297 957.3704 957.3174 957.2791 957.1879 957.0947 957.0085 956.9254 956.8441 956.7538 956.6406 956.4985 956.3311 956.1449 955.9489 955.7563 955.6215 955.4829 955.3428 955.2078 955.0839 954.9736 954.8774 954.7932 954.7195 954.655 954.5989 954.55 954.5073 954.4683 954.4315 954.3969 954.3654 954.3368 954.3097 954.2841 954.2621 954.2466 954.2378 954.2341 954.2345 954.2394 954.2493 954.2633 954.2793 954.2961 954.3141 954.3333 954.353 954.3713 954.3865 954.3977 954.4053 954.4109 954.4166 954.4237 954.4321 954.4406 954.4482 954.4559 954.465 954.4754 954.4868 954.4993 954.5149 954.5364 954.5646 954.5988 954.6376 954.6796 954.7244 954.7721 954.8228 954.8772 954.9353 954.9946 955.0491 955.0945 955.1304 955.1569 955.1755 955.1902 955.2034 955.2134 955.2141 955.2026 955.1765 955.1331 955.0776 955.02 954.9697 954.9279 954.8929 954.8669 954.8511 954.849 954.8667 954.9069 954.9662 955.0339 955.0981 955.1552 955.2073 955.2665 955.3304 955.3783 955.4321 955.4993 955.514 955.5115 955.5115 955.5247 955.5825 955.7178 955.7467 955.8022 956.1701 956.9186 958.1025 959.7111 960.6869 961.0049 960.2322 959.1737 958.9154 959.437 960.1348 960.5359 960.505 960.4237 960.5383 960.7225 -9999 -9999 -9999 -9999 -9999 -9999 -9999 -9999 -9999 -9999 -9999 -9999 -9999 -9999 -9999 -9999
-9999 -9999 -9999 -9999 -9999 -9999 -9999 -9999 -9999 -9999 -9999 -9999 -9999 -9999 -9999 -9999 -9999 -9999 -9999 -9999 961.001 961.0011 960.9056 960.6071 960.1272 959.6301 959.2344 958.9935 959.027 958.8685 958.6142 958.344 958.0947 957.8804 957.7095 957.5836 957.4962 957.4323 957.3789 957.33 957.2803 957.2257 957.1526 957.079 956.9969 956.9155 956.8309 956.7255 956.5868 956.4249 956.2509 956.0715 955.8969 955.7479 955.5859 955.4232 955.2698 955.1323 955.0128 954.91 954.8204 954.7411 954.67 954.6062 954.5493 954.4988 954.4535 954.4113 954.3712 954.3338 954.2996 954.2682 954.2388 954.2117 954.1897 954.1744 954.1656 954.1616 954.1622 954.1678 954.1781 954.1912 954.2051 954.2195 954.2349 954.2516 954.2688 954.2854 954.3003 954.3129 954.3229 954.3319 954.3411 954.3512 954.3612 954.3698 954.3773 954.3848 954.3937 954.4042 954.4161 954.4309 954.4506 954.4771 954.5105 954.5492 954.5911 954.6354 954.6823 954.7307 954.7821 954.8367 954.8939 954.951 955.0034 955.0475 955.0818 955.1064 955.1241 955.1393 955.1531 955.1631 955.1646 955.155 955.1298 955.0878 955.0385 954.989 954.9481 954.9136 954.8855 954.8667 954.8605 954.8699 954.8965 954.9379 954.9854 955.0276 955.062 955.0947 955.133 955.1738 955.2083 955.2426 955.2784 955.2955 955.3058 955.3184 955.3405 955.376 955.4238 955.4339 955.5157 955.7876 956.3992 957.3406 958.4094 959.0189 959.316 959.1317 958.7704 958.7834 959.2108 959.6993 960.1049 960.5654 960.7918 961.0891 961.4099 -9999 -9999 -9999 -9999 -9999 -9999 -9999 -9999 -9999 -9999 -9999 -9999 -9999 -9999 -9999 -9999
-9999 -9999 -9999 -9999 -9999 -9999 -9999 -9999 -9999 -9999 -9999 -9999 -9999 -9999 -9999 -9999 -9999 -9999 -9999 -9999 -9999 960.9249 960.8145 960.6093 960.3114 959.9993 959.7568 959.6375 959.6539 959.3141 958.9142 958.5444 958.2383 957.9916 957.7961 957.6472 957.5392 957.4633 957.4058 957.3589 957.3176 957.2797 957.2213 957.1736 957.0958 957.0241 956.9539 956.8639 956.7296 956.5773 956.4231 956.2679 956.1068 955.9373 955.75 955.557 955.3763 955.2184 955.085 954.9718 954.8724 954.7827 954.7007 954.6259 954.5582 954.4976 954.4434 954.3944 954.3487 954.3057 954.266 954.2297 954.1968 954.1663 954.1392 954.1177 954.1031 954.0944 954.0904 954.0911 954.0968 954.1066 954.1183 954.1304 954.1427 954.1561 954.1708 954.1862 954.2019 954.2171 954.2308 954.243 954.2546 954.2665 954.2781 954.2886 954.2968 954.3039 954.3119 954.3219 954.3342 954.3497 954.3698 954.3964 954.4303 954.4701 954.5134 954.5587 954.6055 954.6539 954.703 954.7543 954.8075 954.8629 954.917 954.9662 955.0074 955.0392 955.0621 955.0803 955.0966 955.1125 955.1248 955.1289 955.1211 955.0958 955.0562 955.013 954.9713 954.9379 954.91 954.8894 954.8806 954.8857 954.9047 954.9341 954.967 954.9929 955.0087 955.0221 955.0399 955.06 955.0757 955.089 955.1048 955.1218 955.1441 955.1699 955.1955 955.2084 955.2152 955.197 955.2834 955.5013 955.9182 956.5953 957.3052 957.7571 957.9711 958.1812 958.2927 958.5328 958.9423 959.1846 959.4349 959.7831 960.6818 961.4343 961.9166 -9999 -9999 -9999 -9999 -9999 -9999 -9999 -9999 -9999 -9999 -9999 -9999 -9999 -9999 -9999 -9999
-9999 -9999 -9999 -9999 -9999 -9999 -9999 -9999 -9999 -9999 -9999 -9999 -9999 -9999 -9999 -9999 -9999 -9999 -9999 -9999 -9999 -9999 960.7631 960.657 960.5115 960.353 960.2239 960.1173 959.9619 959.6211 959.1815 958.7391 958.3948 958.135 957.9241 957.7545 957.6248 957.5286 957.4578 957.4043 957.3615 957.3224 957.2807 957.2781 957.1989 957.1504 957.1106 957.0494 956.9124 956.775 956.6528 956.5327 956.3893 956.202 955.9849 955.7525 955.5342 955.3466 955.1927 955.0641 954.9495 954.8431 954.7445 954.6544 954.5732 954.5006 954.4363 954.3793 954.3277 954.2798 954.235 954.1943 954.1576 954.1245 954.0942 954.0679 954.0479 954.0339 954.0252 954.0209 954.0213 954.0264 954.0351 954.0454 954.056 954.067 954.0789 954.092 954.1062 954.1213 954.1365 954.1509 954.1644 954.1776 954.1907 954.2026 954.2126 954.2207 954.2289 954.2391 954.2526 954.2701 954.2925 954.3213 954.3572 954.3993 954.4452 954.4928 954.5414 954.5905 954.6394 954.6878 954.7376 954.789 954.8406 954.8892 954.9327 954.9697 954.9993 955.0233 955.0448 955.0659 955.0875 955.1036 955.1115 955.1038 955.0781 955.0413 955.0038 954.9689 954.9406 954.9197 954.9095 954.9122 954.9268 954.9496 954.9739 954.9899 954.9928 954.9908 954.9926 954.9967 954.9971 954.9944 954.9963 955.0109 955.0393 955.0766 955.1005 955.1129 955.0874 955.0861 955.1208 955.3311 955.6808 956.1199 956.6663 957.0896 957.3436 957.663 957.9548 958.2583 958.5542 958.8235 959.0692 959.3386 960.5123 961.6121 962.1331 -9999 -9999 -9999 -9999 -9999 -9999 -9999 -9999 -9999 -9999 -9999 -9999 -9999 -9999 -9999 -9999
-9999 -9999 -9999 -9999 -9999 -9999 -9999 -9999 -9999 -9999 -9999 -9999 -9999 -9999 -9999 -9999 -9999 -9999 -9999 -9999 -9999 -9999 -9999 960.7784 960.7384 960.6896 960.6447 960.5806 960.396 959.9769 959.4948 958.9886 958.6049 958.3362 958.1066 957.9058 957.7446 957.6227 957.5327 957.4679 957.422 957.3864 957.3574 957.3366 957.2824 957.2795 957.2811 957.2659 957.1123 957.0069 956.9373 956.87 956.7571 956.55 956.3046 956.0301 955.7563 955.5244 955.3409 955.1906 955.052 954.9208 954.7988 954.6888 954.5914 954.5056 954.4304 954.3649 954.307 954.2545 954.2061 954.1615 954.1213 954.0853 954.0531 954.024 953.9996 953.9808 953.9674 953.9584 953.9535 953.9531 953.9573 953.9647 953.9736 953.9833 953.9933 954.0043 954.0164 954.0297 954.0443 954.0591 954.0734 954.0873 954.1007 954.1138 954.1255 954.1354 954.1448 954.1563 954.1715 954.1919 954.2181 954.251 954.2906 954.3364 954.3861 954.4372 954.4886 954.5399 954.5892 954.6366 954.6829 954.7298 954.7762 954.8199 954.8601 954.897 954.9309 954.9622 954.9923 955.0219 955.0526 955.0816 955.1029 955.1122 955.1028 955.077 955.0435 955.0109 954.9816 954.9596 954.9489 954.9504 954.9623 954.9817 955.0029 955.0154 955.0125 955.0014 954.9928 954.9872 954.9798 954.9694 954.9639 954.9742 955.0039 955.0421 955.0745 955.0709 955.0624 955.0353 955.0818 955.2085 955.4802 955.8383 956.4338 956.9536 957.2737 957.573 957.9065 958.2955 958.7346 959.178 959.4318 959.4371 960.6054 961.6805 962.1838 -9999 -9999 -9999 -9999 -9999 -9999 -9999 -9999 -9999 -9999 -9999 -9999 -9999 -9999 -9999 -9999
-9999 -9999 -9999 -9999 -9999 -9999 -9999 -9999 -9999 -9999 -9999 -9999 -9999 -9999 -9999 -9999 -9999 -9999 -9999 -9999 -9999 -9999 -9999 -9999 961.0015 960.9995 961.0004 960.9934 960.8815 960.4469 959.9395 959.3831 958.9548 958.6556 958.3637 958.0974 957.8851 957.729 957.619 957.5446 957.4988 957.4716 957.4569 957.4476 957.4342 957.4374 957.4497 957.4232 957.3055 957.2845 957.2904 957.2891 957.2191 956.9801 956.7188 956.3989 956.0641 955.7611 955.5323 955.3519 955.1774 955.0103 954.8582 954.7245 954.6091 954.5099 954.4246 954.3506 954.2863 954.2296 954.1783 954.1311 954.088 954.0494 954.0151 953.9845 953.9574 953.9348 953.9171 953.9039 953.8945 953.8889 953.8876 953.8905 953.8965 953.9044 953.9133 953.9231 953.9335 953.9449 953.9576 953.9713 953.9854 953.9992 954.0125 954.0254 954.038 954.0497 954.0612 954.0745 954.0923 954.1163 954.1471 954.1852 954.2303 954.281 954.3354 954.391 954.4465 954.5006 954.5518 954.5984 954.642 954.6835 954.7231 954.7592 954.792 954.8236 954.8572 954.8937 954.9332 954.9751 955.0165 955.0585 955.0942 955.1179 955.1254 955.114 955.0894 955.0598 955.0328 955.0117 955.0012 955.0025 955.0129 955.0308 955.0524 955.0673 955.0656 955.0519 955.0388 955.0301 955.0226 955.0148 955.0098 955.0171 955.0422 955.0776 955.1033 955.1096 955.0846 955.0792 955.1096 955.2443 955.4908 955.8708 956.5352 957.1399 957.4357 957.6998 958.0399 958.5073 959.151 959.9586 960.5147 960.0647 960.996 961.7014 962.1171 -9999 -9999 -9999 -9999 -9999 -9999 -9999 -9999 -9999 -9999 -9999 -9999 -9999 -9999 -9999 -9999
-9999 -9999 -9999 -9999 -9999 -9999 -9999 -9999 -9999 -9999 -9999 -9999 -9999 -9999 -9999 -9999 -9999 -9999 -9999 -9999 -9999 -9999 -9999 -9999 -9999 961.2544 961.2296 961.1973 961.0957 960.8367 960.5459 960.2222 959.5412 959.1545 958.7026 958.3103 958.0242 957.8303 957.7026 957.6245 957.5852 957.5742 957.5813 957.5983 957.6162 957.6426 957.6722 957.691 957.6642 957.694 957.7604 957.8016 957.7313 957.4905 957.2475 956.8607 956.4448 956.0646 955.7614 955.5406 955.3115 955.0982 954.9125 954.755 954.6227 954.5116 954.4174 954.3364 954.2664 954.2055 954.1518 954.103 954.0582 954.0173 953.9812 953.949 953.9204 953.8953 953.8741 953.8573 953.8441 953.8343 953.8279 953.8257 953.8274 953.8323 953.8393 953.8478 953.8573 953.8673 953.8781 953.89 953.9028 953.9161 953.9288 953.9411 953.9536 953.9665 953.98 953.9957 954.0166 954.0445 954.0802 954.124 954.1754 954.2323 954.2924 954.3535 954.4141 954.4722 954.5255 954.5723 954.6127 954.6486 954.6798 954.7065 954.7297 954.7535 954.7828 954.8209 954.8678 954.9208 954.9765 955.0291 955.0798 955.1173 955.1393 955.1438 955.1321 955.1109 955.0887 955.072 955.0652 955.0692 955.0804 955.0984 955.1227 955.1439 955.149 955.1387 955.126 955.119 955.118 955.1222 955.1279 955.1353 955.1533 955.179 955.1979 955.1969 955.1824 955.1708 955.2144 955.3724 955.6969 956.1555 956.7794 957.2931 957.6149 957.8787 958.2041 958.6595 959.3577 960.5336 961.8041 960.8497 961.173 961.6456 961.9818 -9999 -9999 -9999 -9999 -9999 -9999 -9999 -9999 -9999 -9999 -9999 -9999 -9999 -9999 -9999 -9999
-9999 -9999 -9999 -9999 -9999 -9999 -9999 -9999 -9999 -9999 -9999 -9999 -9999 -9999 -9999 -9999 -9999 -9999 -9999 -9999 -9999 -9999 -9999 -9999 -9999 -9999 961.3485 961.2764 961.1718 961.0394 960.9337 960.8162 960.2896 959.7795 959.041 958.4872 958.1282 957.9077 957.7745 957.7012 957.6759 957.6884 957.7247 957.7753 957.8271 957.8821 957.9448 958.0215 958.0698 958.1551 958.2869 958.3983 958.4028 958.2545 957.9438 957.4111 956.8629 956.3783 956.0005 955.7227 955.4187 955.1594 954.9467 954.7722 954.6281 954.5083 954.4078 954.3221 954.2481 954.1837 954.1274 954.0774 954.032 953.9902 953.9525 953.9189 953.8889 953.8621 953.8385 953.8184 953.8018 953.7886 953.7784 953.7717 953.7688 953.7695 953.7734 953.7796 953.7876 953.7965 953.8059 953.8161 953.8274 953.8395 953.8516 953.863 953.8749 953.8879 953.9031 953.9216 953.9457 953.9775 954.0181 954.0676 954.1252 954.189 954.2559 954.3235 954.3901 954.4527 954.5085 954.5557 954.5933 954.6227 954.645 954.6615 954.6744 954.6898 954.7137 954.7507 954.8015 954.8632 954.9296 954.9958 955.0546 955.1066 955.1415 955.16 955.1632 955.1547 955.1423 955.1344 955.1357 955.1471 955.164 955.1848 955.2132 955.2437 955.2606 955.257 955.2476 955.2446 955.2534 955.2764 955.304 955.3148 955.325 955.3392 955.3477 955.3433 955.3257 955.3159 955.3567 955.5233 955.8646 956.4563 957.1003 957.5269 957.8298 958.0782 958.3638 958.6727 959.011 959.7888 960.567 960.7761 961.1833 961.5963 961.8734 -9999 -9999 -9999 -9999 -9999 -9999 -9999 -9999 -9999 -9999 -9999 -9999 -9999 -9999 -9999 -9999
-9999 -9999 -9999 -9999 -9999 -9999 -9999 -9999 -9999 -9999 -9999 -9999 -9999 -9999 -9999 -9999 -9999 -9999 -9999 -9999 -9999 -9999 -9999 -9999 -9999 -9999 -9999 961.2787 961.1586 961.0394 961.0003 960.9753 960.6844 960.1887 959.1666 958.5459 958.1721 957.9552 957.833 957.7743 957.7692 957.8105 957.8824 957.9705 958.0585 958.1444 958.2385 958.3553 958.4578 958.5919 958.7837 958.9707 959.0784 959.0578 958.7416 958.0438 957.2618 956.6278 956.139 955.7568 955.4364 955.1689 954.95 954.7712 954.6235 954.5003 954.3964 954.3079 954.2318 954.1653 954.1069 954.0554 954.0097 953.9681 953.9297 953.895 953.8639 953.8357 953.8101 953.7874 953.7678 953.7515 953.7383 953.7283 953.7216 953.7183 953.7184 953.7212 953.7266 953.7335 953.7415 953.7502 953.7596 953.7702 953.7813 953.7922 953.8033 953.816 953.8319 953.8527 953.88 953.9156 953.9608 954.0156 954.0792 954.1498 954.2239 954.299 954.3724 954.4406 954.499 954.546 954.5808 954.6042 954.6178 954.6243 954.6281 954.6358 954.6552 954.6908 954.7428 954.8085 954.8824 954.9567 955.0259 955.0837 955.1315 955.1631 955.1804 955.1868 955.1885 955.1941 955.2087 955.2328 955.2606 955.2896 955.322 955.3631 955.3976 955.4011 955.3949 955.3954 955.412 955.4554 955.5181 955.5317 955.5339 955.5388 955.5406 955.5345 955.5203 955.5085 955.5485 955.765 956.1884 956.7712 957.3179 957.7538 958.0894 958.375 958.6536 958.889 959.082 959.4354 960.2223 960.7854 961.2693 961.6602 961.9035 -9999 -9999 -9999 -9999 -9999 -9999 -9999 -9999 -9999 -9999 -9999 -9999 -9999 -9999 -9999 -9999
-9999 -9999 -9999 -9999 -9999 -9999 -9999 -9999 -9999 -9999 -9999 -9999 -9999 -9999 -9999 -9999 -9999 -9999 -9999 -9999 -9999 -9999 -9999 -9999 -9999 -9999 -9999 -9999 961.1412 961.003 961.001 961.0022 960.7603 960.1023 959.1132 958.5358 958.1903 957.9953 957.8931 957.8534 957.8708 957.9419 958.0532 958.1802 958.3031 958.4137 958.5253 958.66 958.7825 958.9301 959.1434 959.3586 959.5457 959.7852 959.469 958.5499 957.511 956.7769 956.2105 955.7578 955.4163 955.1466 954.9305 954.7554 954.6107 954.4889 954.3848 954.2954 954.2181 954.1508 954.0913 954.0389 953.9924 953.951 953.9131 953.8781 953.8459 953.8165 953.7896 953.7648 953.7427 953.7236 953.7076 953.6949 953.6852 953.6787 953.6754 953.6748 953.6767 953.6805 953.6863 953.6932 953.7009 953.7094 953.7188 953.7289 953.7395 953.752 953.7682 953.7904 953.8203 953.8593 953.9084 953.9679 954.0369 954.1134 954.1947 954.2775 954.3583 954.4324 954.494 954.5406 954.5727 954.5913 954.598 954.5963 954.5928 954.5954 954.6117 954.6465 954.6988 954.765 954.8405 954.9191 954.9932 955.0588 955.1127 955.157 955.1896 955.2117 955.2299 955.2523 955.2839 955.325 955.3689 955.4119 955.4465 955.4966 955.5589 955.5675 955.5616 955.562 955.5767 955.6273 955.7394 955.7504 955.7497 955.7495 955.7495 955.7485 955.7459 955.7423 955.7789 956.0676 956.5461 957.1291 957.6132 958.043 958.4323 958.8236 959.252 959.6412 959.9281 960.2704 960.7493 961.1718 961.5363 961.8309 961.9971 -9999 -9999 -9999 -9999 -9999 -9999 -9999 -9999 -9999 -9999 -9999 -9999 -9999 -9999 -9999 -9999
-9999 -9999 -9999 -9999 -9999 -9999 -9999 -9999 -9999 -9999 -9999 -9999 -9999 -9999 -9999 -9999 -9999 -9999 -9999 -9999 -9999 -9999 -9999 -9999 -9999 -9999 -9999 -9999 -9999 -9999 961.1419 961.1161 960.8729 960.1113 959.1694 958.6037 958.2583 958.0697 957.9788 957.9542 957.9916 958.0917 958.2406 958.4067 958.5576 958.6798 958.7887 958.9086 959.0227 959.1323 959.2919 959.4021 959.3688 959.3299 959.6671 958.7319 957.6141 956.8654 956.2594 955.7564 955.3886 955.1135 954.9017 954.7332 954.5945 954.4772 954.3755 954.2867 954.2092 954.1414 954.0815 954.0288 953.9819 953.9401 953.9025 953.8677 953.8353 953.8052 953.7772 953.7511 953.7271 953.7056 953.6869 953.6714 953.6593 953.6502 953.6441 953.6405 953.6392 953.6396 953.6423 953.6467 953.6524 953.6588 953.6661 953.6747 953.6847 953.697 953.7133 953.7362 953.7678 953.8091 953.8613 953.9247 953.9981 954.08 954.1672 954.2567 954.3444 954.4243 954.4899 954.537 954.5671 954.5825 954.5852 954.5789 954.5712 954.5712 954.5863 954.6206 954.6725 954.7369 954.8098 954.8867 954.9629 955.0332 955.0959 955.1508 955.1993 955.24 955.2765 955.3177 955.3678 955.4293 955.4899 955.5575 955.585 955.6338 955.7418 955.7516 955.7507 955.7498 955.7491 955.7615 955.8755 955.9293 955.9451 955.9448 955.9396 955.9349 955.9395 955.9722 956.0839 956.3889 956.8608 957.384 957.9125 958.3876 958.865 959.4253 960.1859 961.0421 961.4647 961.5833 961.6744 961.7773 961.8873 961.9952 962.0045 -9999 -9999 -9999 -9999 -9999 -9999 -9999 -9999 -9999 -9999 -9999 -9999 -9999 -9999 -9999 -9999
-9999 -9999 -9999 -9999 -9999 -9999 -9999 -9999 -9999 -9999 -9999 -9999 -9999 -9999 -9999 -9999 -9999 -9999 -9999 -9999 -9999 -9999 -9999 -9999 -9999 -9999 -9999 -9999 -9999 -9999 961.2911 961.2082 960.9297 960.2198 959.4471 958.8148 958.4233 958.2191 958.1179 958.0956 958.1478 958.2723 958.4569 958.6585 958.8253 958.9395 959.0195 959.0958 959.173 959.2174 959.2933 959.3212 959.2014 959.1432 959.1652 958.5157 957.6116 956.9581 956.324 955.7626 955.365 955.0823 954.8745 954.7135 954.5818 954.4695 954.3715 954.2845 954.2072 954.1389 954.0789 954.0259 953.979 953.9369 953.8988 953.8643 953.8322 953.8018 953.7731 953.7461 953.7208 953.6975 953.6768 953.6589 953.6444 953.6328 953.6241 953.6178 953.6138 953.6115 953.6111 953.6124 953.6155 953.6199 953.6252 953.632 953.6409 953.6528 953.6691 953.6921 953.7242 953.7668 953.8209 953.8867 953.9634 954.0493 954.1412 954.236 954.3287 954.4132 954.4824 954.5319 954.5623 954.577 954.5795 954.5732 954.5652 954.5649 954.5802 954.6138 954.6638 954.725 954.7925 954.8643 954.9386 955.0128 955.0853 955.156 955.2241 955.2861 955.3428 955.4055 955.4722 955.559 955.6258 955.7398 955.7525 955.7695 955.8948 955.9567 955.9811 955.9877 955.9904 956.0117 956.0844 956.1333 956.1467 956.1388 956.1271 956.1216 956.1384 956.2075 956.3723 956.694 957.1875 957.7363 958.2942 958.8065 959.3711 960.0847 961.242 962.0437 962.4904 962.6436 962.5076 962.3437 962.1741 962.0089 -9999 -9999 -9999 -9999 -9999 -9999 -9999 -9999 -9999 -9999 -9999 -9999 -9999 -9999 -9999 -9999 -9999
-9999 -9999 -9999 -9999 -9999 -9999 -9999 -9999 -9999 -9999 -9999 -9999 -9999 -9999 -9999 -9999 -9999 -9999 -9999 -9999 -9999 -9999 -9999 -9999 -9999 -9999 -9999 -9999 -9999 -9999 961.4197 961.2577 960.9351 960.2885 959.7373 959.1071 958.686 958.4797 958.3392 958.298 958.3588 958.4995 958.7158 958.9506 959.1154 959.1924 959.2133 959.2223 959.2388 959.2239 959.2111 959.1995 959.0958 959.0073 958.8411 958.3668 957.7273 957.1345 956.4211 955.7794 955.3505 955.0613 954.8574 954.7035 954.5785 954.4708 954.3757 954.2903 954.2136 954.1453 954.0847 954.0314 953.9844 953.9423 953.904 953.8691 953.8369 953.8064 953.7773 953.7497 953.7235 953.6991 953.6769 953.6573 953.6406 953.6267 953.6157 953.6069 953.6 953.5952 953.592 953.5906 953.5908 953.593 953.5969 953.6022 953.6098 953.621 953.6371 953.66 953.6918 953.7344 953.7891 953.8558 953.934 954.022 954.1168 954.2145 954.3101 954.3972 954.4692 954.5219 954.5562 954.5748 954.5812 954.5793 954.5752 954.577 954.5924 954.6242 954.6704 954.7267 954.7887 954.8548 954.926 955.0034 955.0883 955.1809 955.2773 955.3674 955.4445 955.5348 955.6081 955.7362 955.7775 955.9335 956.0243 956.0844 956.1737 956.2343 956.2655 956.2776 956.2842 956.3047 956.3481 956.3755 956.3688 956.3427 956.3208 956.3184 956.3515 956.4495 956.6444 956.9631 957.4357 958.0839 958.7101 959.2653 959.9386 960.785 961.89 962.6454 963.0482 963.1555 963.0065 962.7566 962.4496 -9999 -9999 -9999 -9999 -9999 -9999 -9999 -9999 -9999 -9999 -9999 -9999 -9999 -9999 -9999 -9999 -9999 -9999
-9999 -9999 -9999 -9999 -9999 -9999 -9999 -9999 -9999 -9999 -9999 -9999 -9999 -9999 -9999 -9999 -9999 -9999 -9999 -9999 -9999 -9999 -9999 -9999 -9999 -9999 -9999 -9999 -9999 -9999 -9999 961.2987 960.905 960.2462 959.8972 959.6163 959.1005 958.9232 958.6787 958.5846 958.6514 958.7869 959.0264 959.3005 959.4337 959.4342 959.3652 959.2873 959.2272 959.1702 959.0809 959.019 958.9249 958.83 958.6379 958.2728 957.7786 957.2132 956.4755 955.7886 955.345 955.0565 954.858 954.7096 954.5889 954.4844 954.3909 954.3062 954.2297 954.1613 954.1003 954.0464 953.9988 953.9565 953.9185 953.8833 953.8506 953.8198 953.7903 953.7621 953.7352 953.7101 953.687 953.6661 953.6477 953.632 953.6187 953.6075 953.598 953.5903 953.5846 953.5804 953.5782 953.5781 953.5804 953.5851 953.5921 953.6025 953.6182 953.6407 953.6719 953.7137 953.7677 953.834 953.9118 953.9996 954.0947 954.1925 954.2885 954.3765 954.4504 954.5071 954.5476 954.5746 954.5898 954.5963 954.599 954.6047 954.6201 954.6488 954.6896 954.7401 954.7974 954.8612 954.9324 955.0153 955.1152 955.237 955.3746 955.5045 955.5947 955.7325 955.7883 955.9703 956.1062 956.27 956.4 956.4763 956.5342 956.5724 956.5945 956.6051 956.6116 956.6257 956.6486 956.6515 956.6117 956.5598 956.5247 956.5262 956.5814 956.7148 956.9506 957.3148 957.8494 958.5106 959.1122 959.6754 960.4191 961.2426 962.3439 962.9652 963.2787 963.3533 963.2362 962.9881 -9999 -9999 -9999 -9999 -9999 -9999 -9999 -9999 -9999 -9999 -9999 -9999 -9999 -9999 -9999 -9999 -9999 -9999 -9999
-9999 -9999 -9999 -9999 -9999 -9999 -9999 -9999 -9999 -9999 -9999 -9999 -9999 -9999 -9999 -9999 -9999 -9999 -9999 -9999 -9999 -9999 -9999 -9999 -9999 -9999 -9999 -9999 -9999 -9999 -9999 961.4241 961.0122 960.5 960.1079 959.9587 959.704 959.6327 959.1752 958.9879 959.0729 959.1393 959.3757 959.7209 959.77 959.6395 959.4584 959.288 959.1542 959.0499 958.936 958.8177 958.7212 958.6083 958.4441 958.1636 957.7625 957.2311 956.4962 955.793 955.3568 955.0774 954.8837 954.7367 954.6161 954.5115 954.418 954.333 954.2563 954.1875 954.1262 954.0717 954.0236 953.9809 953.9426 953.9072 953.8741 953.8428 953.8129 953.7842 953.7567 953.7307 953.7067 953.6848 953.6652 953.6479 953.6328 953.6193 953.6073 953.5968 953.5883 953.5815 953.5771 953.5752 953.576 953.5798 953.5868 953.5972 953.6125 953.6346 953.6652 953.7059 953.7585 953.823 953.8987 953.984 954.0762 954.1713 954.265 954.3524 954.428 954.4896 954.538 954.5759 954.6039 954.6217 954.6327 954.6426 954.6579 954.6829 954.7186 954.7648 954.8215 954.8892 954.9688 955.0635 955.1816 955.3397 955.5341 955.7274 955.8073 956.0059 956.1639 956.3582 956.5176 956.6782 956.8308 956.8954 956.9217 956.9345 956.9421 956.9471 956.9513 956.9593 956.969 956.9521 956.8647 956.7873 956.7428 956.7463 956.8203 956.998 957.2889 957.7335 958.3289 959.0272 959.6144 960.1251 960.8543 961.6723 962.4986 963.0035 963.2374 963.29 963.2101 -9999 -9999 -9999 -9999 -9999 -9999 -9999 -9999 -9999 -9999 -9999 -9999 -9999 -9999 -9999 -9999 -9999 -9999 -9999 -9999
-9999 -9999 -9999 -9999 -9999 -9999 -9999 -9999 -9999 -9999 -9999 -9999 -9999 -9999 -9999 -9999 -9999 -9999 -9999 -9999 -9999 -9999 -9999 -9999 -9999 -9999 -9999 -9999 -9999 -9999 -9999 -9999 961.3084 960.9214 960.5522 960.3492 960.2382 960.4297 959.9545 959.5776 959.7114 959.5584 959.7054 960.2057 960.057 959.7464 959.4604 959.2217 959.0332 958.8881 958.7627 958.6312 958.5119 958.3921 958.2435 958.0232 957.7015 957.2289 956.5162 955.8125 955.4058 955.1365 954.9398 954.7864 954.6603 954.5519 954.4562 954.3705 954.2933 954.2242 954.1625 954.1078 954.0593 954.0162 953.9772 953.9413 953.9077 953.8759 953.8453 953.8162 953.7881 953.7615 953.7365 953.7134 953.6926 953.6741 953.6573 953.6417 953.6274 953.6144 953.603 953.5938 953.587 953.5834 953.5833 953.5863 953.5933 953.6039 953.6196 953.6414 953.6713 953.7111 953.7618 953.8236 953.8953 953.9761 954.063 954.1524 954.2415 954.3267 954.4042 954.4719 954.5299 954.5801 954.6216 954.6517 954.671 954.6846 954.6992 954.7213 954.7548 954.8025 954.8671 954.9507 955.0529 955.1711 955.3105 955.511 955.7708 956.0449 956.2397 956.4348 956.6154 956.8105 956.9341 957.0577 957.2375 957.2767 957.281 957.2808 957.2796 957.2789 957.2788 957.2798 957.2798 957.2551 957.1055 957.0222 956.9854 956.9883 957.0608 957.2726 957.5992 958.0848 958.755 959.5675 960.3057 961.1072 961.5646 962.0696 962.5782 962.9024 963.0112 963.0133 -9999 -9999 -9999 -9999 -9999 -9999 -9999 -9999 -9999 -9999 -9999 -9999 -9999 -9999 -9999 -9999 -9999 -9999 -9999 -9999 -9999
-9999 -9999 -9999 -9999 -9999 -9999 -9999 -9999 -9999 -9999 -9999 -9999 -9999 -9999 -9999 -9999 -9999 -9999 -9999 -9999 -9999 -9999 -9999 -9999 -9999 -9999 -9999 -9999 -9999 -9999 -9999 -9999 961.6561 961.3079 960.9946 960.7744 960.7598 960.929 960.6645 960.4893 960.5517 960.1537 959.9301 960.6115 960.0931 959.6559 959.3486 959.1017 958.8909 958.7186 958.5782 958.4464 958.3219 958.1985 958.0563 957.8746 957.6171 957.2325 956.5736 955.8944 955.5231 955.2419 955.024 954.8539 954.717 954.6026 954.504 954.4172 954.3399 954.271 954.2095 954.1548 954.1062 954.0626 954.0229 953.9861 953.9518 953.9194 953.8882 953.8582 953.8295 953.8022 953.7764 953.7523 953.7302 953.7102 953.6918 953.6741 953.6573 953.6419 953.6281 953.6162 953.6074 953.6021 953.601 953.6039 953.6108 953.6221 953.6383 953.6605 953.6901 953.7288 953.7776 953.8356 953.9024 953.9769 954.0566 954.1385 954.2212 954.3033 954.3824 954.4567 954.5247 954.5872 954.6415 954.6826 954.709 954.7252 954.7398 954.7612 954.7979 954.8564 954.9426 955.0607 955.2087 955.3738 955.5383 955.8007 956.1594 956.4847 956.7388 956.8945 957.0345 957.2301 957.2758 957.3034 957.4509 957.5331 957.5728 957.5876 957.587 957.5808 957.5739 957.5636 957.5353 957.4594 957.3107 957.2823 957.2791 957.2787 957.3134 957.515 957.8171 958.2499 958.8427 959.6006 960.39 961.3109 961.7546 962.1292 962.4845 962.6974 962.707 962.6009 -9999 -9999 -9999 -9999 -9999 -9999 -9999 -9999 -9999 -9999 -9999 -9999 -9999 -9999 -9999 -9999 -9999 -9999 -9999 -9999 -9999
-9999 -9999 -9999 -9999 -9999 -9999 -9999 -9999 -9999 -9999 -9999 -9999 -9999 -9999 -9999 -9999 -9999 -9999 -9999 -9999 -9999 -9999 -9999 -9999 -9999 -9999 -9999 -9999 -9999 -9999 -9999 -9999 -9999 961.6929 961.4157 961.105 961.004 961.0003 960.968 960.9642 960.9716 960.6577 960.3912 959.6892 959.542 959.3767 959.1898 958.9797 958.7691 958.5811 958.4188 958.2783 958.145 958.0134 957.8752 957.7279 957.528 957.2471 956.6857 956.1051 955.7101 955.3691 955.115 954.925 954.7778 954.6586 954.5584 954.4717 954.3953 954.3274 954.2668 954.2126 954.1641 954.1201 954.0798 954.0424 954.0071 953.9735 953.9415 953.9107 953.8812 953.8532 953.8267 953.8018 953.7784 953.7567 953.7362 953.7163 953.6971 953.6791 953.6627 953.6486 953.6377 953.6309 953.6287 953.6314 953.6388 953.6508 953.668 953.691 953.7208 953.7588 953.8053 953.8594 953.9203 953.9872 954.0585 954.132 954.2076 954.2863 954.3668 954.4467 954.5236 954.5967 954.6614 954.7108 954.7426 954.7614 954.778 954.8042 954.8523 954.9337 955.0577 955.2323 955.4576 955.7141 955.9121 956.2734 956.6607 956.953 957.206 957.2704 957.3026 957.4479 957.5188 957.5634 957.6617 957.752 957.822 957.8621 957.871 957.8644 957.8549 957.8424 957.8134 957.7506 957.6705 957.656 957.6627 957.6664 957.6907 957.7981 957.9821 958.2607 958.6328 959.0822 959.7385 960.532 961.2068 961.7012 962.1395 962.3824 962.3243 962.0895 -9999 -9999 -9999 -9999 -9999 -9999 -9999 -9999 -9999 -9999 -9999 -9999 -9999 -9999 -9999 -9999 -9999 -9999 -9999 -9999 -9999
-9999 -9999 -9999 -9999 -9999 -9999 -9999 -9999 -9999 -9999 -9999 -9999 -9999 -9999 -9999 -9999 -9999 -9999 -9999 -9999 -9999 -9999 -9999 -9999 -9999 -9999 -9999 -9999 -9999 -9999 -9999 -9999 -9999 -9999 -9999 961.5641 961.2412 961.0053 960.9999 960.9902 960.8497 960.7439 960.9171 960.437 959.9943 959.5718 959.2168 958.9329 958.7015 958.5005 958.3189 958.157 958.0062 957.8594 957.7078 957.5848 957.4332 957.2237 956.7275 956.1959 955.7598 955.4265 955.1738 954.9825 954.8343 954.7155 954.6168 954.5323 954.4584 954.3928 954.3339 954.2809 954.2329 954.1888 954.148 954.1097 954.0736 954.0389 954.0057 953.974 953.9437 953.9149 953.8875 953.8615 953.8369 953.8134 953.7906 953.7683 953.7465 953.7257 953.7067 953.6902 953.6774 953.6688 953.6658 953.6681 953.676 953.689 953.7074 953.7316 953.7621 953.7998 953.8442 953.894 953.9487 954.0079 954.0706 954.1356 954.2043 954.2794 954.3607 954.4446 954.5276 954.6079 954.6794 954.7341 954.7701 954.7935 954.8174 954.8572 954.9286 955.0471 955.2255 955.4749 955.8008 956.1889 956.5234 956.8452 957.1718 957.2978 957.418 957.4901 957.5445 957.6501 957.734 957.7982 957.876 957.9651 958.0525 958.1179 958.1426 958.1419 958.1357 958.1307 958.12 958.0905 958.0617 958.0706 958.0868 958.0863 958.0775 958.0958 958.1542 958.2852 958.4879 958.7264 959.0111 959.4874 960.0629 960.8282 961.572 962.0082 961.9344 961.603 -9999 -9999 -9999 -9999 -9999 -9999 -9999 -9999 -9999 -9999 -9999 -9999 -9999 -9999 -9999 -9999 -9999 -9999 -9999 -9999 -9999
-9999 -9999 -9999 -9999 -9999 -9999 -9999 -9999 -9999 -9999 -9999 -9999 -9999 -9999 -9999 -9999 -9999 -9999 -9999 -9999 -9999 -9999 -9999 -9999 -9999 -9999 -9999 -9999 -9999 -9999 -9999 -9999 -9999 -9999 -9999 -9999 -9999 961.0435 960.9141 960.6963 960.3743 960.2341 960.6863 960.9704 960.4883 959.8046 959.2551 958.9043 958.6656 958.4691 958.2844 958.1069 957.939 957.7789 957.625 957.4742 957.2917 957.0725 956.6648 956.1912 955.761 955.446 955.2081 955.0266 954.8856 954.7727 954.6793 954.5994 954.5294 954.467 954.4108 954.3596 954.3125 954.2686 954.2273 954.1884 954.1511 954.1156 954.0814 954.0486 954.0173 953.9875 953.9591 953.9319 953.9058 953.8804 953.8553 953.8303 953.8055 953.7819 953.7601 953.741 953.7257 953.7156 953.7114 953.7135 953.7217 953.7357 953.7556 953.7814 953.8128 953.8503 953.8932 953.9389 953.9878 954.0398 954.0944 954.1516 954.214 954.2856 954.3666 954.4521 954.5381 954.6211 954.6949 954.7528 954.7938 954.8265 954.8665 954.9324 955.0428 955.2159 955.4678 955.814 956.2727 956.7419 957.1274 957.3153 957.4996 957.5703 957.6097 957.6699 957.7377 957.8373 957.9352 958.0161 958.0916 958.1798 958.2792 958.3649 958.409 958.418 958.4187 958.4248 958.4379 958.4399 958.4408 958.4666 958.4897 958.4778 958.4313 958.3749 958.3531 958.407 958.5625 958.7876 958.9794 958.9916 959.0923 959.7068 960.895 961.6031 961.4554 961.1044 -9999 -9999 -9999 -9999 -9999 -9999 -9999 -9999 -9999 -9999 -9999 -9999 -9999 -9999 -9999 -9999 -9999 -9999 -9999 -9999 -9999
-9999 -9999 -9999 -9999 -9999 -9999 -9999 -9999 -9999 -9999 -9999 -9999 -9999 -9999 -9999 -9999 -9999 -9999 -9999 -9999 -9999 -9999 -9999 -9999 -9999 -9999 -9999 -9999 -9999 -9999 -9999 -9999 -9999 -9999 -9999 -9999 -9999 -9999 -9999 960.5488 960.0776 959.9543 960.1704 960.5646 960.5142 959.7208 959.1377 958.8353 958.6527 958.4846 958.3041 958.1182 957.9378 957.769 957.6143 957.4613 957.2753 956.9965 956.6046 956.1638 955.7562 955.4567 955.2339 955.0658 954.936 954.8325 954.7468 954.6733 954.6085 954.5504 954.4973 954.4481 954.4021 954.3586 954.3174 954.2778 954.2397 954.2031 954.168 954.1343 954.1021 954.0713 954.0417 954.0132 953.9854 953.9578 953.9301 953.9021 953.8745 953.8479 953.8232 953.8013 953.7834 953.771 953.7654 953.7668 953.7754 953.7904 953.8115 953.8391 953.8718 953.9094 953.9507 953.9933 954.0371 954.0833 954.1313 954.1821 954.2389 954.307 954.3857 954.4701 954.5555 954.6375 954.7104 954.7705 954.8199 954.8698 954.9384 955.0464 955.2147 955.4631 955.81 956.2755 956.7765 957.2252 957.5251 957.6771 957.7717 957.8041 957.8177 957.85 957.9133 958.0131 958.1252 958.2246 958.3085 958.3982 958.5048 958.6057 958.6702 958.6901 958.6947 958.7092 958.7471 958.7731 958.7843 958.8076 958.8286 958.8021 958.7242 958.6219 958.5521 958.5979 958.8129 959.2361 959.7936 960.1207 959.4646 959.2632 960.2801 961.0155 961.025 960.9176 -9999 -9999 -9999 -9999 -9999 -9999 -9999 -9999 -9999 -9999 -9999 -9999 -9999 -9999 -9999 -9999 -9999 -9999 -9999 -9999 -9999
-9999 -9999 -9999 -9999 -9999 -9999 -9999 -9999 -9999 -9999 -9999 -9999 -9999 -9999 -9999 -9999 -9999 -9999 -9999 -9999 -9999 -9999 -9999 -9999 -9999 -9999 -9999 -9999 -9999 -9999 -9999 -9999 -9999 -9999 -9999 -9999 -9999 -9999 -9999 -9999 960.3309 960.0252 959.9531 960.0293 959.886 959.199 958.9045 958.8157 958.7202 958.5645 958.3683 958.1624 957.9675 957.7928 957.6342 957.4763 957.276 956.9633 956.567 956.1414 955.7537 955.4684 955.2607 955.1077 954.9912 954.8988 954.8221 954.7559 954.6968 954.643 954.5933 954.5464 954.5016 954.4586 954.4172 954.3773 954.3386 954.3011 954.2653 954.2308 954.1978 954.166 954.1353 954.1051 954.0754 954.0456 954.0151 953.9843 953.9535 953.9238 953.896 953.8709 953.8501 953.8353 953.8279 953.8285 953.8369 953.8526 953.8749 953.9037 953.9377 953.9757 954.0161 954.0565 954.0969 954.1388 954.1821 954.2275 954.2797 954.3442 954.4187 954.4991 954.5812 954.6595 954.731 954.7954 954.8596 954.9379 955.0499 955.2181 955.4646 955.81 956.2734 956.7728 957.2308 957.5732 957.8054 957.9308 957.9852 957.9952 957.9962 958.0142 958.0792 958.1823 958.3057 958.4224 958.5206 958.6149 958.7251 958.8355 958.9175 958.9493 958.9536 958.9689 959.0331 959.0759 959.0809 959.0806 959.0848 959.0493 958.9547 958.8297 958.7396 958.7776 959.0273 959.5933 960.5565 961.604 960.3365 959.9562 960.4408 960.9542 960.9075 960.8438 -9999 -9999 -9999 -9999 -9999 -9999 -9999 -9999 -9999 -9999 -9999 -9999 -9999 -9999 -9999 -9999 -9999 -9999 -9999 -9999 -9999
-9999 -9999 -9999 -9999 -9999 -9999 -9999 -9999 -9999 -9999 -9999 -9999 -9999 -9999 -9999 -9999 -9999 -9999 -9999 -9999 -9999 -9999 -9999 -9999 -9999 -9999 -9999 -9999 -9999 -9999 -9999 -9999 -9999 -9999 -9999 -9999 -9999 -9999 -9999 -9999 -9999 960.4283 960.0941 960.0469 959.8859 959.4565 959.1279 959.1139 958.9826 958.7384 958.4659 958.2131 957.9949 957.8114 957.6517 957.489 957.2769 956.948 956.5453 956.1256 955.7527 955.4835 955.2937 955.1577 955.0558 954.975 954.9073 954.8483 954.7948 954.7452 954.6984 954.6534 954.6097 954.5673 954.5259 954.4857 954.4468 954.4091 954.3727 954.3377 954.3038 954.271 954.239 954.2073 954.1755 954.1433 954.1102 954.0764 954.0427 954.0099 953.9788 953.9503 953.9263 953.9087 953.8993 953.8986 953.9064 953.9222 953.9454 953.9752 954.0104 954.0489 954.0891 954.1286 954.167 954.2064 954.2466 954.2883 954.3364 954.3969 954.4651 954.54 954.6171 954.6919 954.7639 954.8384 954.9276 955.0477 955.2202 955.4678 955.8134 956.2775 956.7736 957.2239 957.5601 957.8137 957.9944 958.1007 958.1431 958.1454 958.1448 958.1617 958.2356 958.3458 958.4751 958.6035 958.7163 958.8176 958.9269 959.0455 959.1397 959.1852 959.1899 959.2028 959.2919 959.3445 959.3292 959.2905 959.2659 959.2334 959.1564 959.0437 958.9534 958.9775 959.1222 959.4647 960.0417 960.4995 960.55 960.57 960.8111 961.0001 960.9003 -9999 -9999 -9999 -9999 -9999 -9999 -9999 -9999 -9999 -9999 -9999 -9999 -9999 -9999 -9999 -9999 -9999 -9999 -9999 -9999 -9999 -9999
-9999 -9999 -9999 -9999 -9999 -9999 -9999 -9999 -9999 -9999 -9999 -9999 -9999 -9999 -9999 -9999 -9999 -9999 -9999 -9999 -9999 -9999 -9999 -9999 -9999 -9999 -9999 -9999 -9999 -9999 -9999 -9999 -9999 -9999 -9999 -9999 -9999 -9999 -9999 -9999 -9999 960.9068 960.6011 960.4956 960.3938 960.1951 959.99 959.8039 959.4274 958.9641 958.561 958.2427 957.9968 957.8048 957.6459 957.4878 957.2775 956.941 956.5318 956.1132 955.7516 955.5042 955.3376 955.2209 955.1337 955.0635 955.0039 954.9509 954.9023 954.8562 954.8119 954.7685 954.7257 954.6837 954.6425 954.6022 954.5632 954.5255 954.489 954.4537 954.4192 954.3855 954.3522 954.3188 954.2852 954.2507 954.2151 954.1787 954.1422 954.1063 954.0719 954.0399 954.0122 953.9915 953.9799 953.9774 953.984 953.9995 954.0228 954.0533 954.0894 954.1287 954.1696 954.2092 954.2474 954.286 954.3246 954.3639 954.4084 954.4642 954.5253 954.5948 954.667 954.741 954.8194 954.9133 955.0402 955.2181 955.4689 955.8159 956.2821 956.7779 957.2196 957.5347 957.7733 957.9625 958.1094 958.2062 958.2507 958.2593 958.2663 958.295 958.3743 958.492 958.6243 958.7567 958.8794 958.988 959.0914 959.2178 959.3306 959.3885 959.3993 959.4096 959.5192 959.5753 959.5316 959.4459 959.3987 959.3932 959.3903 959.3614 959.3347 959.432 959.5112 959.6721 960.1436 960.9753 961.1996 961.2815 961.3627 961.3448 -9999 -9999 -9999 -9999 -9999 -9999 -9999 -9999 -9999 -9999 -9999 -9999 -9999 -9999 -9999 -9999 -9999 -9999 -9999 -9999 -9999 -9999 -9999
-9999 -9999 -9999 -9999 -9999 -9999 -9999 -9999 -9999 -9999 -9999 -9999 -9999 -9999 -9999 -9999 -9999 -9999 -9999 -9999 -9999 -9999 -9999 -9999 -9999 -9999 -9999 -9999 -9999 -9999 -9999 -9999 -9999 -9999 -9999 -9999 -9999 -9999 -9999 -9999 -9999 -9999 961.0148 960.9785 960.9654 960.9156 960.7909 960.4318 959.8075 959.0958 958.5853 958.2274 957.9664 957.769 957.611 957.4643 957.2769 956.9365 956.5232 956.1052 955.7512 955.538 955.4005 955.3028 955.2273 955.1652 955.1115 955.0631 955.0181 954.9748 954.9324 954.8903 954.8481 954.8065 954.7654 954.7253 954.6865 954.649 954.6129 954.5775 954.5427 954.5082 954.4736 954.4387 954.4032 954.3669 954.3292 954.2905 954.2515 954.2129 954.1753 954.1395 954.1082 954.0841 954.0697 954.0652 954.0702 954.0845 954.1075 954.1381 954.1749 954.2153 954.2574 954.2986 954.3379 954.3771 954.4155 954.4532 954.4948 954.5457 954.6005 954.6661 954.7358 954.8141 954.9086 955.0348 955.2145 955.468 955.8165 956.2832 956.778 957.2145 957.5099 957.7209 957.8887 958.0367 958.1652 958.261 958.3129 958.3326 958.3488 958.3878 958.4712 958.597 958.7297 958.8623 958.9902 959.1107 959.223 959.3383 959.4737 959.5542 959.5784 959.5878 959.7096 959.7601 959.6796 959.5525 959.4982 959.5726 959.7345 959.9097 960.056 960.4136 960.5992 960.9858 961.2744 961.6943 961.9003 961.9516 961.9617 -9999 -9999 -9999 -9999 -9999 -9999 -9999 -9999 -9999 -9999 -9999 -9999 -9999 -9999 -9999 -9999 -9999 -9999 -9999 -9999 -9999 -9999 -9999 -9999
-9999 -9999 -9999 -9999 -9999 -9999 -9999 -9999 -9999 -9999 -9999 -9999 -9999 -9999 -9999 -9999 -9999 -9999 -9999 -9999 -9999 -9999 -9999 -9999 -9999 -9999 -9999 -9999 -9999 -9999 -9999 -9999 -9999 -9999 -9999 -9999 -9999 -9999 -9999 -9999 -9999 -9999 -9999 961.2207 961.1667 961.097 961.0051 960.7189 959.9017 959.0239 958.5165 958.177 957.9208 957.7165 957.5484 957.4031 957.2579 956.9202 956.5204 956.1176 955.7711 955.6071 955.4944 955.4074 955.3372 955.2783 955.2276 955.1821 955.1397 955.0987 955.0577 955.0167 954.9752 954.9338 954.8931 954.8535 954.8152 954.7783 954.7427 954.7076 954.6727 954.6375 954.6019 954.5659 954.5289 954.4911 954.4518 954.4114 954.3704 954.3292 954.2886 954.2493 954.2141 954.1866 954.1692 954.1622 954.165 954.1775 954.1993 954.2297 954.2672 954.3091 954.3533 954.3969 954.4385 954.4794 954.5186 954.5557 954.5951 954.6417 954.6924 954.7571 954.8282 954.9187 955.0419 955.2158 955.4652 955.8154 956.2836 956.776 957.2016 957.4813 957.6732 957.8138 957.934 958.0565 958.1765 958.2744 958.3345 958.3623 958.381 958.4219 958.5042 958.633 958.7603 958.892 959.022 959.154 959.2882 959.423 959.5562 959.6588 959.7194 959.736 959.8505 959.8879 959.7544 959.5942 959.5632 959.768 960.2175 960.8077 961.4182 961.9462 962.2026 962.3062 962.4249 962.409 962.375 962.3203 -9999 -9999 -9999 -9999 -9999 -9999 -9999 -9999 -9999 -9999 -9999 -9999 -9999 -9999 -9999 -9999 -9999 -9999 -9999 -9999 -9999 -9999 -9999 -9999 -9999
-9999 -9999 -9999 -9999 -9999 -9999 -9999 -9999 -9999 -9999 -9999 -9999 -9999 -9999 -9999 -9999 -9999 -9999 -9999 -9999 -9999 -9999 -9999 -9999 -9999 -9999 -9999 -9999 -9999 -9999 -9999 -9999 -9999 -9999 -9999 -9999 -9999 -9999 -9999 -9999 -9999 -9999 -9999 961.3256 961.1772 961.0084 960.918 960.5846 959.8231 958.9593 958.4825 958.1619 957.9027 957.6783 957.4775 957.2882 957.1371 956.8663 956.5297 956.1894 955.9078 955.747 955.6248 955.5309 955.457 955.3971 955.3472 955.3036 955.2636 955.2246 955.1853 955.1453 955.1045 955.0638 955.0237 954.9849 954.9475 954.9114 954.8765 954.8419 954.8071 954.7716 954.7355 954.6987 954.6609 954.6219 954.5818 954.5402 954.4977 954.4546 954.4113 954.3688 954.33 954.2991 954.2784 954.2684 954.2683 954.2783 954.2985 954.3284 954.3665 954.4102 954.457 954.504 954.5488 954.5921 954.6331 954.6711 954.7096 954.7535 954.8035 954.8705 954.9485 955.0613 955.2278 955.4652 955.803 956.2765 956.7791 957.2065 957.4484 957.6337 957.7617 957.8572 957.9448 958.0461 958.1583 958.256 958.3192 958.3491 958.3625 958.3877 958.4525 958.5602 958.688 958.8239 958.9568 959.0928 959.2393 959.3893 959.5361 959.6713 959.7876 959.8539 959.9039 959.9254 959.7338 959.5598 959.5728 959.9177 960.6729 961.7462 962.5878 963.1782 963.5109 963.5027 963.2173 962.8738 962.6417 -9999 -9999 -9999 -9999 -9999 -9999 -9999 -9999 -9999 -9999 -9999 -9999 -9999 -9999 -9999 -9999 -9999 -9999 -9999 -9999 -9999 -9999 -9999 -9999 -9999 -9999
-9999 -9999 -9999 -9999 -9999 -9999 -9999 -9999 -9999 -9999 -9999 -9999 -9999 -9999 -9999 -9999 -9999 -9999 -9999 -9999 -9999 -9999 -9999 -9999 -9999 -9999 -9999 -9999 -9999 -9999 -9999 -9999 -9999 -9999 -9999 -9999 -9999 -9999 -9999 -9999 -9999 -9999 -9999 -9999 961.2034 961.0005 960.8692 960.549 959.8645 959.0373 958.59 958.2507 957.9519 957.6915 957.4688 957.2774 957.09 956.8466 956.5601 956.2736 956.0339 955.8699 955.7493 955.6508 955.5731 955.5118 955.4628 955.422 955.3851 955.3488 955.3115 955.2729 955.2333 955.1937 955.1548 955.1172 955.0811 955.0461 955.0122 954.9783 954.9438 954.9086 954.8723 954.8352 954.7972 954.7582 954.7178 954.6758 954.6324 954.5879 954.5424 954.4971 954.455 954.4207 954.3969 954.3832 954.3795 954.3864 954.4044 954.4336 954.4725 954.5186 954.5685 954.6195 954.6683 954.7144 954.7582 954.7986 954.8386 954.8832 954.9357 955.0079 955.0995 955.2465 955.4705 955.7835 956.2258 956.7518 957.2221 957.519 957.6722 957.7715 957.8423 957.8982 957.9558 958.0319 958.1283 958.2195 958.2792 958.3036 958.3059 958.3073 958.3424 958.4241 958.5419 958.678 958.8136 958.9459 959.0911 959.2402 959.387 959.5237 959.6349 959.6985 959.7292 959.7207 959.603 959.4968 959.5837 960.0211 960.8893 962.2254 963.2701 963.9184 964.1833 964.1105 963.7525 963.0934 -9999 -9999 -9999 -9999 -9999 -9999 -9999 -9999 -9999 -9999 -9999 -9999 -9999 -9999 -9999 -9999 -9999 -9999 -9999 -9999 -9999 -9999 -9999 -9999 -9999 -9999 -9999
-9999 -9999 -9999 -9999 -9999 -9999 -9999 -9999 -9999 -9999 -9999 -9999 -9999 -9999 -9999 -9999 -9999 -9999 -9999 -9999 -9999 -9999 -9999 -9999 -9999 -9999 -9999 -9999 -9999 -9999 -9999 -9999 -9999 -9999 -9999 -9999 -9999 -9999 -9999 -9999 -9999 -9999 -9999 -9999 -9999 961.0135 960.9074 960.7039 960.1314 959.3566 958.9059 958.4679 958.0699 957.745 957.4863 957.2778 957.0937 956.8679 956.6091 956.3535 956.1348 955.9696 955.8462 955.7499 955.6729 955.6128 955.5666 955.531 955.4993 955.4666 955.4323 955.3961 955.3585 955.3206 955.2837 955.248 955.2135 955.1798 955.147 955.1143 955.0807 955.046 955.0104 954.9738 954.9364 954.8981 954.8584 954.8168 954.7733 954.7279 954.6808 954.6332 954.5881 954.5505 954.5231 954.5055 954.4977 954.5007 954.5162 954.5446 954.5846 954.6335 954.6873 954.7425 954.7954 954.8448 954.8925 954.9375 954.9828 955.0326 955.0911 955.1698 955.2828 955.4777 955.7697 956.1587 956.6319 957.1525 957.5396 957.7775 957.8835 957.928 957.951 957.9674 957.9904 958.0362 958.1075 958.1853 958.241 958.2593 958.2457 958.2191 958.2209 958.2764 958.3813 958.5157 958.6547 958.7881 958.9188 959.0453 959.1726 959.2974 959.3965 959.452 959.5006 959.5601 959.5862 959.606 959.8496 960.5087 961.7104 962.9048 963.8234 964.3242 964.4785 964.3182 963.8737 -9999 -9999 -9999 -9999 -9999 -9999 -9999 -9999 -9999 -9999 -9999 -9999 -9999 -9999 -9999 -9999 -9999 -9999 -9999 -9999 -9999 -9999 -9999 -9999 -9999 -9999 -9999 -9999
-9999 -9999 -9999 -9999 -9999 -9999 -9999 -9999 -9999 -9999 -9999 -9999 -9999 -9999 -9999 -9999 -9999 -9999 -9999 -9999 -9999 -9999 -9999 -9999 -9999 -9999 -9999 -9999 -9999 -9999 -9999 -9999 -9999 -9999 -9999 -9999 -9999 -9999 -9999 -9999 -9999 -9999 -9999 -9999 -9999 -9999 961.0094 960.9356 960.4544 959.6822 959.3771 958.7297 958.2028 957.8147 957.5225 957.2904 957.1461 956.9248 956.6693 956.4227 956.2113 956.045 955.9189 955.823 955.7499 955.6935 955.6522 955.6251 955.6016 955.5733 955.5428 955.5105 955.4758 955.4408 955.407 955.3739 955.3411 955.309 955.278 955.2471 955.2152 955.1819 955.1474 955.1123 955.0767 955.04 955.002 954.9617 954.9187 954.873 954.825 954.7756 954.7279 954.6871 954.6558 954.6337 954.6212 954.6199 954.6325 954.66 954.7015 954.7537 954.8116 954.8712 954.9286 954.9816 955.0334 955.0852 955.1406 955.203 955.2723 955.3552 955.4998 955.7571 956.1266 956.5323 956.9523 957.3668 957.7684 958.0125 958.1072 958.119 958.1 958.0748 958.0602 958.0744 958.1221 958.1882 958.246 958.2723 958.249 958.1917 958.1538 958.1888 958.2925 958.4374 958.5951 958.7404 958.8632 958.9434 959.0359 959.1495 959.2484 959.2988 959.4027 959.6266 959.9083 960.0947 960.5971 961.6489 962.7195 963.6534 964.257 964.5634 964.6008 -9999 -9999 -9999 -9999 -9999 -9999 -9999 -9999 -9999 -9999 -9999 -9999 -9999 -9999 -9999 -9999 -9999 -9999 -9999 -9999 -9999 -9999 -9999 -9999 -9999 -9999 -9999 -9999 -9999 -9999
-9999 -9999 -9999 -9999 -9999 -9999 -9999 -9999 -9999 -9999 -9999 -9999 -9999 -9999 -9999 -9999 -9999 -9999 -9999 -9999 -9999 -9999 -9999 -9999 -9999 -9999 -9999 -9999 -9999 -9999 -9999 -9999 -9999 -9999 -9999 -9999 -9999 -9999 -9999 -9999 -9999 -9999 -9999 -9999 -9999 -9999 961.1234 960.868 960.385 960.208 959.4031 958.7643 958.2634 957.8872 957.6075 957.4052 957.2647 957.0001 956.7255 956.4753 956.2648 956.0975 955.9694 955.8729 955.8014 955.7499 955.7141 955.6996 955.6872 955.6625 955.6372 955.6111 955.5804 955.5496 955.5203 955.4911 955.4606 955.4304 955.4017 955.3737 955.3444 955.3132 955.2808 955.248 955.2153 955.1817 955.1464 955.1079 955.0662 955.0211 954.9728 954.9224 954.8727 954.8285 954.7928 954.7657 954.7479 954.7421 954.7516 954.7784 954.8215 954.8771 954.9396 955.0037 955.0656 955.1221 955.1774 955.2365 955.3069 955.3923 955.4843 955.5618 955.7534 956.0868 956.5078 956.9158 957.2976 957.6959 958.0344 958.2556 958.3368 958.3291 958.2753 958.2112 958.1656 958.1609 958.2031 958.278 958.3634 958.4255 958.4074 958.3171 958.2386 958.2598 958.3975 958.5865 958.7924 958.9793 959.126 959.131 959.1886 959.3099 959.4314 959.4456 959.5977 960.0354 960.7016 961.0775 961.9768 963.0137 963.813 964.3577 964.6544 964.768 -9999 -9999 -9999 -9999 -9999 -9999 -9999 -9999 -9999 -9999 -9999 -9999 -9999 -9999 -9999 -9999 -9999 -9999 -9999 -9999 -9999 -9999 -9999 -9999 -9999 -9999 -9999 -9999 -9999 -9999 -9999
-9999 -9999 -9999 -9999 -9999 -9999 -9999 -9999 -9999 -9999 -9999 -9999 -9999 -9999 -9999 -9999 -9999 -9999 -9999 -9999 -9999 -9999 -9999 -9999 -9999 -9999 -9999 -9999 -9999 -9999 -9999 -9999 -9999 -9999 -9999 -9999 -9999 -9999 -9999 -9999 -9999 -9999 -9999 -9999 -9999 -9999 961.3258 961.0206 960.6241 960.2646 959.5369 958.8373 958.3607 957.9952 957.7034 957.4739 957.2781 957.0175 956.7497 956.5052 956.298 956.1315 956.0024 955.9046 955.8325 955.7816 955.7501 955.75 955.7499 955.725 955.7084 955.6928 955.6661 955.6411 955.6187 955.5957 955.5674 955.5395 955.5144 955.4909 955.4658 955.4371 955.4072 955.3779 955.3494 955.3202 955.2886 955.2528 955.2129 955.1692 955.1218 955.071 955.0198 954.9723 954.9319 954.8993 954.8759 954.8651 954.8716 954.8976 954.9424 955.0016 955.0688 955.1376 955.2038 955.2639 955.3203 955.3829 955.4689 955.5876 955.7292 955.791 956.0516 956.433 956.8825 957.2751 957.6312 958.0155 958.3319 958.4999 958.5417 958.5206 958.4443 958.3549 958.3011 958.3145 958.3959 958.523 958.6863 958.8483 958.8514 958.7025 958.5751 958.6069 958.8453 959.1537 959.4628 959.7119 959.9332 959.8594 959.9186 960.0821 960.2627 960.1719 960.2966 960.8254 961.7349 962.5664 963.5145 964.384 964.9002 965.11 965.1259 965.0569 -9999 -9999 -9999 -9999 -9999 -9999 -9999 -9999 -9999 -9999 -9999 -9999 -9999 -9999 -9999 -9999 -9999 -9999 -9999 -9999 -9999 -9999 -9999 -9999 -9999 -9999 -9999 -9999 -9999 -9999 -9999
-9999 -9999 -9999 -9999 -9999 -9999 -9999 -9999 -9999 -9999 -9999 -9999 -9999 -9999 -9999 -9999 -9999 -9999 -9999 -9999 -9999 -9999 -9999 -9999 -9999 -9999 -9999 -9999 -9999 -9999 -9999 -9999 -9999 -9999 -9999 -9999 -9999 -9999 -9999 -9999 -9999 -9999 -9999 -9999 -9999 -9999 961.5965 961.2905 960.9047 960.4442 959.7771 959.0383 958.5903 958.1927 957.8345 957.5323 957.2763 957.0138 956.7585 956.5237 956.3208 956.1553 956.0253 955.9265 955.8539 955.8041 955.7761 955.77 955.7657 955.75 955.75 955.7499 955.725 955.709 955.6971 955.6837 955.656 955.6313 955.6119 955.5953 955.5764 955.5496 955.5223 955.4976 955.4749 955.4518 955.4252 955.3922 955.3547 955.3137 955.2686 955.2186 955.1664 955.116 955.0705 955.0319 955.0028 954.9871 954.9903 955.0154 955.0616 955.1246 955.1967 955.2702 955.3405 955.4049 955.4607 955.5169 955.6113 955.7518 955.936 956.1141 956.4008 956.7754 957.2065 957.5406 957.8834 958.2706 958.5958 958.7504 958.7471 958.6964 958.5948 958.4968 958.4728 958.5665 958.7659 959.0114 959.3327 959.715 959.759 959.4739 959.2574 959.3307 959.7881 960.3861 960.9161 961.2067 961.3469 961.4414 961.6473 961.8669 961.9968 961.9414 962.0576 962.541 963.3626 964.2181 965.0365 965.6901 965.9849 966.0064 965.852 -9999 -9999 -9999 -9999 -9999 -9999 -9999 -9999 -9999 -9999 -9999 -9999 -9999 -9999 -9999 -9999 -9999 -9999 -9999 -9999 -9999 -9999 -9999 -9999 -9999 -9999 -9999 -9999 -9999 -9999 -9999 -9999
-9999 -9999 -9999 -9999 -9999 -9999 -9999 -9999 -9999 -9999 -9999 -9999 -9999 -9999 -9999 -9999 -9999 -9999 -9999 -9999 -9999 -9999 -9999 -9999 -9999 -9999 -9999 -9999 -9999 -9999 -9999 -9999 -9999 -9999 -9999 -9999 -9999 -9999 -9999 -9999 -9999 -9999 -9999 -9999 -9999 -9999 961.9382 961.5939 961.1942 960.7573 960.2441 959.5562 959.054 958.5165 958.0216 957.6079 957.2777 957.0214 956.7784 956.5492 956.3467 956.1791 956.0468 955.9458 955.8716 955.821 955.7922 955.781 955.7754 955.7685 955.7683 955.7653 955.75 955.75 955.75 955.7498 955.7194 955.7014 955.6908 955.6833 955.673 955.6451 955.6208 955.6021 955.5869 955.5715 955.5516 955.5206 955.486 955.4496 955.4091 955.3611 955.309 955.2563 955.2062 955.1616 955.1268 955.1064 955.1063 955.1301 955.1772 955.2437 955.3207 955.3984 955.4714 955.5427 955.6026 955.6409 955.751 955.9276 956.1594 956.4181 956.7183 957.0294 957.3358 957.667 958.0264 958.4357 958.799 958.9935 959.0123 958.9149 958.7672 958.6666 958.7135 958.9689 959.399 959.8506 960.4642 960.9916 961.0735 960.7661 960.3448 960.5275 961.0298 961.7465 962.3815 962.6963 962.8338 963.0275 963.4108 963.7405 963.8273 963.7292 963.8435 964.3264 965.066 965.8543 966.5079 966.9121 967.0004 966.8491 -9999 -9999 -9999 -9999 -9999 -9999 -9999 -9999 -9999 -9999 -9999 -9999 -9999 -9999 -9999 -9999 -9999 -9999 -9999 -9999 -9999 -9999 -9999 -9999 -9999 -9999 -9999 -9999 -9999 -9999 -9999 -9999 -9999
-9999 -9999 -9999 -9999 -9999 -9999 -9999 -9999 -9999 -9999 -9999 -9999 -9999 -9999 -9999 -9999 -9999 -9999 -9999 -9999 -9999 -9999 -9999 -9999 -9999 -9999 -9999 -9999 -9999 -9999 -9999 -9999 -9999 -9999 -9999 -9999 -9999 -9999 -9999 -9999 -9999 -9999 -9999 -9999 -9999 -9999 -9999 961.6874 961.3571 961.0361 960.8398 960.39 959.6733 958.8938 958.2412 957.7211 957.3162 957.0829 956.837 956.5979 956.3865 956.2122 956.0748 955.9701 955.8929 955.8398 955.8082 955.7931 955.7863 955.7819 955.7799 955.7766 955.7708 955.7728 955.7749 955.7711 955.7501 955.75 955.75 955.7501 955.7497 955.715 955.6968 955.6866 955.6801 955.6738 955.6626 955.6304 955.5996 955.5714 955.5391 955.4939 955.4436 955.3911 955.3365 955.2861 955.2467 955.2227 955.2194 955.241 955.2878 955.3569 955.439 955.5187 955.5874 955.667 955.746 955.756 955.9026 956.1147 956.3875 956.6926 957.0088 957.2729 957.5212 957.7743 958.1016 958.5055 958.8984 959.1436 959.2456 959.1426 958.974 958.9047 959.0786 959.5902 960.3593 961.1024 961.7054 962.0714 962.1159 961.9141 961.7049 961.8501 962.332 963.0872 963.7441 964.0264 964.1138 964.3452 964.8646 965.3187 965.3918 965.245 965.42 965.9901 966.7208 967.4264 967.9115 968.038 -9999 -9999 -9999 -9999 -9999 -9999 -9999 -9999 -9999 -9999 -9999 -9999 -9999 -9999 -9999 -9999 -9999 -9999 -9999 -9999 -9999 -9999 -9999 -9999 -9999 -9999 -9999 -9999 -9999 -9999 -9999 -9999 -9999 -9999 -9999
-9999 -9999 -9999 -9999 -9999 -9999 -9999 -9999 -9999 -9999 -9999 -9999 -9999 -9999 -9999 -9999 -9999 -9999 -9999 -9999 -9999 -9999 -9999 -9999 -9999 -9999 -9999 -9999 -9999 -9999 -9999 -9999 -9999 -9999 -9999 -9999 -9999 -9999 -9999 -9999 -9999 -9999 -9999 -9999 -9999 -9999 -9999 961.6596 961.3594 961.0225 960.9317 960.6559 959.9621 959.1349 958.4518 957.9117 957.5039 957.2407 956.9426 956.6731 956.4447 956.2605 956.1166 956.007 955.9257 955.8687 955.8329 955.8138 955.8043 955.7983 955.7938 955.7898 955.7872 955.79 955.7946 955.7958 955.7913 955.7944 955.7964 955.7931 955.7806 955.7502 955.7499 955.75 955.75 955.7501 955.7496 955.7103 955.6881 955.6731 955.6544 955.6101 955.5653 955.5181 955.4596 955.4048 955.363 955.3372 955.3312 955.3494 955.3932 955.4633 955.5518 955.632 955.6766 955.7497 955.83 955.9049 956.0728 956.3058 956.6002 956.9202 957.2413 957.4553 957.6424 957.8743 958.1204 958.4951 958.8951 959.1897 959.424 959.3616 959.2137 959.2441 959.6432 960.6019 961.4637 962.2142 962.7999 963.0634 963.0839 962.9805 962.9178 963.1103 963.6502 964.46 965.0981 965.2997 965.2592 965.4649 966.0367 966.5494 966.6135 966.5085 966.8582 967.5638 968.3066 968.8982 -9999 -9999 -9999 -9999 -9999 -9999 -9999 -9999 -9999 -9999 -9999 -9999 -9999 -9999 -9999 -9999 -9999 -9999 -9999 -9999 -9999 -9999 -9999 -9999 -9999 -9999 -9999 -9999 -9999 -9999 -9999 -9999 -9999 -9999 -9999 -9999 -9999
-9999 -9999 -9999 -9999 -9999 -9999 -9999 -9999 -9999 -9999 -9999 -9999 -9999 -9999 -9999 -9999 -9999 -9999 -9999 -9999 -9999 -9999 -9999 -9999 -9999 -9999 -9999 -9999 -9999 -9999 -9999 -9999 -9999 -9999 -9999 -9999 -9999 -9999 -9999 -9999 -9999 -9999 -9999 -9999 -9999 -9999 -9999 -9999 961.3879 961.0411 960.9738 960.8679 960.2279 959.3772 958.7233 958.1733 957.7076 957.3242 957.0417 956.7618 956.5212 956.3288 956.179 956.0642 955.9777 955.9155 955.8744 955.85 955.8358 955.8254 955.8165 955.8097 955.807 955.8107 955.8188 955.8278 955.8347 955.8414 955.8429 955.8362 955.8206 955.7999 955.7953 955.7954 955.7957 955.7928 955.7817 955.7502 955.7499 955.7501 955.7493 955.6995 955.6685 955.6376 955.5734 955.5178 955.4786 955.4551 955.4479 955.4603 955.4957 955.5608 955.6587 955.7474 955.7519 955.8244 955.9222 956.0415 956.2258 956.472 956.7698 957.067 957.3061 957.5862 957.7883 957.9705 958.1268 958.4731 958.8772 959.2734 959.5858 959.5864 959.4716 959.6918 960.4622 961.5369 962.4894 963.1949 963.764 964.0217 964.0505 963.9977 964.0353 964.344 965.0159 965.8318 966.3698 966.4769 966.3511 966.5446 967.0928 967.5786 967.6049 967.6552 968.2343 969.0634 -9999 -9999 -9999 -9999 -9999 -9999 -9999 -9999 -9999 -9999 -9999 -9999 -9999 -9999 -9999 -9999 -9999 -9999 -9999 -9999 -9999 -9999 -9999 -9999 -9999 -9999 -9999 -9999 -9999 -9999 -9999 -9999 -9999 -9999 -9999 -9999 -9999 -9999 -9999
-9999 -9999 -9999 -9999 -9999 -9999 -9999 -9999 -9999 -9999 -9999 -9999 -9999 -9999 -9999 -9999 -9999 -9999 -9999 -9999 -9999 -9999 -9999 -9999 -9999 -9999 -9999 -9999 -9999 -9999 -9999 -9999 -9999 -9999 -9999 -9999 -9999 -9999 -9999 -9999 -9999 -9999 -9999 -9999 -9999 -9999 -9999 -9999 961.6702 961.3109 961.0361 960.9281 960.5748 959.9637 959.2349 958.61 958.0566 957.5857 957.2281 956.889 956.627 956.426 956.2705 956.1498 956.057 955.9885 955.9404 955.9087 955.8868 955.8693 955.8538 955.842 955.8373 955.8417 955.8539 955.8699 955.8854 955.8969 955.8989 955.8906 955.8737 955.8549 955.8447 955.8405 955.8381 955.8336 955.8236 955.8083 955.807 955.8046 955.7911 955.7506 955.7501 955.7482 955.673 955.6281 955.6021 955.5873 955.5815 955.5864 955.6049 955.649 955.7491 955.8318 955.8705 955.9417 956.0455 956.1857 956.3722 956.6212 956.9186 957.2419 957.4526 957.7142 957.9264 958.0463 958.1078 958.2977 958.7249 959.2137 959.5944 959.7854 959.7053 960.1476 961.3076 962.4471 963.3486 964.045 964.5762 964.9252 965.0026 964.9734 965.1121 965.5796 966.3831 967.1013 -9999 -9999 -9999 -9999 -9999 -9999 -9999 -9999 -9999 -9999 -9999 -9999 -9999 -9999 -9999 -9999 -9999 -9999 -9999 -9999 -9999 -9999 -9999 -9999 -9999 -9999 -9999 -9999 -9999 -9999 -9999 -9999 -9999 -9999 -9999 -9999 -9999 -9999 -9999 -9999 -9999 -9999 -9999 -9999 -9999 -9999 -9999 -9999 -9999
-9999 -9999 -9999 -9999 -9999 -9999 -9999 -9999 -9999 -9999 -9999 -9999 -9999 -9999 -9999 -9999 -9999 -9999 -9999 -9999 -9999 -9999 -9999 -9999 -9999 -9999 -9999 -9999 -9999 -9999 -9999 -9999 -9999 -9999 -9999 -9999 -9999 -9999 -9999 -9999 -9999 -9999 -9999 -9999 -9999 -9999 -9999 -9999 -9999 961.6553 961.2821 961.0724 960.9611 960.6476 960.0126 959.2379 958.5377 957.9105 957.3798 957.0305 956.7683 956.5635 956.4011 956.272 956.1707 956.0938 956.037 955.9954 955.9628 955.9347 955.91 955.8915 955.8835 955.8883 955.9047 955.9275 955.9506 955.9674 955.9719 955.9633 955.9449 955.9238 955.908 955.8989 955.894 955.8897 955.8837 955.8776 955.8759 955.8712 955.858 955.8361 955.8291 955.8109 955.7527 955.7498 955.7501 955.7504 955.7504 955.7498 955.749 955.7562 955.8578 955.9546 956.0245 956.1068 956.2106 956.3503 956.5336 956.7708 957.041 957.3245 957.5802 957.7737 957.9791 958.1266 958.1276 958.1592 958.5048 959.0255 959.5155 959.92 960.0339 960.996 962.2018 963.2565 964.1173 964.8069 965.2953 965.756 -9999 -9999 -9999 -9999 -9999 -9999 -9999 -9999 -9999 -9999 -9999 -9999 -9999 -9999 -9999 -9999 -9999 -9999 -9999 -9999 -9999 -9999 -9999 -9999 -9999 -9999 -9999 -9999 -9999 -9999 -9999 -9999 -9999 -9999 -9999 -9999 -9999 -9999 -9999 -9999 -9999 -9999 -9999 -9999 -9999 -9999 -9999 -9999 -9999 -9999 -9999 -9999 -9999 -9999 -9999
-9999 -9999 -9999 -9999 -9999 -9999 -9999 -9999 -9999 -9999 -9999 -9999 -9999 -9999 -9999 -9999 -9999 -9999 -9999 -9999 -9999 -9999 -9999 -9999 -9999 -9999 -9999 -9999 -9999 -9999 -9999 -9999 -9999 -9999 -9999 -9999 -9999 -9999 -9999 -9999 -9999 -9999 -9999 -9999 -9999 -9999 -9999 -9999 -9999 -9999 961.3856 961.0249 960.9823 960.8737 960.6595 959.9954 959.1367 958.37 957.7399 957.2943 956.989 956.7594 956.5793 956.4359 956.3229 956.2357 956.1682 956.1139 956.0675 956.0256 955.9892 955.9626 955.9509 955.9564 955.9773 956.0073 956.038 956.0605 956.0686 956.0607 956.0408 956.0167 955.996 955.9825 955.9758 955.9724 955.9701 955.9689 955.9684 955.9642 955.9551 955.9444 955.9406 955.9329 955.9169 955.9286 955.9473 955.9646 955.9736 955.972 955.9679 955.98 956.053 956.1463 956.2327 956.325 956.4255 956.5519 956.738 956.9896 957.3089 957.6603 957.9783 958.0875 958.0794 958.1506 958.2087 958.2045 958.4148 958.894 959.4539 960.0306 960.894 961.9312 963.053 964.0563 964.878 965.4976 966.0062 -9999 -9999 -9999 -9999 -9999 -9999 -9999 -9999 -9999 -9999 -9999 -9999 -9999 -9999 -9999 -9999 -9999 -9999 -9999 -9999 -9999 -9999 -9999 -9999 -9999 -9999 -9999 -9999 -9999 -9999 -9999 -9999 -9999 -9999 -9999 -9999 -9999 -9999 -9999 -9999 -9999 -9999 -9999 -9999 -9999 -9999 -9999 -9999 -9999 -9999 -9999 -9999 -9999 -9999 -9999 -9999
-9999 -9999 -9999 -9999 -9999 -9999 -9999 -9999 -9999 -9999 -9999 -9999 -9999 -9999 -9999 -9999 -9999 -9999 -9999 -9999 -9999 -9999 -9999 -9999 -9999 -9999 -9999 -9999 -9999 -9999 -9999 -9999 -9999 -9999 -9999 -9999 -9999 -9999 -9999 -9999 -9999 -9999 -9999 -9999 -9999 -9999 -9999 -9999 -9999 -9999 -9999 961.0003 960.9378 960.838 960.8788 960.5811 959.7557 958.8613 958.1548 957.6417 957.2775 957.0073 956.8003 956.6382 956.5115 956.4135 956.334 956.2653 956.2023 956.1439 956.0941 956.0588 956.0435 956.0508 956.078 956.1165 956.1555 956.1841 956.1957 956.189 956.1683 956.1416 956.1172 956.1007 956.093 956.091 956.0919 956.0938 956.0942 956.0903 956.084 956.0815 956.0883 956.1012 956.1187 956.1505 956.1865 956.221 956.2455 956.2519 956.2483 956.2596 956.3112 956.3961 956.4937 956.5961 956.6839 956.7935 956.993 957.3019 957.7212 958.186 958.5819 958.7772 958.6121 958.3419 958.2963 958.3901 958.6256 959.149 959.9156 960.9562 961.9562 962.9862 964.0145 964.9405 965.6671 966.1933 -9999 -9999 -9999 -9999 -9999 -9999 -9999 -9999 -9999 -9999 -9999 -9999 -9999 -9999 -9999 -9999 -9999 -9999 -9999 -9999 -9999 -9999 -9999 -9999 -9999 -9999 -9999 -9999 -9999 -9999 -9999 -9999 -9999 -9999 -9999 -9999 -9999 -9999 -9999 -9999 -9999 -9999 -9999 -9999 -9999 -9999 -9999 -9999 -9999 -9999 -9999 -9999 -9999 -9999 -9999 -9999 -9999
-9999 -9999 -9999 -9999 -9999 -9999 -9999 -9999 -9999 -9999 -9999 -9999 -9999 -9999 -9999 -9999 -9999 -9999 -9999 -9999 -9999 -9999 -9999 -9999 -9999 -9999 -9999 -9999 -9999 -9999 -9999 -9999 -9999 -9999 -9999 -9999 -9999 -9999 -9999 -9999 -9999 -9999 -9999 -9999 -9999 -9999 -9999 -9999 -9999 -9999 -9999 960.9519 960.9995 960.9762 961.0003 960.7887 960.1346 959.2556 958.5527 958.005 957.5872 957.277 957.0433 956.8636 956.7258 956.621 956.5308 956.447 956.3655 956.2892 956.2255 956.1821 956.1647 956.1758 956.2115 956.2612 956.3103 956.3448 956.3589 956.3529 956.3317 956.3036 956.2773 956.2594 956.2516 956.2518 956.2556 956.2594 956.259 956.2523 956.245 956.2474 956.2661 956.3 956.3438 956.3979 956.4537 956.503 956.5483 956.5763 956.5732 956.5764 956.6099 956.6827 956.7898 956.9129 956.9735 957.0555 957.2861 957.6738 958.1698 958.6993 959.2008 959.4993 959.2723 958.5195 958.5648 958.7633 959.1793 959.8841 961.0131 962.1805 963.187 964.1585 965.0898 965.9402 966.5991 -9999 -9999 -9999 -9999 -9999 -9999 -9999 -9999 -9999 -9999 -9999 -9999 -9999 -9999 -9999 -9999 -9999 -9999 -9999 -9999 -9999 -9999 -9999 -9999 -9999 -9999 -9999 -9999 -9999 -9999 -9999 -9999 -9999 -9999 -9999 -9999 -9999 -9999 -9999 -9999 -9999 -9999 -9999 -9999 -9999 -9999 -9999 -9999 -9999 -9999 -9999 -9999 -9999 -9999 -9999 -9999 -9999 -9999
-9999 -9999 -9999 -9999 -9999 -9999 -9999 -9999 -9999 -9999 -9999 -9999 -9999 -9999 -9999 -9999 -9999 -9999 -9999 -9999 -9999 -9999 -9999 -9999 -9999 -9999 -9999 -9999 -9999 -9999 -9999 -9999 -9999 -9999 -9999 -9999 -9999 -9999 -9999 -9999 -9999 -9999 -9999 -9999 -9999 -9999 -9999 -9999 -9999 -9999 -9999 -9999 961.0011 961.0334 961.078 960.9809 960.541 959.7975 959.0068 958.3833 957.8892 957.5284 957.2759 957.0873 956.9462 956.846 956.7487 956.652 956.5521 956.4584 956.3828 956.3336 956.3167 956.3335 956.3801 956.4443 956.5066 956.5461 956.5601 956.5531 956.5317 956.504 956.4781 956.4608 956.4545 956.4571 956.4639 956.4688 956.4646 956.4482 956.434 956.4374 956.4667 956.5186 956.5818 956.6555 956.7324 956.7894 956.8526 956.9225 956.9278 956.9205 956.9333 956.9793 957.079 957.2443 957.2733 957.319 957.5948 958.0182 958.5342 959.0447 959.5015 959.7869 959.1306 958.6801 959.1013 959.5771 960.2154 961.177 962.3766 963.5432 964.5434 965.4485 966.2621 967.0305 -9999 -9999 -9999 -9999 -9999 -9999 -9999 -9999 -9999 -9999 -9999 -9999 -9999 -9999 -9999 -9999 -9999 -9999 -9999 -9999 -9999 -9999 -9999 -9999 -9999 -9999 -9999 -9999 -9999 -9999 -9999 -9999 -9999 -9999 -9999 -9999 -9999 -9999 -9999 -9999 -9999 -9999 -9999 -9999 -9999 -9999 -9999 -9999 -9999 -9999 -9999 -9999 -9999 -9999 -9999 -9999 -9999 -9999 -9999
-9999 -9999 -9999 -9999 -9999 -9999 -9999 -9999 -9999 -9999 -9999 -9999 -9999 -9999 -9999 -9999 -9999 -9999 -9999 -9999 -9999 -9999 -9999 -9999 -9999 -9999 -9999 -9999 -9999 -9999 -9999 -9999 -9999 -9999 -9999 -9999 -9999 -9999 -9999 -9999 -9999 -9999 -9999 -9999 -9999 -9999 -9999 -9999 -9999 -9999 -9999 -9999 -9999 961.0403 961.0751 961.0631 960.9026 960.3217 959.4926 958.7339 958.1393 957.7261 957.4542 957.2758 957.1427 957.0712 956.9704 956.8686 956.7527 956.6459 956.5639 956.5142 956.5004 956.5236 956.5811 956.6621 956.7422 956.7834 956.7938 956.7845 956.7639 956.7389 956.7167 956.7024 956.6985 956.7035 956.7128 956.7188 956.7083 956.6713 956.6423 956.6429 956.682 956.7509 956.8218 956.9069 957.0068 957.0549 957.1182 957.2548 957.2814 957.2851 957.2879 957.2863 957.3098 957.4434 957.5275 957.6526 957.913 958.3137 958.7733 959.1471 959.3307 959.2684 958.882 959.5972 960.3091 960.8641 961.7803 962.7615 963.8652 964.968 965.9411 966.766 967.4607 -9999 -9999 -9999 -9999 -9999 -9999 -9999 -9999 -9999 -9999 -9999 -9999 -9999 -9999 -9999 -9999 -9999 -9999 -9999 -9999 -9999 -9999 -9999 -9999 -9999 -9999 -9999 -9999 -9999 -9999 -9999 -9999 -9999 -9999 -9999 -9999 -9999 -9999 -9999 -9999 -9999 -9999 -9999 -9999 -9999 -9999 -9999 -9999 -9999 -9999 -9999 -9999 -9999 -9999 -9999 -9999 -9999 -9999 -9999 -9999
-9999 -9999 -9999 -9999 -9999 -9999 -9999 -9999 -9999 -9999 -9999 -9999 -9999 -9999 -9999 -9999 -9999 -9999 -9999 -9999 -9999 -9999 -9999 -9999 -9999 -9999 -9999 -9999 -9999 -9999 -9999 -9999 -9999 -9999 -9999 -9999 -9999 -9999 -9999 -9999 -9999 -9999 -9999 -9999 -9999 -9999 -9999 -9999 -9999 -9999 -9999 -9999 -9999 960.9997 961.0001 961.0003 961.0043 960.6584 959.7869 958.9021 958.2786 957.8516 957.5723 957.3942 957.2835 957.2715 957.1647 957.0803 956.9531 956.844 956.7678 956.7257 956.7173 956.7434 956.8051 956.9 957.0057 957.0404 957.0432 957.0334 957.0177 957.0007 956.9865 956.9778 956.9763 956.9816 956.9908 956.9974 956.9808 956.9056 956.8558 956.8523 956.9029 956.9964 957.0545 957.1301 957.2629 957.2789 957.3022 957.4745 957.5939 957.6682 957.7083 957.6942 957.6735 957.7143 957.7733 957.8991 958.1701 958.5506 958.9814 959.2563 959.2797 959.1909 959.2618 960.1064 961.2699 962.3086 963.3453 964.3075 965.3339 966.3891 967.3027 967.9998 -9999 -9999 -9999 -9999 -9999 -9999 -9999 -9999 -9999 -9999 -9999 -9999 -9999 -9999 -9999 -9999 -9999 -9999 -9999 -9999 -9999 -9999 -9999 -9999 -9999 -9999 -9999 -9999 -9999 -9999 -9999 -9999 -9999 -9999 -9999 -9999 -9999 -9999 -9999 -9999 -9999 -9999 -9999 -9999 -9999 -9999 -9999 -9999 -9999 -9999 -9999 -9999 -9999 -9999 -9999 -9999 -9999 -9999 -9999 -9999 -9999
-9999 -9999 -9999 -9999 -9999 -9999 -9999 -9999 -9999 -9999 -9999 -9999 -9999 -9999 -9999 -9999 -9999 -9999 -9999 -9999 -9999 -9999 -9999 -9999 -9999 -9999 -9999 -9999 -9999 -9999 -9999 -9999 -9999 -9999 -9999 -9999 -9999 -9999 -9999 -9999 -9999 -9999 -9999 -9999 -9999 -9999 -9999 -9999 -9999 -9999 -9999 -9999 -9999 -9999 960.9625 961.0114 960.996 960.6419 959.8679 958.9767 958.3696 957.9472 957.6696 957.499 957.4023 957.3594 957.2842 957.2694 957.136 957.0496 957.0001 956.9756 956.9728 956.9921 957.0381 957.1248 957.2642 957.2799 957.2792 957.2787 957.2791 957.2799 957.2803 957.2798 957.2795 957.2798 957.2805 957.2802 957.2596 957.1241 957.0623 957.0574 957.1161 957.2579 957.2827 957.3031 957.4268 957.4889 957.5659 957.7324 957.8981 958.0284 958.1168 958.119 958.062 958.0338 958.0408 958.1128 958.3418 958.7471 959.2316 959.5229 959.506 959.5287 959.9499 961.1045 962.4753 963.7249 964.8421 965.8123 966.7688 967.7527 968.5889 -9999 -9999 -9999 -9999 -9999 -9999 -9999 -9999 -9999 -9999 -9999 -9999 -9999 -9999 -9999 -9999 -9999 -9999 -9999 -9999 -9999 -9999 -9999 -9999 -9999 -9999 -9999 -9999 -9999 -9999 -9999 -9999 -9999 -9999 -9999 -9999 -9999 -9999 -9999 -9999 -9999 -9999 -9999 -9999 -9999 -9999 -9999 -9999 -9999 -9999 -9999 -9999 -9999 -9999 -9999 -9999 -9999 -9999 -9999 -9999 -9999 -9999
-9999 -9999 -9999 -9999 -9999 -9999 -9999 -9999 -9999 -9999 -9999 -9999 -9999 -9999 -9999 -9999 -9999 -9999 -9999 -9999 -9999 -9999 -9999 -9999 -9999 -9999 -9999 -9999 -9999 -9999 -9999 -9999 -9999 -9999 -9999 -9999 -9999 -9999 -9999 -9999 -9999 -9999 -9999 -9999 -9999 -9999 -9999 -9999 -9999 -9999 -9999 -9999 -9999 -9999 960.9459 961.0059 960.9712 960.6578 959.9906 959.1293 958.5098 958.0669 957.7806 957.6151 957.5284 957.4807 957.428 957.386 957.2918 957.2801 957.2814 957.2816 957.2805 957.279 957.2784 957.293 957.399 957.4447 957.4683 957.4961 957.5335 957.5718 957.5979 957.6049 957.6025 957.5922 957.5701 957.5303 957.4468 957.2998 957.2756 957.2773 957.3134 957.4823 957.5699 957.6111 957.6733 957.7219 957.8123 957.9774 958.1622 958.3246 958.4417 958.4822 958.4211 958.3651 958.3529 958.3828 958.5622 958.9799 959.5243 959.9784 960.0232 960.302 961.1685 962.439 963.8267 965.1352 966.3053 967.274 968.1176 -9999 -9999 -9999 -9999 -9999 -9999 -9999 -9999 -9999 -9999 -9999 -9999 -9999 -9999 -9999 -9999 -9999 -9999 -9999 -9999 -9999 -9999 -9999 -9999 -9999 -9999 -9999 -9999 -9999 -9999 -9999 -9999 -9999 -9999 -9999 -9999 -9999 -9999 -9999 -9999 -9999 -9999 -9999 -9999 -9999 -9999 -9999 -9999 -9999 -9999 -9999 -9999 -9999 -9999 -9999 -9999 -9999 -9999 -9999 -9999 -9999 -9999 -9999 -9999
-9999 -9999 -9999 -9999 -9999 -9999 -9999 -9999 -9999 -9999 -9999 -9999 -9999 -9999 -9999 -9999 -9999 -9999 -9999 -9999 -9999 -9999 -9999 -9999 -9999 -9999 -9999 -9999 -9999 -9999 -9999 -9999 -9999 -9999 -9999 -9999 -9999 -9999 -9999 -9999 -9999 -9999 -9999 -9999 -9999 -9999 -9999 -9999 -9999 -9999 -9999 -9999 -9999 -9999 960.9506 961.011 961.0035 960.788 960.2559 959.4482 958.7238 958.2274 957.9236 957.7648 957.6985 957.6693 957.6359 957.6031 957.5764 957.6107 957.6538 957.6712 957.6609 957.6288 957.5835 957.5543 957.5829 957.6139 957.6521 957.7135 957.801 957.8922 957.9511 957.9604 957.9552 957.9341 957.8912 957.8311 957.7284 957.6071 957.5696 957.5957 957.6831 957.838 957.9309 957.9509 957.9489 957.9503 958.0151 958.1671 958.3501 958.5234 958.6532 958.7335 958.7197 958.6892 958.7187 958.7795 958.9408 959.3752 959.9359 960.4575 960.8232 961.6647 962.7002 963.9206 965.2285 966.5179 967.6704 968.5869 -9999 -9999 -9999 -9999 -9999 -9999 -9999 -9999 -9999 -9999 -9999 -9999 -9999 -9999 -9999 -9999 -9999 -9999 -9999 -9999 -9999 -9999 -9999 -9999 -9999 -9999 -9999 -9999 -9999 -9999 -9999 -9999 -9999 -9999 -9999 -9999 -9999 -9999 -9999 -9999 -9999 -9999 -9999 -9999 -9999 -9999 -9999 -9999 -9999 -9999 -9999 -9999 -9999 -9999 -9999 -9999 -9999 -9999 -9999 -9999 -9999 -9999 -9999 -9999 -9999
-9999 -9999 -9999 -9999 -9999 -9999 -9999 -9999 -9999 -9999 -9999 -9999 -9999 -9999 -9999 -9999 -9999 -9999 -9999 -9999 -9999 -9999 -9999 -9999 -9999 -9999 -9999 -9999 -9999 -9999 -9999 -9999 -9999 -9999 -9999 -9999 -9999 -9999 -9999 -9999 -9999 -9999 -9999 -9999 -9999 -9999 -9999 -9999 -9999 -9999 -9999 -9999 -9999 -9999 -9999 961.0041 961.0363 960.938 960.4979 959.4857 958.8655 958.403 958.1047 957.963 957.9372 957.9507 957.937 957.9131 957.9272 958.0217 958.1154 958.1453 958.1189 958.0478 957.9402 957.8458 957.8051 957.8097 957.8561 957.9515 958.102 958.2664 958.3655 958.3539 958.3499 958.3221 958.2601 958.2094 958.098 957.9778 957.9333 957.9813 958.1133 958.2787 958.3397 958.2808 958.1958 958.1371 958.1575 958.2837 958.4525 958.6182 958.7648 958.8818 958.965 959.0408 959.1781 959.3729 959.6045 960.1383 960.7459 961.4602 962.2109 963.1613 964.2424 965.3696 966.5781 967.7689 968.8247 -9999 -9999 -9999 -9999 -9999 -9999 -9999 -9999 -9999 -9999 -9999 -9999 -9999 -9999 -9999 -9999 -9999 -9999 -9999 -9999 -9999 -9999 -9999 -9999 -9999 -9999 -9999 -9999 -9999 -9999 -9999 -9999 -9999 -9999 -9999 -9999 -9999 -9999 -9999 -9999 -9999 -9999 -9999 -9999 -9999 -9999 -9999 -9999 -9999 -9999 -9999 -9999 -9999 -9999 -9999 -9999 -9999 -9999 -9999 -9999 -9999 -9999 -9999 -9999 -9999 -9999
-9999 -9999 -9999 -9999 -9999 -9999 -9999 -9999 -9999 -9999 -9999 -9999 -9999 -9999 -9999 -9999 -9999 -9999 -9999 -9999 -9999 -9999 -9999 -9999 -9999 -9999 -9999 -9999 -9999 -9999 -9999 -9999 -9999 -9999 -9999 -9999 -9999 -9999 -9999 -9999 -9999 -9999 -9999 -9999 -9999 -9999 -9999 -9999 -9999 -9999 -9999 -9999 -9999 -9999 -9999 960.931 960.9663 960.9875 960.6644 959.7709 959.2043 958.6957 958.3636 958.2261 958.262 958.3513 958.3482 958.3004 958.3138 958.4973 958.6681 958.706 958.6602 958.5464 958.3441 958.1573 958.0521 958.0379 958.0955 958.2213 958.4512 958.7257 958.8807 958.7832 958.7993 958.7713 958.6707 958.6788 958.5447 958.4008 958.3513 958.4109 958.575 958.77 958.7669 958.5707 958.3853 958.2705 958.2516 958.3493 958.4994 958.6538 958.8131 959.0002 959.1848 959.4713 959.8442 960.2769 960.7916 961.3896 961.9421 962.6646 963.5299 964.5588 965.6381 966.6625 967.718 968.7432 -9999 -9999 -9999 -9999 -9999 -9999 -9999 -9999 -9999 -9999 -9999 -9999 -9999 -9999 -9999 -9999 -9999 -9999 -9999 -9999 -9999 -9999 -9999 -9999 -9999 -9999 -9999 -9999 -9999 -9999 -9999 -9999 -9999 -9999 -9999 -9999 -9999 -9999 -9999 -9999 -9999 -9999 -9999 -9999 -9999 -9999 -9999 -9999 -9999 -9999 -9999 -9999 -9999 -9999 -9999 -9999 -9999 -9999 -9999 -9999 -9999 -9999 -9999 -9999 -9999 -9999 -9999
-9999 -9999 -9999 -9999 -9999 -9999 -9999 -9999 -9999 -9999 -9999 -9999 -9999 -9999 -9999 -9999 -9999 -9999 -9999 -9999 -9999 -9999 -9999 -9999 -9999 -9999 -9999 -9999 -9999 -9999 -9999 -9999 -9999 -9999 -9999 -9999 -9999 -9999 -9999 -9999 -9999 -9999 -9999 -9999 -9999 -9999 -9999 -9999 -9999 -9999 -9999 -9999 -9999 -9999 -9999 960.7856 960.7013 960.7874 960.9623 960.4766 959.8187 959.1247 958.7197 958.559 958.6788 958.9014 958.879 958.7479 958.6815 959.0237 959.3276 959.3656 959.3079 959.166 958.8159 958.5012 958.3319 958.3195 958.3956 958.5245 958.8503 959.3067 959.5355 959.2369 959.319 959.2901 959.1019 959.2551 959.05 958.8781 958.8413 958.9088 959.0807 959.273 959.1368 958.7914 958.5327 958.3918 958.3663 958.4475 958.5912 958.7334 958.8927 959.1851 959.4288 959.9951 960.6849 961.4266 961.9983 962.5637 963.0474 963.7053 964.6275 965.7173 966.7332 967.6345 -9999 -9999 -9999 -9999 -9999 -9999 -9999 -9999 -9999 -9999 -9999 -9999 -9999 -9999 -9999 -9999 -9999 -9999 -9999 -9999 -9999 -9999 -9999 -9999 -9999 -9999 -9999 -9999 -9999 -9999 -9999 -9999 -9999 -9999 -9999 -9999 -9999 -9999 -9999 -9999 -9999 -9999 -9999 -9999 -9999 -9999 -9999 -9999 -9999 -9999 -9999 -9999 -9999 -9999 -9999 -9999 -9999 -9999 -9999 -9999 -9999 -9999 -9999 -9999 -9999 -9999 -9999 -9999 -9999
-9999 -9999 -9999 -9999 -9999 -9999 -9999 -9999 -9999 -9999 -9999 -9999 -9999 -9999 -9999 -9999 -9999 -9999 -9999 -9999 -9999 -9999 -9999 -9999 -9999 -9999 -9999 -9999 -9999 -9999 -9999 -9999 -9999 -9999 -9999 -9999 -9999 -9999 -9999 -9999 -9999 -9999 -9999 -9999 -9999 -9999 -9999 -9999 -9999 -9999 -9999 -9999 -9999 -9999 -9999 960.593 960.2766 960.2252 960.6593 960.9101 960.3848 959.5959 959.2028 958.9847 959.1747 959.6208 959.5192 959.2405 958.9506 959.5618 960.0935 960.1642 960.1262 959.9794 959.4107 958.9218 958.6865 958.7102 958.8152 958.8555 959.2831 960.1176 960.1337 959.9077 959.9028 959.7703 959.7002 959.8369 959.5359 959.4668 959.4694 959.5962 959.8231 959.8784 959.5427 958.9935 958.7301 958.6105 958.6332 958.731 958.897 959.0616 959.1696 959.5771 959.7827 960.627 961.6085 962.4738 963.0204 963.4507 963.9003 964.477 965.4332 966.5145 967.4149 -9999 -9999 -9999 -9999 -9999 -9999 -9999 -9999 -9999 -9999 -9999 -9999 -9999 -9999 -9999 -9999 -9999 -9999 -9999 -9999 -9999 -9999 -9999 -9999 -9999 -9999 -9999 -9999 -9999 -9999 -9999 -9999 -9999 -9999 -9999 -9999 -9999 -9999 -9999 -9999 -9999 -9999 -9999 -9999 -9999 -9999 -9999 -9999 -9999 -9999 -9999 -9999 -9999 -9999 -9999 -9999 -9999 -9999 -9999 -9999 -9999 -9999 -9999 -9999 -9999 -9999 -9999 -9999 -9999 -9999
-9999 -9999 -9999 -9999 -9999 -9999 -9999 -9999 -9999 -9999 -9999 -9999 -9999 -9999 -9999 -9999 -9999 -9999 -9999 -9999 -9999 -9999 -9999 -9999 -9999 -9999 -9999 -9999 -9999 -9999 -9999 -9999 -9999 -9999 -9999 -9999 -9999 -9999 -9999 -9999 -9999 -9999 -9999 -9999 -9999 -9999 -9999 -9999 -9999 -9999 -9999 -9999 -9999 -9999 -9999 -9999 960.0387 959.9303 960.2678 960.9407 960.8892 960.3862 959.9903 959.7109 959.7209 960.3602 960.2209 959.7231 959.2945 959.8806 960.7061 961.3275 961.3557 960.8979 960.2935 959.5128 959.213 959.3124 959.4449 959.2178 959.6354 960.2062 960.298 960.1422 960.0037 959.9158 959.8994 959.9672 959.8977 959.9496 959.9191 959.9862 960.0688 960.0753 959.8881 959.4075 959.1421 959.0867 959.2232 959.3752 959.6038 960 959.9719 960.1884 960.6086 961.4553 962.4653 963.2745 963.8027 964.1141 964.5291 965.0908 965.9352 -9999 -9999 -9999 -9999 -9999 -9999 -9999 -9999 -9999 -9999 -9999 -9999 -9999 -9999 -9999 -9999 -9999 -9999 -9999 -9999 -9999 -9999 -9999 -9999 -9999 -9999 -9999 -9999 -9999 -9999 -9999 -9999 -9999 -9999 -9999 -9999 -9999 -9999 -9999 -9999 -9999 -9999 -9999 -9999 -9999 -9999 -9999 -9999 -9999 -9999 -9999 -9999 -9999 -9999 -9999 -9999 -9999 -9999 -9999 -9999 -9999 -9999 -9999 -9999 -9999 -9999 -9999 -9999 -9999 -9999 -9999 -9999
-9999 -9999 -9999 -9999 -9999 -9999 -9999 -9999 -9999 -9999 -9999 -9999 -9999 -9999 -9999 -9999 -9999 -9999 -9999 -9999 -9999 -9999 -9999 -9999 -9999 -9999 -9999 -9999 -9999 -9999 -9999 -9999 -9999 -9999 -9999 -9999 -9999 -9999 -9999 -9999 -9999 -9999 -9999 -9999 -9999 -9999 -9999 -9999 -9999 -9999 -9999 -9999 -9999 -9999 -9999 -9999 960.1735 959.9185 960.1385 960.8888 961.0952 960.9655 960.7741 960.5327 960.5126 960.8361 960.8054 960.2377 959.6058 959.9398 960.5137 961.0812 961.3447 961.1761 960.8488 960.3245 960.1479 960.3053 960.1352 959.9117 960.0563 960.3107 960.3433 960.1906 960.0011 959.9015 959.8959 959.9601 960.0031 960.0759 960.0457 960.0001 960.0099 959.9976 959.9037 959.7216 959.7045 960.0023 960.3356 960.5054 960.6074 960.6437 960.5773 960.6725 961.0739 961.884 962.9474 963.7915 964.2809 964.6206 965.0287 -9999 -9999 -9999 -9999 -9999 -9999 -9999 -9999 -9999 -9999 -9999 -9999 -9999 -9999 -9999 -9999 -9999 -9999 -9999 -9999 -9999 -9999 -9999 -9999 -9999 -9999 -9999 -9999 -9999 -9999 -9999 -9999 -9999 -9999 -9999 -9999 -9999 -9999 -9999 -9999 -9999 -9999 -9999 -9999 -9999 -9999 -9999 -9999 -9999 -9999 -9999 -9999 -9999 -9999 -9999 -9999 -9999 -9999 -9999 -9999 -9999 -9999 -9999 -9999 -9999 -9999 -9999 -9999 -9999 -9999 -9999 -9999 -9999 -9999
-9999 -9999 -9999 -9999 -9999 -9999 -9999 -9999 -9999 -9999 -9999 -9999 -9999 -9999 -9999 -9999 -9999 -9999 -9999 -9999 -9999 -9999 -9999 -9999 -9999 -9999 -9999 -9999 -9999 -9999 -9999 -9999 -9999 -9999 -9999 -9999 -9999 -9999 -9999 -9999 -9999 -9999 -9999 -9999 -9999 -9999 -9999 -9999 -9999 -9999 -9999 -9999 -9999 -9999 -9999 -9999 -9999 960.219 960.2946 960.9116 961.1395 961.116 961.0042 960.9739 960.9443 961.0895 961.0817 960.7331 960.0648 959.9969 960.1163 960.5464 960.9486 961.0091 960.9445 960.7433 960.6621 960.6956 960.5635 960.4098 960.4136 960.4708 960.4151 960.2327 960.0062 959.8876 959.9 960.0168 960.1477 960.2029 960.139 960.0067 959.9476 959.9315 959.9438 960.0337 960.3009 960.7209 960.8525 960.9036 960.9399 960.9911 960.9915 961.0685 961.4483 962.3032 963.3315 964.0823 964.5805 964.9893 -9999 -9999 -9999 -9999 -9999 -9999 -9999 -9999 -9999 -9999 -9999 -9999 -9999 -9999 -9999 -9999 -9999 -9999 -9999 -9999 -9999 -9999 -9999 -9999 -9999 -9999 -9999 -9999 -9999 -9999 -9999 -9999 -9999 -9999 -9999 -9999 -9999 -9999 -9999 -9999 -9999 -9999 -9999 -9999 -9999 -9999 -9999 -9999 -9999 -9999 -9999 -9999 -9999 -9999 -9999 -9999 -9999 -9999 -9999 -9999 -9999 -9999 -9999 -9999 -9999 -9999 -9999 -9999 -9999 -9999 -9999 -9999 -9999 -9999 -9999
-9999 -9999 -9999 -9999 -9999 -9999 -9999 -9999 -9999 -9999 -9999 -9999 -9999 -9999 -9999 -9999 -9999 -9999 -9999 -9999 -9999 -9999 -9999 -9999 -9999 -9999 -9999 -9999 -9999 -9999 -9999 -9999 -9999 -9999 -9999 -9999 -9999 -9999 -9999 -9999 -9999 -9999 -9999 -9999 -9999 -9999 -9999 -9999 -9999 -9999 -9999 -9999 -9999 -9999 -9999 -9999 -9999 960.8804 960.889 961.0668 961.15 961.1056 961.0007 961.0043 961.0005 961.1014 961.1089 960.8422 960.1626 959.9354 959.9243 960.1127 960.5542 960.8102 960.9113 960.8957 960.8812 960.8788 960.8041 960.7153 960.6825 960.6592 960.5583 960.3757 -9999 -9999 960.0978 960.3553 960.457 960.4614 960.3839 960.2552 960.1359 960.1188 960.1818 960.4208 960.6615 960.8687 960.9376 960.9706 961.0359 961.24 961.4169 961.6342 962.1062 962.8765 963.7271 964.3412 964.8309 -9999 -9999 -9999 -9999 -9999 -9999 -9999 -9999 -9999 -9999 -9999 -9999 -9999 -9999 -9999 -9999 -9999 -9999 -9999 -9999 -9999 -9999 -9999 -9999 -9999 -9999 -9999 -9999 -9999 -9999 -9999 -9999 -9999 -9999 -9999 -9999 -9999 -9999 -9999 -9999 -9999 -9999 -9999 -9999 -9999 -9999 -9999 -9999 -9999 -9999 -9999 -9999 -9999 -9999 -9999 -9999 -9999 -9999 -9999 -9999 -9999 -9999 -9999 -9999 -9999 -9999 -9999 -9999 -9999 -9999 -9999 -9999 -9999 -9999 -9999 -9999
-9999 -9999 -9999 -9999 -9999 -9999 -9999 -9999 -9999 -9999 -9999 -9999 -9999 -9999 -9999 -9999 -9999 -9999 -9999 -9999 -9999 -9999 -9999 -9999 -9999 -9999 -9999 -9999 -9999 -9999 -9999 -9999 -9999 -9999 -9999 -9999 -9999 -9999 -9999 -9999 -9999 -9999 -9999 -9999 -9999 -9999 -9999 -9999 -9999 -9999 -9999 -9999 -9999 -9999 -9999 -9999 -9999 -9999 -9999 961.1672 961.1523 961.0861 961.0001 960.974 960.9684 961.0013 960.9962 960.7511 960.2863 960.01 -9999 -9999 960.4567 960.7257 960.8805 960.9392 960.9594 960.9607 960.9294 960.8913 960.873 960.8484 960.7497 -9999 -9999 -9999 -9999 -9999 -9999 -9999 -9999 960.7198 960.8152 960.849 960.8811 960.9531 960.9821 960.9414 960.9841 961.1227 961.3748 961.6338 961.9374 962.2382 962.7662 963.3373 963.9683 -9999 -9999 -9999 -9999 -9999 -9999 -9999 -9999 -9999 -9999 -9999 -9999 -9999 -9999 -9999 -9999 -9999 -9999 -9999 -9999 -9999 -9999 -9999 -9999 -9999 -9999 -9999 -9999 -9999 -9999 -9999 -9999 -9999 -9999 -9999 -9999 -9999 -9999 -9999 -9999 -9999 -9999 -9999 -9999 -9999 -9999 -9999 -9999 -9999 -9999 -9999 -9999 -9999 -9999 -9999 -9999 -9999 -9999 -9999 -9999 -9999 -9999 -9999 -9999 -9999 -9999 -9999 -9999 -9999 -9999 -9999 -9999 -9999 -9999 -9999 -9999 -9999 -9999
-9999 -9999 -9999 -9999 -9999 -9999 -9999 -9999 -9999 -9999 -9999 -9999 -9999 -9999 -9999 -9999 -9999 -9999 -9999 -9999 -9999 -9999 -9999 -9999 -9999 -9999 -9999 -9999 -9999 -9999 -9999 -9999 -9999 -9999 -9999 -9999 -9999 -9999 -9999 -9999 -9999 -9999 -9999 -9999 -9999 -9999 -9999 -9999 -9999 -9999 -9999 -9999 -9999 -9999 -9999 -9999 -9999 -9999 -9999 -9999 -9999 -9999 -9999 -9999 -9999 -9999 -9999 -9999 -9999 -9999 -9999 -9999 -9999 -9999 960.8938 960.9585 960.9849 960.9919 960.9847 960.9782 960.9846 960.9982 -9999 -9999 -9999 -9999 -9999 -9999 -9999 -9999 -9999 -9999 961.1479 961.2466 961.2979 961.3054 961.2297 961.0887 961.2422 961.6802 -9999 -9999 -9999 -9999 -9999 -9999 -9999 -9999 -9999 -9999 -9999 -9999 -9999 -9999 -9999 -9999 -9999 -9999 -9999 -9999 -9999 -9999 -9999 -9999 -9999 -9999 -9999 -9999 -9999 -9999 -9999 -9999 -9999 -9999 -9999 -9999 -9999 -9999 -9999 -9999 -9999 -9999 -9999 -9999 -9999 -9999 -9999 -9999 -9999 -9999 -9999 -9999 -9999 -9999 -9999 -9999 -9999 -9999 -9999 -9999 -9999 -9999 -9999 -9999 -9999 -9999 -9999 -9999 -9999 -9999 -9999 -9999 -9999 -9999 -9999 -9999 -9999 -9999 -9999 -9999 -9999 -9999 -9999 -9999 -9999
-9999 -9999 -9999 -9999 -9999 -9999 -9999 -9999 -9999 -9999 -9999 -9999 -9999 -9999 -9999 -9999 -9999 -9999 -9999 -9999 -9999 -9999 -9999 -9999 -9999 -9999 -9999 -9999 -9999 -9999 -9999 -9999 -9999 -9999 -9999 -9999 -9999 -9999 -9999 -9999 -9999 -9999 -9999 -9999 -9999 -9999 -9999 -9999 -9999 -9999 -9999 -9999 -9999 -9999 -9999 -9999 -9999 -9999 -9999 -9999 -9999 -9999 -9999 -9999 -9999 -9999 -9999 -9999 -9999 -9999 -9999 -9999 -9999 -9999 -9999 -9999 -9999 -9999 -9999 -9999 -9999 -9999 -9999 -9999 -9999 -9999 -9999 -9999 -9999 -9999 -9999 -9999 -9999 -9999 961.5848 961.6353 961.6343 -9999 -9999 -9999 -9999 -9999 -9999 -9999 -9999 -9999 -9999 -9999 -9999 -9999 -9999 -9999 -9999 -9999 -9999 -9999 -9999 -9999 -9999 -9999 -9999 -9999 -9999 -9999 -9999 -9999 -9999 -9999 -9999 -9999 -9999 -9999 -9999 -9999 -9999 -9999 -9999 -9999 -9999 -9999 -9999 -9999 -9999 -9999 -9999 -9999 -9999 -9999 -9999 -9999 -9999 -9999 -9999 -9999 -9999 -9999 -9999 -9999 -9999 -9999 -9999 -9999 -9999 -9999 -9999 -9999 -9999 -9999 -9999 -9999 -9999 -9999 -9999 -9999 -9999 -9999 -9999 -9999 -9999 -9999 -9999 -9999 -9999 -9999 -9999
-9999 -9999 -9999 -9999 -9999 -9999 -9999 -9999 -9999 -9999 -9999 -9999 -9999 -9999 -9999 -9999 -9999 -9999 -9999 -9999 -9999 -9999 -9999 -9999 -9999 -9999 -9999 -9999 -9999 -9999 -9999 -9999 -9999 -9999 -9999 -9999 -9999 -9999 -9999 -9999 -9999 -9999 -9999 -9999 -9999 -9999 -9999 -9999 -9999 -9999 -9999 -9999 -9999 -9999 -9999 -9999 -9999 -9999 -9999 -9999 -9999 -9999 -9999 -9999 -9999 -9999 -9999 -9999 -9999 -9999 -9999 -9999 -9999 -9999 -9999 -9999 -9999 -9999 -9999 -9999 -9999 -9999 -9999 -9999 -9999 -9999 -9999 -9999 -9999 -9999 -9999 -9999 -9999 -9999 -9999 -9999 -9999 -9999 -9999 -9999 -9999 -9999 -9999 -9999 -9999 -9999 -9999 -9999 -9999 -9999 -9999 -9999 -9999 -9999 -9999 -9999 -9999 -9999 -9999 -9999 -9999 -9999 -9999 -9999 -9999 -9999 -9999 -9999 -9999 -9999 -9999 -9999 -9999 -9999 -9999 -9999 -9999 -9999 -9999 -9999 -9999 -9999 -9999 -9999 -9999 -9999 -9999 -9999 -9999 -9999 -9999 -9999 -9999 -9999 -9999 -9999 -9999 -9999 -9999 -9999 -9999 -9999 -9999 -9999 -9999 -9999 -9999 -9999 -9999 -9999 -9999 -9999 -9999 -9999 -9999 -9999 -9999 -9999 -9999 -9999 -9999 -9999 -9999 -9999 -9999
-9999 -9999 -9999 -9999 -9999 -9999 -9999 -9999 -9999 -9999 -9999 -9999 -9999 -9999 -9999 -9999 -9999 -9999 -9999 -9999 -9999 -9999 -9999 -9999 -9999 -9999 -9999 -9999 -9999 -9999 -9999 -9999 -9999 -9999 -9999 -9999 -9999 -9999 -9999 -9999 -9999 -9999 -9999 -9999 -9999 -9999 -9999 -9999 -9999 -9999 -9999 -9999 -9999 -9999 -9999 -9999 -9999 -9999 -9999 -9999 -9999 -9999 -9999 -9999 -9999 -9999 -9999 -9999 -9999 -9999 -9999 -9999 -9999 -9999 -9999 -9999 -9999 -9999 -9999 -9999 -9999 -9999 -9999 -9999 -9999 -9999 -9999 -9999 -9999 -9999 -9999 -9999 -9999 -9999 -9999 -9999 -9999 -9999 -9999 -9999 -9999 -9999 -9999 -9999 -9999 -9999 -9999 -9999 -9999 -9999 -9999 -9999 -9999 -9999 -9999 -9999 -9999 -9999 -9999 -9999 -9999 -9999 -9999 -9999 -9999 -9999 -9999 -9999 -9999 -9999 -9999 -9999 -9999 -9999 -9999 -9999 -9999 -9999 -9999 -9999 -9999 -9999 -9999 -9999 -9999 -9999 -9999 -9999 -9999 -9999 -9999 -9999 -9999 -9999 -9999 -9999 -9999 -9999 -9999 -9999 -9999 -9999 -9999 -9999 -9999 -9999 -9999 -9999 -9999 -9999 -9999 -9999 -9999 -9999 -9999 -9999 -9999 -9999 -9999 -9999 -9999 -9999 -9999 -9999 -9999
-9999 -9999 -9999 -9999 -9999 -9999 -9999 -9999 -9999 -9999 -9999 -9999 -9999 -9999 -9999 -9999 -9999 -9999 -9999 -9999 -9999 -9999 -9999 -9999 -9999 -9999 -9999 -9999 -9999 -9999 -9999 -9999 -9999 -9999 -9999 -9999 -9999 -9999 -9999 -9999 -9999 -9999 -9999 -9999 -9999 -9999 -9999 -9999 -9999 -9999 -9999 -9999 -9999 -9999 -9999 -9999 -9999 -9999 -9999 -9999 -9999 -9999 -9999 -9999 -9999 -9999 -9999 -9999 -9999 -9999 -9999 -9999 -9999 -9999 -9999 -9999 -9999 -9999 -9999 -9999 -9999 -9999 -9999 -9999 -9999 -9999 -9999 -9999 -9999 -9999 -9999 -9999 -9999 -9999 -9999 -9999 -9999 -9999 -9999 -9999 -9999 -9999 -9999 -9999 -9999 -9999 -9999 -9999 -9999 -9999 -9999 -9999 -9999 -9999 -9999 -9999 -9999 -9999 -9999 -9999 -9999 -9999 -9999 -9999 -9999 -9999 -9999 -9999 -9999 -9999 -9999 -9999 -9999 -9999 -9999 -9999 -9999 -9999 -9999 -9999 -9999 -9999 -9999 -9999 -9999 -9999 -9999 -9999 -9999 -9999 -9999 -9999 -9999 -9999 -9999 -9999 -9999 -9999 -9999 -9999 -9999 -9999 -9999 -9999 -9999 -9999 -9999 -9999 -9999 -9999 -9999 -9999 -9999 -9999 -9999 -9999 -9999 -9999 -9999 -9999 -9999 -9999 -9999 -9999 -9999
-9999 -9999 -9999 -9999 -9999 -9999 -9999 -9999 -9999 -9999 -9999 -9999 -9999 -9999 -9999 -9999 -9999 -9999 -9999 -9999 -9999 -9999 -9999 -9999 -9999 -9999 -9999 -9999 -9999 -9999 -9999 -9999 -9999 -9999 -9999 -9999 -9999 -9999 -9999 -9999 -9999 -9999 -9999 -9999 -9999 -9999 -9999 -9999 -9999 -9999 -9999 -9999 -9999 -9999 -9999 -9999 -9999 -9999 -9999 -9999 -9999 -9999 -9999 -9999 -9999 -9999 -9999 -9999 -9999 -9999 -9999 -9999 -9999 -9999 -9999 -9999 -9999 -9999 -9999 -9999 -9999 -9999 -9999 -9999 -9999 -9999 -9999 -9999 -9999 -9999 -9999 -9999 -9999 -9999 -9999 -9999 -9999 -9999 -9999 -9999 -9999 -9999 -9999 -9999 -9999 -9999 -9999 -9999 -9999 -9999 -9999 -9999 -9999 -9999 -9999 -9999 -9999 -9999 -9999 -9999 -9999 -9999 -9999 -9999 -9999 -9999 -9999 -9999 -9999 -9999 -9999 -9999 -9999 -9999 -9999 -9999 -9999 -9999 -9999 -9999 -9999 -9999 -9999 -9999 -9999 -9999 -9999 -9999 -9999 -9999 -9999 -9999 -9999 -9999 -9999 -9999 -9999 -9999 -9999 -9999 -9999 -9999 -9999 -9999 -9999 -9999 -9999 -9999 -9999 -9999 -9999 -9999 -9999 -9999 -9999 -9999 -9999 -9999 -9999 -9999 -9999 -9999 -9999 -9999 -9999
-9999 -9999 -9999 -9999 -9999 -9999 -9999 -9999 -9999 -9999 -9999 -9999 -9999 -9999 -9999 -9999 -9999 -9999 -9999 -9999 -9999 -9999 -9999 -9999 -9999 -9999 -9999 -9999 -9999 -9999 -9999 -9999 -9999 -9999 -9999 -9999 -9999 -9999 -9999 -9999 -9999 -9999 -9999 -9999 -9999 -9999 -9999 -9999 -9999 -9999 -9999 -9999 -9999 -9999 -9999 -9999 -9999 -9999 -9999 -9999 -9999 -9999 -9999 -9999 -9999 -9999 -9999 -9999 -9999 -9999 -9999 -9999 -9999 -9999 -9999 -9999 -9999 -9999 -9999 -9999 -9999 -9999 -9999 -9999 -9999 -9999 -9999 -9999 -9999 -9999 -9999 -9999 -9999 -9999 -9999 -9999 -9999 -9999 -9999 -9999 -9999 -9999 -9999 -9999 -9999 -9999 -9999 -9999 -9999 -9999 -9999 -9999 -9999 -9999 -9999 -9999 -9999 -9999 -9999 -9999 -9999 -9999 -9999 -9999 -9999 -9999 -9999 -9999 -9999 -9999 -9999 -9999 -9999 -9999 -9999 -9999 -9999 -9999 -9999 -9999 -9999 -9999 -9999 -9999 -9999 -9999 -9999 -9999 -9999 -9999 -9999 -9999 -9999 -9999 -9999 -9999 -9999 -9999 -9999 -9999 -9999 -9999 -9999 -9999 -9999 -9999 -9999 -9999 -9999 -9999 -9999 -9999 -9999 -9999 -9999 -9999 -9999 -9999 -9999 -9999 -9999 -9999 -9999 -9999 -9999
-9999 -9999 -9999 -9999 -9999 -9999 -9999 -9999 -9999 -9999 -9999 -9999 -9999 -9999 -9999 -9999 -9999 -9999 -9999 -9999 -9999 -9999 -9999 -9999 -9999 -9999 -9999 -9999 -9999 -9999 -9999 -9999 -9999 -9999 -9999 -9999 -9999 -9999 -9999 -9999 -9999 -9999 -9999 -9999 -9999 -9999 -9999 -9999 -9999 -9999 -9999 -9999 -9999 -9999 -9999 -9999 -9999 -9999 -9999 -9999 -9999 -9999 -9999 -9999 -9999 -9999 -9999 -9999 -9999 -9999 -9999 -9999 -9999 -9999 -9999 -9999 -9999 -9999 -9999 -9999 -9999 -9999 -9999 -9999 -9999 -9999 -9999 -9999 -9999 -9999 -9999 -9999 -9999 -9999 -9999 -9999 -9999 -9999 -9999 -9999 -9999 -9999 -9999 -9999 -9999 -9999 -9999 -9999 -9999 -9999 -9999 -9999 -9999 -9999 -9999 -9999 -9999 -9999 -9999 -9999 -9999 -9999 -9999 -9999 -9999 -9999 -9999 -9999 -9999 -9999 -9999 -9999 -9999 -9999 -9999 -9999 -9999 -9999 -9999 -9999 -9999 -9999 -9999 -9999 -9999 -9999 -9999 -9999 -9999 -9999 -9999 -9999 -9999 -9999 -9999 -9999 -9999 -9999 -9999 -9999 -9999 -9999 -9999 -9999 -9999 -9999 -9999 -9999 -9999 -9999 -9999 -9999 -9999 -9999 -9999 -9999 -9999 -9999 -9999 -9999 -9999 -9999 -9999 -9999 -9999
-9999 -9999 -9999 -9999 -9999 -9999 -9999 -9999 -9999 -9999 -9999 -9999 -9999 -9999 -9999 -9999 -9999 -9999 -9999 -9999 -9999 -9999 -9999 -9999 -9999 -9999 -9999 -9999 -9999 -9999 -9999 -9999 -9999 -9999 -9999 -9999 -9999 -9999 -9999 -9999 -9999 -9999 -9999 -9999 -9999 -9999 -9999 -9999 -9999 -9999 -9999 -9999 -9999 -9999 -9999 -9999 -9999 -9999 -9999 -9999 -9999 -9999 -9999 -9999 -9999 -9999 -9999 -9999 -9999 -9999 -9999 -9999 -9999 -9999 -9999 -9999 -9999 -9999 -9999 -9999 -9999 -9999 -9999 -9999 -9999 -9999 -9999 -9999 -9999 -9999 -9999 -9999 -9999 -9999 -9999 -9999 -9999 -9999 -9999 -9999 -9999 -9999 -9999 -9999 -9999 -9999 -9999 -9999 -9999 -9999 -9999 -9999 -9999 -9999 -9999 -9999 -9999 -9999 -9999 -9999 -9999 -9999 -9999 -9999 -9999 -9999 -9999 -9999 -9999 -9999 -9999 -9999 -9999 -9999 -9999 -9999 -9999 -9999 -9999 -9999 -9999 -9999 -9999 -9999 -9999 -9999 -9999 -9999 -9999 -9999 -9999 -9999 -9999 -9999 -9999 -9999 -9999 -9999 -9999 -9999 -9999 -9999 -9999 -9999 -9999 -9999 -9999 -9999 -9999 -9999 -9999 -9999 -9999 -9999 -9999 -9999 -9999 -9999 -9999 -9999 -9999 -9999 -9999 -9999 -9999
