ncols         184
nrows         64
xllcorner     696850
yllcorner     6023900
cellsize      50
NODATA_value  -9999
-9999 -9999 -9999 -9999 -9999 -9999 -9999 -9999 -9999 -9999 -9999 -9999 -9999 -9999 -9999 601.9529 596.155 590.446 585.079 580.606 577.5253 575.0773 573.4025 572.1168 571.0765 570.4547 570.2343 569.8456 569.7748 570.1477 570.6368 571.347 571.9672 572.3512 572.3737 572.007 571.4762 571.0048 570.4203 569.7593 569.0112 568.188 567.3458 566.5629 565.8692 565.1657 564.3723 563.6533 563.0577 562.3424 561.5366 560.7482 559.5757 558.2278 556.9069 555.7464 554.6757 553.3549 551.7048 549.6782 547.5881 545.5189 543.6836 543.0867 543.9545 546.2543 549.0073 551.6553 554.1019 556.442 558.7845 560.7968 562.2776 563.4457 564.5399 565.847 567.4636 569.32 570.7959 572.1597 573.3802 574.068 574.3124 574.3455 574.3096 574.2644 574.2365 574.208 574.1295 573.9283 573.5631 573.4269 573.22 572.752 572.3441 571.9015 571.5963 571.2261 570.6422 570.2309 569.8199 569.6652 569.5546 569.2072 568.5839 567.7001 566.8865 566.3314 565.1873 564.1726 563.3007 562.9517 563.0368 563.3021 563.686 564.1713 564.3835 564.4714 564.4584 564.3456 564.1603 563.8544 563.8619 564.0673 564.2566 564.3098 564.2181 564.1426 564.1735 564.3801 565.1262 565.781 566.4882 567.2454 567.8018 568.3429 568.8975 569.4242 569.9155 570.3976 570.9073 571.4838 572.1234 572.7431 573.4218 574.1694 575.1146 576.4402 578.2726 580.6952 583.2256 585.4298 587.031 588.036 -9999 -9999 -9999 -9999 -9999 -9999 -9999 -9999 -9999 -9999 -9999 -9999 -9999 -9999 -9999 -9999 -9999 -9999 -9999 -9999 -9999 -9999 -9999 -9999 -9999 -9999 -9999 -9999 -9999 -9999
-9999 -9999 -9999 -9999 -9999 -9999 -9999 -9999 -9999 -9999 -9999 -9999 -9999 -9999 -9999 604.5615 598.8503 593.1795 587.7657 583.0126 579.4396 576.6696 574.6373 573.1501 571.9873 571.2324 570.835 570.517 570.6475 571.2335 571.9101 572.5762 573.213 573.447 573.3525 572.8342 572.2312 571.6569 571.0466 570.402 569.7133 568.9354 568.1382 567.3787 566.7141 566.1311 565.4117 564.7023 564.2308 563.5714 562.8976 562.1298 561.1149 559.88 558.6749 557.7274 556.7151 555.584 554.201 552.3524 550.2746 547.9731 545.2413 543.31 543.1589 544.8572 547.4097 550.059 552.604 555.0579 557.3913 559.382 561.0233 562.3276 563.5369 564.8932 566.694 568.6207 570.4756 572.2976 573.5233 574.2692 574.6155 574.7328 574.7365 574.6963 574.6545 574.6161 574.5468 574.411 574.2223 574.1108 573.9167 573.5425 573.312 572.8975 572.6617 572.3909 571.837 571.1829 570.5082 570.205 569.8083 569.1804 568.2769 567.2074 566.0656 564.6808 563.3901 562.3544 561.5806 561.4281 561.7944 562.2686 562.7654 563.1559 563.299 563.3128 563.2772 563.2175 563.1402 563.1017 563.361 563.843 564.3054 564.4032 564.3106 564.207 564.1707 564.3046 564.7253 565.3295 566.0303 566.7509 567.3494 567.8811 568.4515 568.9872 569.4731 569.9344 570.4047 570.9178 571.4801 572.0554 572.6819 573.3912 574.205 575.312 576.884 579.0767 581.608 583.9724 585.814 587.0422 587.8343 -9999 -9999 -9999 -9999 -9999 -9999 -9999 -9999 -9999 -9999 -9999 -9999 -9999 -9999 -9999 -9999 -9999 -9999 -9999 -9999 -9999 -9999 -9999 -9999 -9999 -9999 -9999 -9999 -9999
-9999 -9999 -9999 -9999 -9999 -9999 -9999 -9999 -9999 -9999 -9999 -9999 -9999 -9999 -9999 607.8928 602.6083 597.1624 591.8335 586.8631 582.6849 579.2907 576.64 574.6671 573.231 572.2443 571.7411 571.5684 571.8824 572.4406 573.1454 573.6489 574.1826 574.3704 574.1654 573.5622 572.8909 572.2439 571.5879 570.9281 570.2841 569.5472 568.8167 568.1191 567.5045 567.1454 566.5472 566.0511 565.5837 564.8392 564.2243 563.4421 562.5475 561.4365 560.3882 559.5135 558.5964 557.7036 556.4537 554.8145 552.7208 550.1767 547.0786 544.3694 543.177 543.6954 545.8154 548.5464 551.1867 553.5469 555.7313 557.7561 559.5037 561.0215 562.3386 563.693 565.2694 567.1917 569.1901 571.1005 572.7466 573.7803 574.3386 574.6374 574.754 574.7668 574.7534 574.7488 574.7405 574.7075 574.6552 574.5963 574.4507 574.1877 573.9153 573.5533 573.4772 573.3596 572.7794 571.8617 570.9324 570.3144 569.4464 568.4481 567.2225 565.7947 564.2783 562.7401 561.4939 560.5817 559.9663 559.975 560.5396 561.1636 561.8024 562.1773 562.2811 562.2606 562.2099 562.1651 562.1426 562.2429 562.7279 563.4869 564.2382 564.4407 564.4232 564.3102 564.1991 564.1726 564.3455 564.8771 565.5338 566.2302 566.8735 567.4412 568.0626 568.6001 569.0735 569.52 569.9691 570.4069 570.8984 571.421 571.9935 572.6459 573.4121 574.363 575.7053 577.5267 579.8884 582.3448 584.3015 585.6262 586.5143 -9999 -9999 -9999 -9999 -9999 -9999 -9999 -9999 -9999 -9999 -9999 -9999 -9999 -9999 -9999 -9999 -9999 -9999 -9999 -9999 -9999 -9999 -9999 -9999 -9999 -9999 -9999 -9999 -9999
-9999 -9999 -9999 -9999 -9999 -9999 -9999 -9999 -9999 -9999 -9999 -9999 -9999 -9999 -9999 611.163 606.5748 601.5919 596.444 591.389 586.689 582.6173 579.2417 576.6567 574.7528 573.4461 572.744 572.6223 573.0753 573.5172 574.1754 574.7673 575.2469 575.3967 575.1385 574.4755 573.5916 572.8101 572.0436 571.2789 570.5171 569.9642 569.3736 568.7914 568.2848 567.9036 567.472 567.272 566.9858 566.2891 565.5485 564.6893 563.9432 562.9484 562.0059 561.2247 560.3611 559.5287 558.408 556.925 554.749 552.5452 549.5065 546.3054 543.9694 543.344 544.5649 547.1291 549.7182 552.0383 554.1058 556.0119 557.851 559.5255 561.0209 562.4019 563.8678 565.5276 567.4966 569.4245 571.155 572.6317 573.5052 574.1213 574.4471 574.5665 574.6311 574.6989 574.7788 574.8535 574.9114 574.9231 574.8353 574.6548 574.4329 574.2057 574.1049 573.9037 573.2985 572.0533 570.7189 569.6797 568.5808 567.1669 565.6097 563.9774 562.3921 561.1637 559.8108 558.7978 558.382 558.4657 558.9109 559.783 560.7209 561.1538 561.2653 561.2681 561.2592 561.2579 561.2689 561.3788 561.9973 562.9218 563.8107 564.3174 564.5021 564.4563 564.3059 564.1816 564.3026 564.5896 565.0928 565.7519 566.4845 567.2383 567.7784 568.2529 568.6868 569.1169 569.5428 569.9585 570.3988 570.8677 571.3881 572.0011 572.7392 573.6224 574.7991 576.3345 578.2722 580.6267 582.6221 583.8555 584.82 586.1279 -9999 -9999 -9999 -9999 -9999 -9999 -9999 -9999 -9999 -9999 -9999 -9999 -9999 -9999 -9999 -9999 -9999 -9999 -9999 -9999 -9999 -9999 -9999 -9999 -9999 -9999 -9999 -9999
-9999 -9999 -9999 -9999 -9999 -9999 -9999 -9999 -9999 -9999 -9999 -9999 -9999 -9999 -9999 614 610.2393 605.8448 601.049 596.0632 591.1344 586.4898 582.412 579.1937 576.7382 574.9696 573.8538 573.5462 573.8591 574.4263 575.2145 575.9757 576.5146 576.6451 576.3242 575.5382 574.4093 573.3613 572.4597 571.646 570.9167 570.3564 569.807 569.3052 568.8745 568.5153 568.1927 567.9773 567.7172 567.2821 566.6614 565.8441 565.0322 564.2309 563.6596 562.8579 561.928 561.1743 560.1565 558.8812 557.1845 555.0479 552.1782 548.7574 545.5842 543.4766 543.5081 545.7011 548.3499 550.6569 552.6732 554.5324 556.2259 557.9959 559.5845 561.0633 562.528 564.121 565.8597 567.6293 569.3546 570.9077 572.2122 573.2633 573.8853 574.1519 574.3522 574.5338 574.7185 574.8918 575.0358 575.1068 575.0581 574.8998 574.6907 574.4757 574.2903 573.9117 573.121 571.6761 570.1552 568.6965 567.2159 565.6522 563.9026 562.155 560.7262 559.5132 558.3505 557.6067 557.4111 557.6591 557.929 558.5118 559.3564 559.9312 560.2102 560.3397 560.4398 560.5685 560.7195 560.9054 561.4203 562.3907 563.4233 564.2723 564.6346 564.697 564.4381 564.2261 564.1708 564.3079 564.6654 565.2338 565.9397 566.6886 567.3287 567.8351 568.2696 568.7164 569.1418 569.55 569.9603 570.3932 570.8669 571.4631 572.246 573.2095 574.1775 575.4729 577.1309 579.0302 580.7725 582.0021 583.1399 584.5255 -9999 -9999 -9999 -9999 -9999 -9999 -9999 -9999 -9999 -9999 -9999 -9999 -9999 -9999 -9999 -9999 -9999 -9999 -9999 -9999 -9999 -9999 -9999 -9999 -9999 -9999 -9999 -9999
-9999 -9999 -9999 -9999 -9999 -9999 -9999 -9999 -9999 -9999 -9999 -9999 -9999 -9999 -9999 -9999 613.3602 609.5653 605.2042 600.4895 595.663 590.8994 586.4165 582.4464 579.3673 577.0952 575.5602 574.8156 574.779 575.3425 576.3728 577.4498 578.1304 578.196 577.6887 576.5503 575.0482 573.6298 572.703 571.8681 571.115 570.4331 569.98 569.5664 569.1893 568.8452 568.5313 568.2377 567.9453 567.621 567.3053 566.5467 565.7004 564.8933 564.5886 564.1338 563.3947 562.6287 561.6035 560.4929 559.141 557.309 554.6775 551.2434 547.5418 544.3878 543.0259 544.5748 547.0989 549.4425 551.5276 553.303 554.9493 556.5728 558.1341 559.6427 561.1468 562.6829 564.2883 565.9207 567.561 569.1738 570.6691 572.0256 573.0578 573.5157 573.9414 574.2871 574.5871 574.8563 575.0579 575.1541 575.098 574.8892 574.5936 574.2664 573.9423 573.2886 572.1364 570.5904 568.9563 567.2975 565.6193 563.921 562.2441 560.6951 559.3477 558.2013 557.2217 556.6529 556.5795 556.8419 557.1249 557.6212 558.2847 558.8988 559.2972 559.5514 559.7695 560.0354 560.2911 560.6098 561.1756 561.9404 562.9679 564.0743 564.7549 565.2889 565.4097 564.7598 564.3107 564.1565 564.3079 564.7192 565.3262 566.0269 566.7134 567.3315 567.8443 568.3134 568.7474 569.16 569.559 569.9606 570.3982 570.9484 571.7281 572.6444 573.5994 574.771 576.1903 577.7389 579.2656 580.4451 581.6733 583.1168 -9999 -9999 -9999 -9999 -9999 -9999 -9999 -9999 -9999 -9999 -9999 -9999 -9999 -9999 -9999 -9999 -9999 -9999 -9999 -9999 -9999 -9999 -9999 -9999 -9999 -9999 -9999 -9999
-9999 -9999 -9999 -9999 -9999 -9999 -9999 -9999 -9999 -9999 -9999 -9999 -9999 -9999 -9999 -9999 615.8636 612.5673 608.6076 604.2868 599.8394 595.3252 590.818 586.5139 582.7209 579.8442 577.7274 576.3602 575.7866 576.2145 577.6385 579.4509 580.3151 580.2586 579.2416 577.5414 575.5424 573.7646 572.7029 571.8691 571.1167 570.424 569.9585 569.5338 569.1451 568.8062 568.5153 568.1967 567.7853 567.4169 567.3414 566.7009 566.033 565.4539 565.1479 564.8069 564.3185 563.7283 562.7224 561.6136 560.47 558.8403 556.5654 553.2131 549.2009 545.3371 542.8154 543.3251 545.6581 548.1494 550.2926 552.0959 553.683 555.2077 556.7043 558.217 559.7523 561.2723 562.7803 564.3145 565.8822 567.4737 569.0579 570.5412 571.7964 572.6747 573.4005 573.9463 574.3804 574.7372 574.9821 575.07 574.9598 574.635 574.1548 573.6007 573.1152 572.0957 570.7 569.1254 567.4306 565.6836 563.9158 562.2441 560.9351 559.457 558.1842 557.1372 556.3141 555.842 555.8285 556.0833 556.4528 556.9568 557.5716 558.1783 558.629 558.9828 559.295 559.6849 559.9805 560.2998 560.7411 561.3306 562.2487 563.4297 564.5763 565.861 566.7949 566.0629 564.918 564.2988 564.1205 564.3077 564.7471 565.3519 566.0268 566.6998 567.3283 567.8621 568.333 568.7659 569.1775 569.5808 570.003 570.4956 571.2778 572.198 573.2224 574.2522 575.5777 577.0664 578.4473 579.6021 580.6713 582.1078 584.4222 -9999 -9999 -9999 -9999 -9999 -9999 -9999 -9999 -9999 -9999 -9999 -9999 -9999 -9999 -9999 -9999 -9999 -9999 -9999 -9999 -9999 -9999 -9999 -9999 -9999 -9999 -9999
-9999 -9999 -9999 -9999 -9999 -9999 -9999 -9999 -9999 -9999 -9999 -9999 -9999 -9999 -9999 -9999 -9999 -9999 611.1592 607.2631 603.361 599.3919 595.2134 590.9215 586.8065 583.202 580.3543 578.1783 576.7462 576.7039 578.5018 580.552 581.1066 581.0961 580.4165 578.1307 575.7386 573.8085 572.6841 571.8517 571.1124 570.4151 569.8406 569.2958 568.7866 568.3647 568.0809 567.8116 567.4579 567.1088 566.849 566.1938 565.6479 565.2549 565.0126 564.7755 564.5005 564.1959 563.1649 562.1525 561.0505 559.4662 557.3758 554.1273 550.1311 546.079 543.0753 542.4896 544.4893 546.9014 549.1326 550.9768 552.5276 553.9965 555.4032 556.9105 558.4896 559.9948 561.393 562.8123 564.3 565.85 567.4327 568.9969 570.4196 571.6093 572.6104 573.4205 574.0359 574.4902 574.7653 574.826 574.6415 574.1729 573.4959 572.7282 571.8407 570.5923 569.1178 567.4895 565.807 564.0468 562.2385 560.748 559.49 558.2369 557.1515 556.2583 555.6022 555.1822 555.1782 555.4935 555.9677 556.5143 557.1123 557.6995 558.2293 558.7012 559.1176 559.4978 559.7922 560.0786 560.4153 560.8607 561.5401 562.7352 564.163 565.7415 567.0196 567.0997 566.0525 564.8477 564.2338 564.0956 564.3061 564.7518 565.3458 566.0071 566.684 567.3258 567.8693 568.3512 568.802 569.2497 569.7358 570.3229 570.9274 571.7484 572.6865 573.7052 575.0916 576.6347 578.0784 579.2858 580.3903 581.1992 583.2795 585.8136 588.1036 -9999 -9999 -9999 -9999 -9999 -9999 -9999 -9999 -9999 -9999 -9999 -9999 -9999 -9999 -9999 -9999 -9999 -9999 -9999 -9999 -9999 -9999 -9999 -9999 -9999
-9999 -9999 -9999 -9999 -9999 -9999 -9999 -9999 -9999 -9999 -9999 -9999 -9999 -9999 -9999 -9999 -9999 -9999 -9999 609.4704 606.1782 602.8817 599.2537 595.2311 591.0431 587.0245 583.4252 580.2884 577.7815 576.535 577.4313 579.1096 579.7722 580.0313 579.6945 577.4785 575.2899 573.6787 572.6537 571.8514 571.1275 570.4094 569.6517 568.8737 568.1287 567.4498 567.0158 566.6541 566.1928 565.6502 564.9528 564.4492 564.1523 563.9675 563.8524 563.7588 563.6483 563.4348 562.5511 561.5759 560.5103 559.3206 557.0243 553.7587 549.9093 546.0486 543.132 542.2333 543.5913 545.9162 548.1895 550.0228 551.6342 553.0018 554.3452 555.8047 557.5068 558.9302 560.2014 561.4465 562.8112 564.2896 565.8429 567.4229 568.9596 570.3662 571.5979 572.635 573.4568 574.0407 574.3105 574.3406 574.0876 573.4642 572.6171 571.6085 570.4156 569.015 567.4705 565.8658 564.2124 562.5401 560.9136 559.4713 558.276 557.2227 556.3273 555.6164 555.1495 554.8745 554.8872 555.1777 555.7048 556.2805 556.9053 557.5551 558.1934 558.7167 559.1484 559.4944 559.7575 560.0017 560.2834 560.6624 561.2298 562.1058 563.4405 565.0006 566.671 567.3915 567.0718 565.9507 564.7783 564.2021 564.0754 564.3044 564.7471 565.3258 565.9841 566.6705 567.3242 567.8818 568.3831 568.8652 569.3632 569.9246 570.51 571.3335 572.2664 573.3556 574.7177 576.4009 577.8834 578.8382 579.5661 580.3771 582.2066 584.5693 586.8853 588.7599 -9999 -9999 -9999 -9999 -9999 -9999 -9999 -9999 -9999 -9999 -9999 -9999 -9999 -9999 -9999 -9999 -9999 -9999 -9999 -9999 -9999 -9999 -9999 -9999
-9999 -9999 -9999 -9999 -9999 -9999 -9999 -9999 -9999 -9999 -9999 -9999 -9999 -9999 -9999 -9999 -9999 -9999 -9999 -9999 608.463 605.7831 602.6999 599.0453 594.9232 590.6111 586.3548 582.3306 578.8082 576.29 575.3469 576.2338 576.9867 577.5189 577.4721 575.9253 574.3038 573.3948 572.5595 571.8062 571.0984 570.3698 569.4007 568.3102 567.2634 566.1289 565.0815 564.2263 563.3368 562.5671 561.8749 561.5032 561.4399 561.3901 561.371 561.3336 561.2242 560.9118 560.298 559.503 558.61 557.2969 555.0092 551.9176 548.4231 545.0706 542.7203 541.9542 543.1161 545.1671 547.1812 548.9811 550.5531 551.9813 553.3433 554.8448 556.4178 557.8829 559.1129 560.2559 561.4465 562.8037 564.2908 565.8538 567.4288 568.9515 570.3524 571.566 572.5629 573.261 573.4789 573.4575 573.1597 572.3661 571.3799 570.1892 568.8022 567.3292 565.8085 564.2516 562.6857 561.1346 559.6406 558.3664 557.3381 556.4674 555.7521 555.1959 554.8967 554.7584 554.842 555.1517 555.6223 556.1974 556.8425 557.5286 558.209 558.7936 559.2411 559.5684 559.8094 560.03 560.2883 560.6105 561.0061 561.4878 562.6193 564.0581 565.6137 567.1384 567.4965 567.0203 565.8832 564.7429 564.1747 564.0751 564.3048 564.7305 565.3005 565.9658 566.6649 567.3306 567.8989 568.4045 568.9082 569.5328 570.2762 570.9943 571.8652 572.8842 574.1454 575.9516 577.4405 578.0877 578.6237 579.5037 581.1961 583.4879 585.7363 587.6619 589.223 590.5987 -9999 -9999 -9999 -9999 -9999 -9999 -9999 -9999 -9999 -9999 -9999 -9999 -9999 -9999 -9999 -9999 -9999 -9999 -9999 -9999 -9999 -9999
-9999 -9999 -9999 -9999 -9999 -9999 -9999 -9999 -9999 -9999 -9999 -9999 -9999 -9999 -9999 -9999 -9999 -9999 -9999 -9999 -9999 608.1576 605.4871 602.1171 598.1016 593.6047 588.8128 584.0151 579.7479 576.3788 574.3909 574.0327 574.4272 575.0292 575.051 574.1654 573.3537 572.7972 572.2541 571.6004 570.9127 570.2088 569.0666 567.7153 566.3859 564.8211 563.197 561.5736 560.0659 558.907 558.0763 557.6605 557.5045 557.3937 557.3519 557.3224 557.2072 556.9423 556.5064 555.897 555.1446 553.966 551.9399 549.225 546.2867 543.6905 542.0508 541.6486 542.7883 544.3854 546.2145 547.9443 549.4688 550.901 552.2422 553.6895 555.2233 556.7009 558.0338 559.1628 560.2538 561.4354 562.8013 564.3009 565.8624 567.4043 568.8575 570.1432 571.228 571.8852 572.0966 571.9956 571.5554 570.6685 569.6416 568.3384 566.9008 565.4982 564.1222 562.7014 561.2844 559.9072 558.6034 557.594 556.6773 555.9482 555.4478 555.1429 554.8734 554.7771 554.8787 555.1561 555.6201 556.2012 556.8523 557.5414 558.2186 558.8298 559.2856 559.604 559.8452 560.0695 560.3337 560.658 561.0093 561.2603 561.9814 563.2184 564.7842 566.5176 567.4106 567.5353 566.9875 565.8505 564.7257 564.1859 564.0952 564.3052 564.7123 565.2844 565.965 566.684 567.3434 567.8594 568.2925 568.9463 569.7406 570.5364 571.4435 572.4015 573.5443 575.0371 576.4586 577.3887 577.5905 578.3919 580.019 582.2628 584.5314 586.5797 588.4136 590.0366 591.3627 -9999 -9999 -9999 -9999 -9999 -9999 -9999 -9999 -9999 -9999 -9999 -9999 -9999 -9999 -9999 -9999 -9999 -9999 -9999 -9999 -9999
-9999 -9999 -9999 -9999 -9999 -9999 -9999 -9999 -9999 -9999 -9999 -9999 -9999 -9999 -9999 -9999 -9999 -9999 -9999 -9999 -9999 -9999 607.7123 604.5262 600.574 595.9381 590.7855 585.497 580.726 576.7665 574.0433 573.0809 573.1089 573.4369 573.4756 573.0646 572.5944 572.1904 571.7654 571.2233 570.522 569.8032 568.7482 567.4252 565.8851 563.9996 561.71 559.3426 557.2207 555.4305 554.1323 553.4373 553.1324 552.9489 552.8914 552.8436 552.6971 552.4081 552.0648 551.63 551.0022 550.0764 548.5188 546.3566 544.1321 542.3968 541.3787 541.3145 542.4711 543.68 545.456 547.0958 548.6465 549.9601 551.2339 552.585 554.1058 555.5637 556.9478 558.1271 559.1719 560.2375 561.4246 562.803 564.2959 565.7908 567.1819 568.3495 569.5282 570.0764 570.187 570.0054 569.4819 568.469 567.3271 566.1124 564.7017 563.5875 562.498 561.3383 560.1639 559.0199 558.0363 557.0664 556.2023 555.5271 555.1552 554.9422 554.8163 554.8298 554.968 555.1801 555.6771 556.2706 556.9097 557.5758 558.2182 558.8019 559.2365 559.5447 559.7966 560.0314 560.2902 560.5723 560.7777 560.9203 561.373 562.4152 563.9152 565.3585 566.7747 567.5453 567.5767 566.9819 565.8496 564.7596 564.2655 564.1362 564.3061 564.7014 565.2858 566.009 566.7279 567.2446 567.5223 568.2263 569.1477 570.1594 571.0131 571.8561 572.7856 573.8784 575.119 576.0859 576.4393 577.086 578.6134 580.8127 583.326 585.7796 587.9937 589.8463 591.1737 592.2892 -9999 -9999 -9999 -9999 -9999 -9999 -9999 -9999 -9999 -9999 -9999 -9999 -9999 -9999 -9999 -9999 -9999 -9999 -9999 -9999
-9999 -9999 -9999 -9999 -9999 -9999 -9999 -9999 -9999 -9999 -9999 -9999 -9999 -9999 -9999 -9999 -9999 -9999 -9999 -9999 -9999 -9999 -9999 606.4943 602.5332 597.7542 592.3418 586.7492 581.7036 577.4227 574.2339 572.8897 572.6738 572.7621 572.7454 572.4777 572.088 571.6899 571.3022 570.8584 570.2963 569.4721 568.4849 567.2442 565.542 563.4234 560.6933 557.7454 554.9431 552.4649 550.5906 549.5195 549.0563 548.8453 548.7904 548.7529 548.5476 548.1339 547.8024 547.493 547.0181 546.3935 545.3799 543.8631 542.4387 541.3569 540.8096 540.9496 541.9222 543.1336 544.6899 546.2518 547.7352 549.0536 550.3319 551.7576 553.1941 554.6795 555.9764 557.1194 558.1563 559.1559 560.2184 561.4191 562.7936 564.2103 565.51 566.5803 567.5081 567.856 567.8127 567.4877 566.9197 565.9453 564.8301 563.8008 562.7634 561.9128 561.2677 560.3942 559.3985 558.3717 557.5487 556.6967 555.8774 555.1997 554.886 554.7489 554.7454 554.8854 555.1507 555.3997 555.8458 556.4042 557.0076 557.627 558.2155 558.7197 559.0969 559.3823 559.6493 559.8937 560.1249 560.3307 560.4658 560.5807 560.9282 561.7202 563.1835 564.3832 565.6378 567.1169 567.7138 567.6447 567.0292 565.9595 564.9692 564.3777 564.1711 564.3062 564.6895 565.3297 566.0569 566.4519 566.7789 567.4126 568.3384 569.3759 570.3338 571.1703 571.97 572.8134 573.7521 574.6609 575.2594 575.9679 577.2069 579.2197 581.8442 584.7266 587.402 589.5695 591.0013 592.224 -9999 -9999 -9999 -9999 -9999 -9999 -9999 -9999 -9999 -9999 -9999 -9999 -9999 -9999 -9999 -9999 -9999 -9999 -9999 -9999
-9999 -9999 -9999 -9999 -9999 -9999 -9999 -9999 -9999 -9999 -9999 -9999 -9999 -9999 -9999 -9999 -9999 -9999 -9999 -9999 -9999 -9999 -9999 608.1465 604.1329 599.1829 593.5439 587.7544 582.5994 578.2074 574.6476 573.0865 572.8273 572.7631 572.6808 572.3646 571.8552 571.296 570.8392 570.3805 569.7789 568.967 568.0691 566.8816 565.0464 562.7205 559.7677 556.4898 553.2775 550.2953 547.9625 546.4732 545.9014 545.5938 545.5278 545.5419 545.3147 544.8045 544.5007 544.3328 543.9801 543.558 542.9537 542.0542 541.1914 540.5891 540.3926 540.6872 541.5338 542.7196 544.0544 545.5887 546.9529 548.233 549.4441 550.8134 552.1899 553.5961 554.9553 556.1086 557.1531 558.1579 559.1487 560.2264 561.4323 562.7328 563.9596 564.8886 565.7465 565.9281 565.6724 565.0778 564.4828 563.6981 562.823 562.2327 562.5602 561.7338 560.9058 560.0087 559.0925 558.1982 557.3748 556.5602 555.7878 555.1589 554.7632 554.5906 554.6368 554.8494 555.162 555.5239 555.9834 556.52 557.0924 557.673 558.2125 558.6068 558.9063 559.1635 559.4536 559.707 559.9149 560.077 560.1853 560.2841 560.5754 561.2174 562.2326 563.3778 564.7402 566.4182 567.3997 567.827 567.7368 567.1977 566.3616 565.1426 564.4407 564.2241 564.3197 564.6888 565.2879 565.5831 565.9196 566.5219 567.3836 568.3994 569.394 570.2905 571.0649 571.769 572.603 573.4749 574.2383 575.0215 576.1171 577.7789 580.0262 583.0735 586.1389 588.6959 590.35 591.6272 593.0314 -9999 -9999 -9999 -9999 -9999 -9999 -9999 -9999 -9999 -9999 -9999 -9999 -9999 -9999 -9999 -9999 -9999 -9999 -9999
-9999 -9999 -9999 -9999 -9999 -9999 -9999 -9999 -9999 -9999 -9999 -9999 -9999 -9999 -9999 -9999 -9999 -9999 -9999 -9999 -9999 -9999 -9999 609.5847 605.4567 600.3409 594.4877 588.4768 583.1815 578.8362 574.9141 573.2407 573.0173 573.1575 573.1466 572.7157 571.913 570.9961 570.375 569.8247 569.2213 568.4671 567.4997 566.1635 564.3326 561.8309 559.0593 555.8511 552.5237 549.1499 546.3123 544.5266 544.22 543.7266 543.615 543.7523 543.5517 543.0389 542.8126 542.8064 542.3213 541.8489 541.3621 540.8047 540.3061 540.015 540.0326 540.4024 541.1436 542.1548 543.3321 544.8096 546.2488 547.6022 548.8569 550.0305 551.2863 552.56 553.9168 555.1287 556.2013 557.2357 558.2174 559.2219 560.3279 561.4484 562.5556 563.4739 564.1519 564.23 563.894 563.2038 562.6472 562.0925 561.496 561.4045 561.7128 561.4404 560.7218 559.861 559.0192 558.1904 557.342 556.5212 555.769 555.1586 554.6529 554.4064 554.4813 554.7712 555.1617 555.5931 556.0662 556.5737 557.1061 557.6476 558.1727 558.4576 558.7186 558.9999 559.2798 559.5245 559.7078 559.8353 559.9048 559.988 560.2007 560.6434 561.3419 562.3286 563.6339 565.1263 566.5521 567.4441 567.8604 567.7913 567.2953 566.4338 565.2341 564.7395 564.683 564.3181 564.3804 564.7046 565.0276 565.5903 566.3519 567.2972 568.2527 569.1127 569.9732 570.6021 571.4609 572.3808 573.2844 574.1335 575.1135 576.4893 578.4535 581.0984 584.1904 586.9844 588.9945 590.2321 591.752 -9999 -9999 -9999 -9999 -9999 -9999 -9999 -9999 -9999 -9999 -9999 -9999 -9999 -9999 -9999 -9999 -9999 -9999 -9999
-9999 -9999 -9999 -9999 -9999 -9999 -9999 -9999 -9999 -9999 -9999 -9999 -9999 -9999 -9999 -9999 -9999 -9999 -9999 -9999 -9999 -9999 -9999 610.6416 606.425 601.194 595.1189 588.7586 582.972 578.185 574.5518 573.2998 573.553 574.066 574.1823 573.5857 572.3413 570.8201 569.9473 569.2758 568.6509 567.943 567.0005 565.5107 563.8599 561.4455 558.6525 555.5392 552.2031 548.6592 545.5114 543.5786 542.7595 542.2413 542.0809 542.1362 541.9611 541.6272 541.4683 541.428 541.0619 540.6639 540.2924 539.9427 539.6816 539.5778 539.7195 540.1095 540.793 541.7126 542.8619 544.2297 545.8039 547.0957 548.2476 549.3351 550.5771 551.8762 553.1001 554.2961 555.389 556.4734 557.4713 558.4333 559.4894 560.4891 561.4018 562.2134 562.6951 562.6649 562.3043 561.675 561.3553 561.1658 560.8529 560.8079 560.9641 560.8676 560.4359 559.7543 559.001 558.2092 557.3142 556.4346 555.6496 555.0629 554.4236 554.1038 554.2567 554.6669 555.1623 555.6306 556.0891 556.5526 557.0164 557.4607 557.8638 558.2273 558.5682 558.8611 559.1261 559.3435 559.5068 559.6088 559.6569 559.707 559.8499 560.139 560.6163 561.3533 562.4655 563.7925 565.1398 566.5242 567.419 567.8601 567.8395 567.4374 566.6956 565.8609 565.8708 564.8408 564.3246 564.2975 564.347 564.7769 565.3184 566.1109 566.9719 567.6791 568.5253 569.2666 570.2069 571.1599 572.0941 573.0835 574.0134 575.1462 576.8082 579.0667 581.7643 584.6796 587.1383 588.8737 590.2432 591.6968 -9999 -9999 -9999 -9999 -9999 -9999 -9999 -9999 -9999 -9999 -9999 -9999 -9999 -9999 -9999 -9999 -9999 -9999
-9999 -9999 -9999 -9999 -9999 -9999 -9999 -9999 -9999 -9999 -9999 -9999 -9999 -9999 -9999 -9999 -9999 -9999 -9999 -9999 -9999 -9999 -9999 611.4318 607.1989 601.8799 595.5955 588.8871 582.5543 577.4406 574.0829 573.5262 574.5668 575.4839 575.7145 574.9445 573.2775 571.16 569.778 568.7954 568.0378 567.2887 566.3063 565.005 563.4478 561.1577 558.4306 555.37 552.0222 548.4844 545.2135 543.0522 541.8292 541.1262 540.8037 540.6874 540.5319 540.3412 540.2433 540.1899 539.9915 539.7408 539.5046 539.314 539.2119 539.2467 539.4207 539.8423 540.4819 541.3181 542.3568 543.605 545.3029 546.574 547.7075 548.8557 549.9711 551.1861 552.382 553.6385 554.8532 555.8786 556.895 557.9549 558.8763 559.7407 560.5135 561.1347 561.3774 561.3704 561.2075 560.8467 560.6329 560.5208 560.3989 560.2942 560.3242 560.2733 560.0131 559.5347 558.8962 558.1898 557.2124 556.2098 555.2874 554.5834 553.9604 553.6713 553.9529 554.5217 555.156 555.6201 556.0425 556.4601 556.8796 557.3013 557.7332 558.1846 558.4672 558.7261 558.9618 559.1598 559.3001 559.3973 559.4427 559.4707 559.5505 559.7328 560.0475 560.5662 561.3808 562.5104 563.7678 565.0967 566.5081 567.433 567.9935 568.21 568.0989 567.5862 566.7625 565.4395 564.5961 564.17 564.0504 564.2665 564.4231 564.9902 565.5933 566.2932 567.097 567.7798 568.7298 569.7115 570.6002 571.6263 572.626 573.6195 575.0782 577.0364 579.4291 582.0935 584.8284 586.8656 588.3326 589.8701 -9999 -9999 -9999 -9999 -9999 -9999 -9999 -9999 -9999 -9999 -9999 -9999 -9999 -9999 -9999 -9999 -9999 -9999
-9999 -9999 -9999 -9999 -9999 -9999 -9999 -9999 -9999 -9999 -9999 -9999 -9999 -9999 -9999 -9999 -9999 -9999 -9999 -9999 -9999 -9999 -9999 612.0765 607.9921 602.6454 596.1675 589.1166 582.3768 576.9876 573.835 574.3525 576.0299 577.0189 577.2366 576.3181 574.319 571.675 569.6853 568.2892 567.335 566.4687 565.459 564.2408 562.6653 560.6331 558.1481 555.2059 551.8979 548.3904 545.0869 542.7565 541.2828 540.3742 539.8553 539.5692 539.3711 539.2294 539.1733 539.1558 539.0857 538.9774 538.8732 538.8086 538.8194 538.9365 539.1741 539.582 540.1943 540.9966 541.9745 543.1458 544.5846 545.8826 547.0209 548.1826 549.3245 550.5822 551.8461 552.9659 554.0741 555.1209 556.1332 557.1708 558.1467 558.9889 559.6721 560.1437 560.3889 560.4591 560.3939 560.2196 560.0903 560.0004 559.902 559.7866 559.762 559.7172 559.5421 559.2163 558.6969 558.0071 556.9261 555.8778 554.9756 554.0793 553.4231 553.1982 553.5713 554.2689 555.0552 555.5067 555.8876 556.2766 556.6675 557.0671 557.4788 557.8889 558.2127 558.5077 558.7535 558.9425 559.0715 559.1828 559.244 559.2702 559.3133 559.4234 559.6248 559.9679 560.5468 561.3921 562.4952 563.7479 565.1092 566.5466 567.6408 568.5435 569.2512 569.489 568.6337 567.1595 565.6436 564.6765 564.1633 563.9956 563.9817 564.2529 564.4836 565.0828 565.7927 566.4817 567.2619 568.0009 568.9514 569.9791 570.8558 571.9363 573.3522 575.1252 577.268 579.6886 582.4232 584.5164 586.1413 587.8175 589.716 -9999 -9999 -9999 -9999 -9999 -9999 -9999 -9999 -9999 -9999 -9999 -9999 -9999 -9999 -9999 -9999 -9999
-9999 -9999 -9999 -9999 -9999 -9999 -9999 -9999 -9999 -9999 -9999 -9999 -9999 -9999 -9999 -9999 -9999 -9999 -9999 -9999 -9999 -9999 -9999 -9999 608.8124 603.5016 596.9082 589.6238 582.6223 577.0297 574.0416 575.2234 577.0604 577.515 577.5209 576.6617 574.3362 571.7703 569.3357 567.648 566.5949 565.6571 564.5952 563.3793 561.7632 559.8239 557.6752 554.8726 551.6066 548.1513 544.9013 542.5609 540.9937 539.947 539.2509 538.8018 538.516 538.3544 538.3032 538.318 538.3328 538.3346 538.3383 538.374 538.4692 538.6501 538.9363 539.3682 539.9675 540.7386 541.6713 542.7755 543.9034 545.1053 546.2833 547.5482 548.8172 549.9653 551.1204 552.1693 553.201 554.2344 555.2261 556.2373 557.2437 558.1579 558.8462 559.2474 559.5482 559.6966 559.7101 559.6358 559.5595 559.4851 559.3846 559.2702 559.2477 559.1829 558.9901 558.718 558.1526 557.2983 556.2323 555.2067 554.2883 553.418 552.8064 552.6828 553.0802 553.7823 554.5557 555.1428 555.5763 555.9938 556.3761 556.7484 557.1329 557.5106 557.8681 558.2099 558.4993 558.7053 558.8298 558.95 559.0413 559.0871 559.1262 559.1954 559.3237 559.5454 559.9249 560.5471 561.3901 562.4861 563.7686 565.1375 566.6376 567.9963 569.2921 570.0934 570.1128 569.0748 567.5934 566.1812 565.004 564.3437 564.0003 563.9135 563.9698 564.3198 564.8574 565.4446 566.0765 566.7289 567.5156 568.4392 569.3429 570.4377 571.8191 573.5259 575.5375 577.8864 580.3 582.2839 583.9869 585.7657 587.8765 -9999 -9999 -9999 -9999 -9999 -9999 -9999 -9999 -9999 -9999 -9999 -9999 -9999 -9999 -9999 -9999 -9999
-9999 -9999 -9999 -9999 -9999 -9999 -9999 -9999 -9999 -9999 -9999 -9999 -9999 -9999 -9999 -9999 -9999 -9999 -9999 -9999 -9999 -9999 -9999 -9999 609.6505 604.4156 597.752 590.3403 583.1569 577.3713 574.241 575.0073 576.6503 576.7939 576.6582 575.5842 573.5375 570.9709 568.5421 567.0186 565.9806 565.0413 564.0613 562.7596 561.1785 559.2397 557.053 554.227 550.9479 547.5746 544.5126 542.3848 540.8948 539.7931 538.9585 538.3662 537.9784 537.7612 537.6841 537.7009 537.7572 537.8231 537.9013 538.0034 538.1583 538.388 538.715 539.1638 539.7538 540.4866 541.3372 542.2692 543.2319 544.4299 545.7246 546.9298 548.1678 549.2974 550.4268 551.4315 552.3865 553.412 554.3536 555.2717 556.2546 557.2134 557.9982 558.3605 558.7781 558.9708 559.0139 558.9887 558.9523 558.9102 558.8445 558.7603 558.7527 558.6389 558.3093 558.0305 557.2998 556.3434 555.3178 554.4152 553.524 552.7257 552.1642 552.1312 552.5483 553.2155 553.9915 554.6797 555.2095 555.6864 556.0495 556.3899 556.7332 557.1044 557.4713 557.8522 558.2061 558.4497 558.5415 558.676 558.8077 558.9008 558.9652 559.0334 559.1223 559.2633 559.5143 559.9208 560.549 561.3807 562.4719 563.7148 565.0138 566.3962 567.5071 569.3014 570.2989 570.288 569.3442 567.7321 566.6659 565.4669 564.7075 564.1949 563.9434 563.9973 564.3047 564.7421 565.2406 565.8065 566.5106 567.3276 568.2101 569.3513 570.7172 572.3909 574.2406 576.4871 578.745 580.6201 582.2896 584.1092 586.4485 -9999 -9999 -9999 -9999 -9999 -9999 -9999 -9999 -9999 -9999 -9999 -9999 -9999 -9999 -9999 -9999 -9999
-9999 -9999 -9999 -9999 -9999 -9999 -9999 -9999 -9999 -9999 -9999 -9999 -9999 -9999 -9999 -9999 -9999 -9999 -9999 -9999 -9999 -9999 -9999 -9999 610.1036 605.0231 598.4025 590.9842 583.7413 577.8236 574.4544 574.5286 575.7742 576.431 575.5201 573.7423 571.9702 569.8293 567.8192 566.4785 565.4604 564.4736 563.4173 562.0957 560.5157 558.4581 556.0824 553.2126 549.93 546.6891 543.95 542.2921 541.0131 539.8754 538.9174 538.2148 537.7448 537.4686 537.3496 537.339 537.3926 537.4786 537.5837 537.7167 537.8958 538.1516 538.5044 538.9672 539.5503 540.248 541.0426 541.9047 542.8385 543.8384 545.0774 546.3125 547.6235 548.8284 549.8271 550.8246 551.8742 552.7653 553.5961 554.4218 555.2755 556.1906 556.9911 557.5333 558.0469 558.1989 558.2196 558.2133 558.2068 558.2057 558.2018 558.189 558.1625 558.0074 557.5478 557.0521 556.2644 555.3196 554.4458 553.6497 552.8145 552.126 551.7197 551.7231 552.0991 552.6782 553.4836 554.3119 555.0586 555.4602 555.7462 556.0327 556.359 556.7063 557.0856 557.4778 557.8681 558.1873 558.2206 558.3969 558.5587 558.7032 558.8104 558.9073 558.9956 559.0922 559.255 559.5336 559.9484 560.5532 561.3538 562.3809 563.4893 564.6592 565.9269 567.5871 569.1033 570.0784 570.2076 569.7302 568.7911 567.4919 566.3747 565.1431 564.3842 564.028 564.0299 564.2962 564.685 565.182 565.8659 566.6509 567.5339 568.8147 570.2755 571.838 573.5836 575.6215 577.7405 579.6821 581.4926 583.3882 585.9839 589.4058 -9999 -9999 -9999 -9999 -9999 -9999 -9999 -9999 -9999 -9999 -9999 -9999 -9999 -9999 -9999 -9999
-9999 -9999 -9999 -9999 -9999 -9999 -9999 -9999 -9999 -9999 -9999 -9999 -9999 -9999 -9999 -9999 -9999 -9999 -9999 -9999 -9999 -9999 -9999 -9999 609.8585 604.9326 598.4821 591.2029 584.0626 578.1555 574.5285 573.759 574.151 574.2945 573.162 572.1057 570.5841 568.7887 567.2673 566.0912 565.1167 564.1531 562.833 561.3414 559.6034 557.6476 555.269 552.4758 549.3956 546.3561 543.8621 542.546 541.3601 540.0995 539.0604 538.3032 537.7961 537.483 537.3185 537.2565 537.2685 537.3307 537.424 537.5378 537.707 537.9575 538.3129 538.7815 539.3591 540.0322 540.7827 541.5811 542.4028 543.2855 544.6058 545.9623 547.1469 548.1986 549.1244 550.0853 551.126 552.0616 552.8639 553.6406 554.4315 555.224 555.9742 556.5127 557.0172 557.2322 557.2819 557.2875 557.2939 557.3076 557.313 557.2715 557.1255 556.8262 556.4484 555.9848 555.233 554.4014 553.5925 552.8398 552.14 551.6182 551.3416 551.377 551.6956 552.2084 553.0331 553.8781 554.6192 555.13 555.4214 555.7484 556.0748 556.4363 556.7974 557.1694 557.5281 557.831 558.0059 558.2083 558.3479 558.5132 558.6675 558.7971 558.9109 559.0092 559.1158 559.3053 559.5919 560.0011 560.5739 561.3092 562.2084 563.2007 564.3057 565.5931 567.1487 568.5245 569.7681 570.3646 570.1641 569.0371 567.8337 566.5752 565.1959 564.2974 563.9232 563.9564 564.2763 564.7479 565.5524 566.4438 567.4297 568.7936 570.2529 571.716 573.34 575.1586 577.1641 579.4623 581.735 584.1155 586.9705 590.4547 -9999 -9999 -9999 -9999 -9999 -9999 -9999 -9999 -9999 -9999 -9999 -9999 -9999 -9999 -9999 -9999
-9999 -9999 -9999 -9999 -9999 -9999 -9999 -9999 -9999 -9999 -9999 -9999 -9999 -9999 -9999 -9999 -9999 -9999 -9999 -9999 -9999 -9999 -9999 -9999 608.7526 603.9559 597.7694 590.811 583.9367 578.2626 574.4748 573.0051 572.5605 572.0912 571.3433 570.9532 569.5678 567.9327 566.7974 565.7678 564.7695 563.7472 562.2101 560.6713 558.8154 557.041 554.9888 552.543 549.8079 546.962 544.4733 542.9058 541.6219 540.41 539.3967 538.6453 538.1415 537.8156 537.6008 537.4561 537.3829 537.3771 537.4267 537.4902 537.6071 537.8243 538.1604 538.6199 539.1879 539.8385 540.563 541.3507 542.1622 543.0623 544.2905 545.6364 546.655 547.5792 548.4613 549.3422 550.3745 551.3031 552.1201 552.8864 553.6464 554.377 555.0295 555.4358 555.9814 556.2014 556.2516 556.2523 556.259 556.276 556.2792 556.2108 555.977 555.522 555.2509 554.9467 554.2756 553.5466 552.8148 552.1476 551.6104 551.2341 551.0695 551.1664 551.52 552.0944 552.8049 553.5603 554.2309 554.7643 555.1648 555.6282 556.0554 556.4428 556.7943 557.1131 557.4023 557.6644 557.8965 558.1084 558.2113 558.3756 558.554 558.7102 558.8465 558.9677 559.0724 559.1981 559.3973 559.6815 560.0789 560.6109 561.2654 562.064 562.9603 563.9731 565.1631 566.5612 567.9393 569.1447 569.75 569.2678 568.4839 567.495 566.2828 564.6458 563.8868 563.6857 563.8774 564.3834 565.3986 566.5463 567.6931 569.1534 570.486 571.8346 573.3056 574.9757 577.0547 579.6826 582.5921 585.6321 588.8479 592.2817 -9999 -9999 -9999 -9999 -9999 -9999 -9999 -9999 -9999 -9999 -9999 -9999 -9999 -9999 -9999 -9999
-9999 -9999 -9999 -9999 -9999 -9999 -9999 -9999 -9999 -9999 -9999 -9999 -9999 -9999 -9999 -9999 -9999 -9999 -9999 -9999 -9999 -9999 -9999 -9999 606.8588 602.175 596.3313 589.8304 583.4274 578.1086 574.4182 572.6694 571.7184 570.8167 570.4018 569.9617 568.9423 567.6387 566.7175 565.6125 564.3887 563.1174 561.5771 560.1837 558.6246 557.1426 555.5037 553.6218 551.4016 548.7891 546.2082 544.0776 542.4509 541.1185 540.0698 539.3034 538.8017 538.4708 538.1947 537.9175 537.7023 537.5742 537.5293 537.5464 537.6015 537.7637 538.0566 538.4862 539.0356 539.6518 540.3386 541.0974 541.9163 542.8386 543.825 544.9738 545.9955 546.9307 547.9014 548.8847 549.7573 550.5914 551.3816 552.1383 552.8776 553.5527 554.1111 554.5756 555.0409 555.1772 555.1898 555.1821 555.1827 555.1922 555.1937 555.1388 554.9356 554.5037 554.1844 553.8349 553.2811 552.7444 552.1459 551.634 551.2371 550.9894 550.9299 551.097 551.4908 552.0878 552.785 553.4872 554.1243 554.7034 555.2262 555.8907 556.4786 556.9464 557.3441 557.5668 557.717 557.8513 557.9932 558.2069 558.2729 558.3663 558.4941 558.6624 558.8099 558.9365 559.0721 559.1841 559.3174 559.5178 559.8005 560.1763 560.6517 561.2549 561.9641 562.7536 563.6616 564.7188 565.8608 567.0411 567.8091 568.188 568.1022 567.547 566.4586 564.7095 563.8333 563.5505 563.7306 564.3597 565.5981 567.0259 568.3695 569.8486 570.9789 572.1287 573.3964 574.9795 577.1193 580.1669 583.7751 587.4944 591.0995 594.5284 -9999 -9999 -9999 -9999 -9999 -9999 -9999 -9999 -9999 -9999 -9999 -9999 -9999 -9999 -9999 -9999
-9999 -9999 -9999 -9999 -9999 -9999 -9999 -9999 -9999 -9999 -9999 -9999 -9999 -9999 -9999 -9999 -9999 -9999 -9999 -9999 -9999 -9999 -9999 -9999 604.3204 599.8515 594.3946 588.403 582.5659 577.7651 574.4302 572.9152 571.9685 571.1633 570.3747 569.6552 568.793 567.8635 567.0423 565.7382 564.3232 562.9605 561.5635 560.4778 559.4005 558.2205 556.9102 555.4175 553.5927 551.2267 548.6506 546.174 544.0216 542.3799 541.1779 540.313 539.7668 539.4177 539.0554 538.5817 538.1691 537.8809 537.7137 537.65 537.6675 537.7774 538.0105 538.3788 538.8689 539.4441 540.0919 540.8079 541.5731 542.3797 543.2091 544.2697 545.2877 546.2482 547.2758 548.2272 549.0667 549.8573 550.637 551.4003 552.1234 552.7548 553.2079 553.6628 554.0224 554.1548 554.1727 554.1678 554.1704 554.1689 554.1248 553.9774 553.6769 553.359 553.1044 552.7822 552.2934 552.0184 551.6027 551.2501 551.0036 550.8933 550.9523 551.2059 551.65 552.2451 553.0592 553.7943 554.4781 555.1516 555.8176 556.5516 557.2141 557.6681 558.1074 558.2007 558.2067 558.2064 558.2141 558.3306 558.3855 558.4329 558.5101 558.6331 558.797 558.943 559.0641 559.2109 559.3239 559.4597 559.6661 559.9371 560.2751 560.7123 561.2685 561.8907 562.628 563.5219 564.5035 565.0621 565.7032 566.5598 566.9038 566.7369 565.6782 564.4174 563.7568 563.5887 563.8732 564.6326 566.0475 567.5028 568.9183 570.2764 571.4214 572.5288 573.6594 575.2847 577.5923 581.1021 585.3011 589.5059 593.351 -9999 -9999 -9999 -9999 -9999 -9999 -9999 -9999 -9999 -9999 -9999 -9999 -9999 -9999 -9999 -9999 -9999
-9999 -9999 -9999 -9999 -9999 -9999 -9999 -9999 -9999 -9999 -9999 -9999 -9999 -9999 -9999 -9999 -9999 -9999 -9999 -9999 -9999 -9999 -9999 -9999 601.3958 597.175 592.1241 586.7064 581.5165 577.3054 574.4398 573.359 572.3845 571.356 570.4122 569.6076 568.8233 568.0376 567.218 565.9492 564.5633 563.3819 562.2922 561.4619 560.8062 559.8589 558.7509 557.4889 555.7631 553.6467 551.2969 548.7673 546.3041 544.2051 542.7299 541.6295 540.9521 540.546 540.0493 539.3107 538.6916 538.2461 537.9612 537.8243 537.8071 537.8618 538.0261 538.3199 538.7377 539.2534 539.847 540.5077 541.2263 541.9955 542.8354 543.6962 544.6798 545.7579 546.6895 547.5491 548.3405 549.0984 549.874 550.6467 551.369 551.9809 552.2994 552.7766 553.0453 553.1478 553.1597 553.1567 553.1609 553.1539 553.0737 552.8308 552.3854 552.1415 551.9919 551.7735 551.3923 551.2151 551.0624 550.9482 550.8998 550.9579 551.1713 551.5748 552.1821 552.9672 553.7996 554.4697 555.1754 555.9074 556.6287 557.381 558.0391 558.2828 558.5894 558.6736 558.6369 558.5725 558.5287 558.551 558.5581 558.5663 558.5903 558.6652 558.7898 558.9423 559.1002 559.2269 559.3629 559.478 559.632 559.8325 560.0755 560.3781 560.7961 561.2765 561.8517 562.548 563.283 563.7007 564.1692 564.6955 565.0386 565.1815 564.5755 564.0212 563.7577 563.8557 564.3812 565.4147 566.8679 568.2369 569.5228 570.6832 571.9043 573.0941 574.2108 575.8931 578.3515 582.1725 586.7452 591.28 595.3015 -9999 -9999 -9999 -9999 -9999 -9999 -9999 -9999 -9999 -9999 -9999 -9999 -9999 -9999 -9999 -9999 -9999
-9999 -9999 -9999 -9999 -9999 -9999 -9999 -9999 -9999 -9999 -9999 -9999 -9999 -9999 -9999 -9999 -9999 -9999 -9999 -9999 -9999 -9999 -9999 -9999 598.3423 594.3974 589.7788 584.9328 580.4 576.8054 574.3205 573.2279 572.2963 571.3231 570.4034 569.6118 568.8663 568.1191 567.3168 566.295 565.1897 564.2232 563.3915 562.8619 562.4194 561.7189 560.7862 559.472 557.7819 555.7227 553.7957 551.4843 548.9598 546.567 544.6292 543.1422 542.1823 541.6084 540.7563 539.885 539.1648 538.6228 538.2427 538.0339 537.9631 537.9885 538.0923 538.3102 538.6495 539.0928 539.618 540.2101 540.8589 541.5491 542.275 543.0258 543.9338 544.9874 545.9613 546.8054 547.588 548.3458 549.1019 549.8636 550.5562 551.1127 551.5472 551.9893 552.1248 552.1404 552.1339 552.1271 552.124 552.1094 552.0269 551.7689 551.2621 550.9248 550.6803 550.4196 550.3258 550.4332 550.5975 550.7638 550.9446 551.1941 551.5878 552.1953 553.0521 553.9844 554.8428 555.3764 556.1106 556.8644 557.5182 558.1902 558.6949 558.9309 559.0976 559.118 559.0354 558.9268 558.8407 558.7963 558.7624 558.743 558.7339 558.7535 558.8316 558.9496 559.1058 559.2731 559.4038 559.527 559.6622 559.824 560.0057 560.2198 560.5081 560.8759 561.2736 561.7718 562.2803 562.6769 563.0978 563.5549 563.9611 564.2219 564.0097 563.8472 563.9401 564.3442 565.1613 566.3081 567.6533 569.0602 570.282 571.3513 572.4595 573.511 574.7333 576.5233 579.2421 583.2717 588.0023 592.6505 596.7238 -9999 -9999 -9999 -9999 -9999 -9999 -9999 -9999 -9999 -9999 -9999 -9999 -9999 -9999 -9999 -9999 -9999
-9999 -9999 -9999 -9999 -9999 -9999 -9999 -9999 -9999 -9999 -9999 -9999 -9999 -9999 -9999 -9999 -9999 -9999 -9999 -9999 -9999 -9999 -9999 -9999 595.5306 591.7552 587.524 583.2566 579.408 576.4832 574.4686 573.2988 572.2659 571.2915 570.4 569.6727 568.954 568.2073 567.4405 566.7263 565.894 565.1551 564.5823 564.3754 564.1642 563.6681 562.6725 561.3257 559.7177 557.9312 556.1168 554.0695 551.6713 549.1473 546.7981 544.8505 543.3495 542.302 541.2971 540.3801 539.6198 539.022 538.5673 538.2898 538.1605 538.134 538.1959 538.3443 538.6029 538.9651 539.4136 539.9304 540.5029 541.1208 541.7678 542.4475 543.2152 544.2201 545.1664 546.0176 546.8128 547.5895 548.3546 549.0859 549.7366 550.2046 550.6675 551.0128 551.1327 551.1402 551.1173 551.0918 551.0544 550.9724 550.7834 550.4227 550.0624 549.8079 549.5672 549.2546 549.43 549.8585 550.3314 550.7646 551.164 551.5976 552.1749 553.0144 554.0272 555.0042 555.785 556.439 557.2009 557.9778 558.4887 559.062 559.4294 559.5803 559.6335 559.5668 559.4204 559.2691 559.1464 559.0588 558.9925 558.9462 558.9151 558.902 558.9247 558.9979 559.1316 559.2884 559.4492 559.587 559.7219 559.8685 560.0231 560.1976 560.3877 560.6681 560.9427 561.2619 561.6211 562.0084 562.4204 562.8562 563.2706 563.5747 563.6714 563.8282 564.2592 564.9973 566.0671 567.2969 568.6124 569.9576 571.0189 572.028 573.1184 574.127 575.4723 577.4674 580.515 584.5721 589.1335 593.5879 597.4933 -9999 -9999 -9999 -9999 -9999 -9999 -9999 -9999 -9999 -9999 -9999 -9999 -9999 -9999 -9999 -9999 -9999
-9999 -9999 -9999 -9999 -9999 -9999 -9999 -9999 -9999 -9999 -9999 -9999 -9999 -9999 -9999 -9999 -9999 -9999 -9999 -9999 -9999 -9999 -9999 -9999 593.0963 589.3074 585.4317 581.8008 578.6647 576.3318 574.6689 573.4354 572.3792 571.3966 570.5007 569.8685 569.166 568.445 567.782 567.2453 566.5859 566.1108 565.8935 565.8928 565.7036 565.2173 564.2689 562.9654 561.4393 559.8237 558.1558 556.3129 554.2041 551.7738 549.2424 546.8707 544.8928 543.3011 542.0402 541.0048 540.1682 539.4993 538.9663 538.6138 538.425 538.3403 538.3437 538.4304 538.6038 538.8777 539.2423 539.6833 540.1861 540.7429 541.355 542.0405 542.8353 543.6172 544.4294 545.234 546.0281 546.8223 547.6041 548.3317 548.9463 549.2745 549.7749 550.0381 550.1177 550.1174 550.093 550.0629 550.0188 549.9188 549.692 549.2679 549.1028 549.0712 549.0543 548.9262 549.1002 549.7162 550.3895 551.0075 551.566 552.1391 552.8744 553.8166 554.8809 555.804 556.6314 557.416 558.2732 559.1198 559.7414 560.1396 560.2961 560.2649 560.1931 560.0112 559.7861 559.6013 559.4541 559.3353 559.2346 559.1633 559.115 559.0828 559.0765 559.1123 559.1921 559.3234 559.4819 559.64 559.7845 559.9305 560.0817 560.241 560.4128 560.599 560.8094 561.0294 561.2715 561.6481 562.0708 562.5146 562.9432 563.3096 563.5897 563.9374 564.5388 565.6455 566.9619 568.2143 569.4429 570.5836 571.6492 572.6353 573.6588 574.8994 576.551 578.9395 582.2297 586.1025 590.2433 594.3256 -9999 -9999 -9999 -9999 -9999 -9999 -9999 -9999 -9999 -9999 -9999 -9999 -9999 -9999 -9999 -9999 -9999 -9999
-9999 -9999 -9999 -9999 -9999 -9999 -9999 -9999 -9999 -9999 -9999 -9999 -9999 -9999 -9999 -9999 -9999 -9999 -9999 -9999 -9999 -9999 -9999 -9999 590.8428 587.0373 583.5764 580.6039 578.194 576.406 575.0964 573.8458 572.7693 571.7678 570.9093 570.2645 569.4568 568.6906 568.0007 567.4069 567.0172 566.811 566.8983 567.1581 567.0952 566.5212 565.5929 564.3732 562.9728 561.4617 559.9231 558.2802 556.4371 554.2856 551.8197 549.259 546.8626 544.8416 543.1887 541.9093 540.9057 540.108 539.4688 539.0215 538.7694 538.6293 538.5804 538.6098 538.6913 538.8496 539.1216 539.4791 539.9095 540.4022 540.9601 541.5848 542.2758 542.9697 543.6959 544.4572 545.2422 546.0369 546.8223 547.5323 548.1011 548.5331 548.9642 549.0938 549.1032 549.0836 549.064 549.0543 549.0642 549.0712 549.02 548.7775 548.698 548.762 548.8948 549.0668 549.4238 550.0661 550.7937 551.4829 552.1062 552.7385 553.5107 554.4316 555.3644 556.4031 557.3802 558.3209 559.3676 560.3605 561.1146 561.3539 561.2418 560.9197 560.7077 560.3668 560.1055 559.9274 559.772 559.6216 559.4909 559.3864 559.3188 559.2726 559.2462 559.2496 559.2919 559.3903 559.5346 559.694 559.8484 559.9962 560.146 560.2976 560.4545 560.6214 560.8016 561.0073 561.2537 561.5773 561.9889 562.4515 562.929 563.3893 563.8281 564.3794 565.2491 566.4128 567.6971 569.0745 570.3085 571.4113 572.4651 573.4922 574.6331 576.0731 578.0153 580.8047 584.1671 587.75 591.4411 595.1885 -9999 -9999 -9999 -9999 -9999 -9999 -9999 -9999 -9999 -9999 -9999 -9999 -9999 -9999 -9999 -9999 -9999 -9999
-9999 -9999 -9999 -9999 -9999 -9999 -9999 -9999 -9999 -9999 -9999 -9999 -9999 -9999 -9999 -9999 -9999 -9999 -9999 -9999 -9999 -9999 -9999 -9999 588.5226 584.9103 582.0152 579.7842 578.0313 576.7538 575.8439 574.7806 573.4607 572.2761 571.2604 570.4052 569.6476 568.9293 568.269 567.7161 567.3548 567.1859 567.3495 567.515 567.6387 567.3294 566.598 565.5687 564.3372 562.978 561.5353 560.0718 558.4789 556.5685 554.334 551.8172 549.2254 546.8102 544.7842 543.1442 541.873 540.8717 540.0801 539.5156 539.1897 539.0015 538.9168 538.9205 538.9638 538.9282 539.0768 539.3379 539.6841 540.0992 540.5781 541.1233 541.7163 542.3334 542.9861 543.7009 544.463 545.2473 546.0115 546.7013 547.2045 547.6671 548.0074 548.1221 548.1127 548.0655 548.0249 548.0348 548.1475 548.3215 548.4647 548.5094 548.5987 548.7874 549.077 549.4786 550.0068 550.6833 551.4087 552.0795 552.6556 553.2762 554.0404 554.9853 555.927 557.0016 558.0885 559.2126 560.421 561.6072 562.5298 562.7037 562.2418 561.4839 560.9938 560.6157 560.3973 560.2728 560.1155 559.9276 559.761 559.6279 559.5267 559.4636 559.4238 559.4088 559.4293 559.4985 559.6199 559.7694 559.9241 560.0703 560.2155 560.3634 560.518 560.6872 560.8783 561.0823 561.2687 561.6317 562.0806 562.5924 563.1497 563.7368 564.3373 565.1223 566.1479 567.3249 568.6138 569.9845 571.1674 572.3364 573.5135 574.679 575.9996 577.6893 579.9261 582.9998 586.3472 589.6259 592.8998 596.3913 -9999 -9999 -9999 -9999 -9999 -9999 -9999 -9999 -9999 -9999 -9999 -9999 -9999 -9999 -9999 -9999 -9999 -9999
-9999 -9999 -9999 -9999 -9999 -9999 -9999 -9999 -9999 -9999 -9999 -9999 -9999 -9999 -9999 -9999 -9999 -9999 -9999 -9999 -9999 -9999 -9999 -9999 -9999 582.8908 580.6646 579.1313 577.9473 576.9601 576.1776 575.6469 574.1627 572.8351 571.653 570.6022 569.8937 569.2222 568.5929 568.0508 567.6343 567.3865 567.5994 567.84 567.9919 567.8367 567.3411 566.5554 565.559 564.407 563.1136 561.7624 560.4245 558.6661 556.6116 554.2858 551.7067 549.0842 546.6855 544.6863 543.0527 541.7726 540.7808 540.0836 539.67 539.44 539.3218 539.2877 539.2675 539.1528 539.1445 539.2837 539.5337 539.8564 540.2454 540.6979 541.2062 541.756 542.3497 542.9926 543.7009 544.4346 545.1384 545.8177 546.2156 546.7144 546.9921 547.0798 547.0643 547.019 546.9877 547.0364 547.3007 547.7057 548.1191 548.4556 548.7415 549.0836 549.5431 550.0884 550.7128 551.3978 552.0695 552.6257 553.1403 553.6953 554.3669 555.2031 556.2949 557.4854 558.5934 559.9259 561.3288 562.8703 563.9442 564.0614 563.3735 562.4165 561.5403 561.0079 560.7635 560.6627 560.4591 560.2425 560.0471 559.8816 559.751 559.6567 559.5996 559.5723 559.5815 559.6362 559.7379 559.874 560.0177 560.1602 560.2952 560.4369 560.5909 560.7686 560.9862 561.252 561.4606 561.8174 562.2869 562.8452 563.4808 564.2006 564.9471 565.8943 567.0322 568.1682 569.3996 570.6331 571.9297 573.3009 574.7839 576.1476 577.7371 579.7852 582.4029 585.6583 588.8709 591.7814 594.6326 -9999 -9999 -9999 -9999 -9999 -9999 -9999 -9999 -9999 -9999 -9999 -9999 -9999 -9999 -9999 -9999 -9999 -9999 -9999
-9999 -9999 -9999 -9999 -9999 -9999 -9999 -9999 -9999 -9999 -9999 -9999 -9999 -9999 -9999 -9999 -9999 -9999 -9999 -9999 -9999 -9999 -9999 -9999 -9999 581.3683 579.8566 578.7775 577.9482 577.1382 576.4949 575.9464 574.9368 573.4764 572.2268 571.1547 570.3123 569.5959 568.9943 568.484 568.0842 567.8756 567.9733 568.1642 568.2921 568.2115 567.8789 567.3383 566.6187 565.7749 564.6149 563.3704 562.0854 560.549 558.6234 556.459 554.0122 551.3448 548.7455 546.3847 544.3659 542.7419 541.5236 540.7018 540.2036 539.9346 539.7846 539.7054 539.6108 539.433 539.3344 539.3444 539.4868 539.7032 539.9934 540.3535 540.7781 541.2618 541.7987 542.3779 542.9882 543.6157 544.1532 544.755 545.225 545.7012 545.8672 545.8889 545.8821 545.9077 545.9642 546.1025 546.5789 547.2628 547.9794 548.6165 549.0912 549.6115 550.1783 550.7887 551.4368 552.0817 552.6332 553.1194 553.5909 554.0922 554.6746 555.4113 556.6199 557.9557 559.1286 560.4261 561.8478 563.6902 564.6608 564.8076 564.2884 563.4653 562.6222 561.7398 561.2802 560.9666 560.7913 560.5737 560.3523 560.1531 559.9859 559.8599 559.7753 559.7317 559.7292 559.7764 559.8711 559.9968 560.1321 560.2616 560.3896 560.5195 560.6635 560.83 561.0253 561.2603 561.5932 562.0297 562.5488 563.1396 563.79 564.4749 565.4366 566.5005 567.5999 568.8503 570.1411 571.3762 572.677 574.1672 576.1271 577.7449 579.7557 582.3528 585.5169 588.7942 591.7183 594.1983 596.5669 -9999 -9999 -9999 -9999 -9999 -9999 -9999 -9999 -9999 -9999 -9999 -9999 -9999 -9999 -9999 -9999 -9999 -9999 -9999
-9999 -9999 -9999 -9999 -9999 -9999 -9999 -9999 -9999 -9999 -9999 -9999 -9999 -9999 -9999 -9999 -9999 -9999 -9999 -9999 -9999 -9999 -9999 -9999 -9999 -9999 579.3896 578.5984 577.9621 577.2235 576.6079 576.0572 575.6443 573.9826 572.783 571.6594 570.5821 569.9415 569.4214 568.9606 568.5947 568.3934 568.4015 568.5098 568.5865 568.5112 568.2568 567.875 567.4113 566.9745 566.0234 564.7803 563.5024 562.0476 560.3523 558.3757 556.0021 553.3447 550.6823 548.1074 545.6784 543.6319 542.2563 541.3512 540.7949 540.4772 540.2959 540.1595 539.9462 539.7329 539.6086 539.571 539.5796 539.6654 539.8503 540.1129 540.4502 540.8617 541.3348 541.8462 542.3696 542.8757 543.1702 543.6995 544.052 544.2979 544.3734 544.3746 544.4226 544.6353 544.9774 545.4296 546.0966 547.037 548.0166 548.9379 549.5867 550.2347 550.868 551.4862 552.1011 552.657 553.1436 553.5979 554.0664 554.5765 555.1555 555.8874 556.9 558.0244 558.9955 560.3333 561.9166 563.8964 564.9 565.1618 564.9026 564.379 563.9009 563.0299 562.1581 561.4362 561.2261 560.9351 560.6808 560.4357 560.2253 560.0627 559.9515 559.8879 559.8716 559.9087 559.9968 560.1196 560.251 560.3752 560.4911 560.6117 560.7482 560.9069 561.0864 561.2775 561.729 562.2629 562.8484 563.4913 564.2107 564.9952 566.0123 567.1454 568.2739 569.5073 570.7449 572.1039 573.4244 574.9836 577.0067 579.2513 582.0149 585.4489 588.9947 592.2125 594.8463 596.8436 598.5908 -9999 -9999 -9999 -9999 -9999 -9999 -9999 -9999 -9999 -9999 -9999 -9999 -9999 -9999 -9999 -9999 -9999 -9999 -9999
-9999 -9999 -9999 -9999 -9999 -9999 -9999 -9999 -9999 -9999 -9999 -9999 -9999 -9999 -9999 -9999 -9999 -9999 -9999 -9999 -9999 -9999 -9999 -9999 -9999 -9999 -9999 578.5457 577.9724 577.3059 576.7512 576.2187 575.9518 574.3987 573.3161 572.0511 571.0126 570.3812 569.894 569.4541 569.1 568.886 568.8287 568.8579 568.8665 568.7554 568.5098 568.1874 567.8398 567.5031 567.069 566.0778 564.7743 563.3386 561.705 560.1689 558.0291 555.3987 552.5643 549.6993 546.98 544.7339 543.0989 542.0645 541.4252 541.0668 540.827 540.6104 540.3123 540.0588 539.9099 539.8312 539.768 539.7591 539.8343 539.9929 540.2338 540.5585 540.9542 541.3812 541.8022 542.1925 542.5022 542.883 543.0065 543.0526 543.0583 543.0664 543.1788 543.5986 544.2846 545.0883 545.9988 547.0541 548.116 549.0825 549.9955 550.8309 551.5247 552.1178 552.6716 553.1809 553.6398 554.0914 554.5894 555.15 555.7407 556.402 557.1359 557.8926 558.6353 560.0704 561.7936 563.8223 564.8375 565.1951 565.1368 564.8765 564.5879 564.0394 563.0353 562.179 561.6803 561.273 560.988 560.7054 560.4512 560.251 560.1155 560.0359 560.0081 560.0365 560.1149 560.2296 560.3588 560.4821 560.5961 560.71 560.8447 561.0186 561.2507 561.4993 561.9586 562.5294 563.1548 563.8155 564.4734 565.4421 566.5416 567.6398 568.8997 570.2092 571.5416 572.9367 574.1842 575.8014 578.064 581.0432 584.8018 588.8544 592.6281 595.7695 598.0905 599.541 -9999 -9999 -9999 -9999 -9999 -9999 -9999 -9999 -9999 -9999 -9999 -9999 -9999 -9999 -9999 -9999 -9999 -9999 -9999 -9999
-9999 -9999 -9999 -9999 -9999 -9999 -9999 -9999 -9999 -9999 -9999 -9999 -9999 -9999 -9999 -9999 -9999 -9999 -9999 -9999 -9999 -9999 -9999 -9999 -9999 -9999 -9999 -9999 577.9319 577.4282 577.1875 577.0403 576.3886 575.1463 573.755 572.4202 571.4259 570.8319 570.3939 569.9351 569.5599 569.3282 569.2321 569.1942 569.1277 568.9611 568.6832 568.3444 567.995 567.6306 567.5302 567.0828 566.0623 564.7155 563.26 561.7855 559.8834 557.3235 554.4109 551.3848 548.4596 545.9211 544.0276 542.7942 542.0391 541.65 541.3337 541.0085 540.6855 540.418 540.2493 540.1375 540.0356 539.9556 539.9385 539.9995 540.1384 540.3611 540.6683 541.0054 541.3357 541.6407 541.9106 542.1653 542.2831 542.3502 542.4232 542.5377 542.8008 543.0886 544.0483 545.168 546.1676 547.2965 548.3837 549.3122 550.4167 551.4067 552.1185 552.6694 553.1803 553.6764 554.1398 554.6176 555.175 555.8139 556.4633 557.0925 557.6232 558.1987 558.8773 560.0624 561.6505 563.5944 564.5974 564.9832 564.9829 564.8127 564.6503 564.2352 563.4018 562.6218 562.0424 561.5885 561.2477 560.9088 560.632 560.4138 560.2581 560.1689 560.1342 560.1639 560.2322 560.3328 560.4519 560.5731 560.6882 560.8041 560.9342 561.0927 561.277 561.6718 562.1848 562.7845 563.4551 564.2107 564.9526 565.9611 567.1402 568.3132 569.5571 570.7903 572.2137 573.5257 574.8948 576.7294 579.4504 583.3288 587.8396 592.285 596.1327 599.0965 601.0569 601.9727 -9999 -9999 -9999 -9999 -9999 -9999 -9999 -9999 -9999 -9999 -9999 -9999 -9999 -9999 -9999 -9999 -9999 -9999 -9999 -9999
-9999 -9999 -9999 -9999 -9999 -9999 -9999 -9999 -9999 -9999 -9999 -9999 -9999 -9999 -9999 -9999 -9999 -9999 -9999 -9999 -9999 -9999 -9999 -9999 -9999 -9999 -9999 -9999 577.7078 577.5293 577.6536 577.9162 577.5056 576.1834 574.5063 573.1082 572.0739 571.4797 571.0424 570.4586 569.9888 569.7188 569.6053 569.5129 569.3728 569.1525 568.8451 568.5121 568.2385 567.9963 567.8737 567.5934 567.0942 566.0554 564.6858 563.1622 561.255 558.787 555.8911 552.8055 549.757 547.0096 544.875 543.3356 542.5377 542.1509 541.691 541.3231 541.0292 540.7777 540.5923 540.4669 540.3574 540.2389 540.1575 540.14 540.1794 540.2828 540.4967 540.7478 540.9969 541.2374 541.4648 541.6743 541.8398 541.9831 542.1487 542.2938 542.5403 543.0214 544.2048 545.6054 546.6438 547.7365 548.8594 549.8062 550.8947 551.9476 552.5974 553.129 553.6396 554.1592 554.6561 555.2029 555.8737 556.6138 557.3689 558.0613 558.4323 558.871 559.3651 560.1951 561.4712 563.1615 564.2997 564.6828 564.6183 564.3541 564.2732 563.8007 563.2761 562.6988 562.1748 561.7 561.27 560.9781 560.7343 560.5336 560.3815 560.2913 560.2637 560.2904 560.353 560.438 560.5413 560.6532 560.7682 560.8926 561.0424 561.253 561.5355 561.9274 562.4197 562.9865 563.6179 564.3306 565.2396 566.3191 567.4655 568.8268 570.1751 571.4845 572.9565 574.2314 575.7495 577.9205 581.3293 585.8762 590.8435 595.4377 599.136 601.7704 603.3692 -9999 -9999 -9999 -9999 -9999 -9999 -9999 -9999 -9999 -9999 -9999 -9999 -9999 -9999 -9999 -9999 -9999 -9999 -9999 -9999 -9999
-9999 -9999 -9999 -9999 -9999 -9999 -9999 -9999 -9999 -9999 -9999 -9999 -9999 -9999 -9999 -9999 -9999 -9999 -9999 -9999 -9999 -9999 -9999 -9999 -9999 -9999 -9999 -9999 -9999 578.1221 578.4375 578.8708 578.9265 577.7172 576.1191 574.5112 573.2424 572.5316 572.0602 571.2178 570.4584 570.0732 569.9381 569.7864 569.6013 569.3501 569.0345 568.7499 568.5387 568.3296 568.1293 567.8317 567.6329 567.068 565.9129 564.3031 562.4084 560.0985 557.2647 554.1883 551.1143 548.2701 545.8862 544.1498 543.0656 542.4559 541.9508 541.5841 541.3392 541.1377 540.9619 540.813 540.6989 540.5746 540.4716 540.4175 540.3907 540.3472 540.4637 540.6271 540.8102 540.9966 541.1906 541.3878 541.592 541.8084 542.025 542.24 542.4874 543.0836 544.421 545.8556 546.9684 548.0133 549.0485 550.0533 551.1125 552.1014 552.8232 553.4506 554.0463 554.6451 555.2048 555.8986 556.6713 557.5217 558.4427 559.3021 559.7256 559.9496 560.1258 560.509 561.4404 562.994 564.2189 564.484 564.2971 564.0111 563.8058 563.4321 562.9999 562.528 562.0678 561.6418 561.2655 561.0037 560.79 560.6124 560.4786 560.3964 560.3751 560.4049 560.4678 560.546 560.6348 560.7347 560.8452 560.9692 561.1133 561.2841 561.7599 562.1649 562.6351 563.1563 563.7306 564.3877 565.4572 566.632 567.6662 569.012 570.3947 571.812 573.3356 574.8635 576.7285 579.4047 583.4514 588.4149 593.5095 597.9869 601.3796 603.5822 -9999 -9999 -9999 -9999 -9999 -9999 -9999 -9999 -9999 -9999 -9999 -9999 -9999 -9999 -9999 -9999 -9999 -9999 -9999 -9999 -9999 -9999
-9999 -9999 -9999 -9999 -9999 -9999 -9999 -9999 -9999 -9999 -9999 -9999 -9999 -9999 -9999 -9999 -9999 -9999 -9999 -9999 -9999 -9999 -9999 -9999 -9999 -9999 -9999 -9999 -9999 579.9312 580.6154 581.2366 581.279 580.2464 578.7284 577.0603 575.1619 574.0133 573.4093 572.1088 571.0432 570.4079 570.1321 570.0248 569.8337 569.5818 569.2698 568.9987 568.8512 568.7012 568.499 568.2561 568.0158 567.5542 566.7707 565.1253 563.2653 560.965 558.183 555.1576 552.1279 549.313 546.8867 545.0863 543.8356 542.9831 542.3459 541.9076 541.6624 541.5027 541.3514 541.1884 541.0549 540.9333 540.843 540.7993 540.7701 540.6276 540.5899 540.6432 540.7686 540.9145 541.0833 541.2772 541.4799 541.7635 542.0047 542.2313 542.5991 543.3331 544.7842 546.1056 547.2233 548.1984 549.1127 550.1533 551.1893 552.1156 552.8988 553.6091 554.3374 555.0811 555.7496 556.5721 557.4685 558.4855 559.7332 560.7955 561.2235 561.2562 561.1178 561.0432 561.6721 563.1007 564.2287 564.3116 563.8863 563.5885 563.3519 563.0329 562.6541 562.2423 561.8452 561.5054 561.254 560.9995 560.8042 560.6556 560.5463 560.4827 560.4707 560.5073 560.5739 560.6514 560.7336 560.8241 560.9313 561.0667 561.2551 561.467 561.8767 562.308 562.786 563.2839 563.838 564.4479 565.6697 567.0236 567.972 569.1343 570.4496 571.9221 573.5519 575.4337 577.666 580.8661 585.335 590.4447 595.452 599.6885 602.7352 -9999 -9999 -9999 -9999 -9999 -9999 -9999 -9999 -9999 -9999 -9999 -9999 -9999 -9999 -9999 -9999 -9999 -9999 -9999 -9999 -9999 -9999 -9999
-9999 -9999 -9999 -9999 -9999 -9999 -9999 -9999 -9999 -9999 -9999 -9999 -9999 -9999 -9999 -9999 -9999 -9999 -9999 -9999 -9999 -9999 -9999 -9999 -9999 -9999 -9999 -9999 -9999 583.3025 584.2523 584.9575 584.9111 583.9355 582.4032 580.7629 578.1046 575.8331 574.3706 572.9029 571.6995 570.8781 570.4339 570.3641 570.1063 569.8956 569.5827 569.3354 569.2056 569.1019 568.9265 568.6495 568.299 567.7898 567.2455 565.9403 564.0864 561.7707 559.0747 556.1315 553.1876 550.51 548.1868 546.2386 544.8262 543.7738 542.9597 542.3708 542.0413 541.8779 541.7262 541.556 541.3929 541.2837 541.2212 541.189 541.111 540.9282 540.7933 540.75 540.8159 540.9603 541.1202 541.2998 541.5031 541.8369 542.1328 542.4037 542.9332 543.9561 545.4452 546.5735 547.5905 548.48 549.2585 550.3107 551.2965 552.12 552.9017 553.6561 554.405 555.1777 555.999 556.9569 558.085 559.3709 560.8516 562.0402 562.6507 562.6254 562.215 561.8657 562.4874 563.5482 564.2944 564.2878 563.7289 563.23 562.9321 562.6237 562.2753 561.9026 561.5507 561.2643 561.0829 560.9079 560.7647 560.6602 560.5878 560.5492 560.5516 560.5946 560.6669 560.7506 560.8344 560.9202 561.0159 561.1271 561.2659 561.5612 561.9496 562.3641 562.8013 563.2531 563.7618 564.4235 565.6458 567.0034 567.9401 569.0895 570.426 571.9448 573.6883 575.8751 578.2999 581.8994 586.5676 591.6182 596.377 600.2853 -9999 -9999 -9999 -9999 -9999 -9999 -9999 -9999 -9999 -9999 -9999 -9999 -9999 -9999 -9999 -9999 -9999 -9999 -9999 -9999 -9999 -9999 -9999 -9999
-9999 -9999 -9999 -9999 -9999 -9999 -9999 -9999 -9999 -9999 -9999 -9999 -9999 -9999 -9999 -9999 -9999 -9999 -9999 -9999 -9999 -9999 -9999 -9999 -9999 -9999 -9999 -9999 -9999 587.6999 588.9346 589.7363 589.7248 588.7549 587.0279 584.8048 581.8744 578.8831 576.3624 574.3939 572.8856 571.8025 571.0854 570.7155 570.4239 570.3392 570.0236 569.8186 569.6959 569.5592 569.3826 569.0853 568.717 568.313 567.7733 566.7471 564.9638 562.8745 560.3901 557.543 554.6143 551.8738 549.4888 547.5494 546.0207 544.7896 543.7712 542.9812 542.4954 542.2842 542.0876 541.8817 541.708 541.616 541.6025 541.6135 541.4947 541.2681 541.0732 540.9697 540.986 541.14 541.3182 541.5143 541.7296 542.0323 542.3514 542.6332 543.2156 544.4252 545.8369 546.9927 548.0172 548.9294 549.7192 550.6638 551.5617 552.2018 552.9447 553.6688 554.4153 555.1747 556.05 557.0726 558.2946 559.7946 561.4383 563.0304 564.0049 564.1139 563.696 563.4141 563.6976 564.2244 564.3098 564.0129 563.446 562.9033 562.507 562.213 561.8953 561.562 561.2629 561.0518 560.9139 560.7987 560.7055 560.6422 560.609 560.6016 560.6229 560.6754 560.7535 560.8452 560.938 561.0304 561.1333 561.2595 561.4193 561.688 562.0273 562.3976 562.7906 563.2095 563.6975 564.3603 565.4124 566.575 567.6031 568.9281 570.3743 571.9167 573.6563 575.84 578.5115 582.1843 586.8835 591.7971 596.2773 599.8218 -9999 -9999 -9999 -9999 -9999 -9999 -9999 -9999 -9999 -9999 -9999 -9999 -9999 -9999 -9999 -9999 -9999 -9999 -9999 -9999 -9999 -9999 -9999 -9999
-9999 -9999 -9999 -9999 -9999 -9999 -9999 -9999 -9999 -9999 -9999 -9999 -9999 -9999 -9999 -9999 -9999 -9999 -9999 -9999 -9999 -9999 -9999 -9999 -9999 -9999 -9999 -9999 -9999 -9999 594.2234 595.257 595.4799 594.6723 592.8904 590.3473 587.0396 583.4213 580.1384 577.365 575.1156 573.5154 572.3325 571.5763 571.0995 570.9064 570.6848 570.5856 570.4108 570.0718 569.834 569.5439 569.244 568.883 568.3203 567.4039 566.0196 564.1922 561.8566 559.108 556.188 553.3983 551.0162 549.0343 547.3936 546.0007 544.7864 543.7808 543.0547 542.7301 542.4637 542.1924 542.0091 541.955 542.0123 542.0989 541.9135 541.6751 541.477 541.3574 541.345 541.4967 541.7491 542.009 542.1892 542.4169 542.7675 543.0738 543.8654 545.0123 546.2027 547.3774 548.3987 549.1976 550.09 551.0513 551.9791 552.516 553.1086 553.7405 554.4471 555.1656 556.0158 557.0496 558.3228 559.9481 561.7377 563.7185 564.9357 565.3988 565.2224 565.0701 565.0327 564.9435 564.3569 563.7681 563.1109 562.5504 562.1286 561.8513 561.5543 561.2625 561.0303 560.8696 560.7708 560.702 560.6525 560.6242 560.6219 560.6444 560.6888 560.7551 560.842 560.9409 561.043 561.146 561.26 561.3986 561.5737 561.8169 562.1102 562.4342 562.788 563.1856 563.6691 564.3162 565.1806 566.2599 567.4388 568.8555 570.3635 571.9005 573.5758 575.5967 578.1608 581.6393 586.2332 591.0317 595.3226 598.629 600.7992 -9999 -9999 -9999 -9999 -9999 -9999 -9999 -9999 -9999 -9999 -9999 -9999 -9999 -9999 -9999 -9999 -9999 -9999 -9999 -9999 -9999 -9999 -9999
-9999 -9999 -9999 -9999 -9999 -9999 -9999 -9999 -9999 -9999 -9999 -9999 -9999 -9999 -9999 -9999 -9999 -9999 -9999 -9999 -9999 -9999 -9999 -9999 -9999 -9999 -9999 -9999 -9999 -9999 599.8574 601.2074 601.7776 601.2798 599.6185 596.9039 593.3706 589.3088 585.2982 581.7053 578.6511 576.277 574.4236 573.1583 572.3363 572.0848 572.1205 571.9603 571.429 570.6136 570.348 570.0696 569.8177 569.5171 568.9533 568.1888 567.2091 565.7079 563.6656 561.0887 558.2051 555.3373 552.7728 550.6558 548.8865 547.3292 545.9553 544.7834 543.8727 543.2326 542.9284 542.5671 542.3882 542.3586 542.4532 542.5875 542.3975 542.2143 542.0834 542.0018 541.9877 542.1018 542.425 542.8495 542.9808 543.0391 543.2408 543.8534 544.7712 545.8372 546.8347 547.8839 548.8804 549.6077 550.4108 551.2728 552.0919 552.6735 553.2655 553.8755 554.5335 555.1653 555.9788 557.0029 558.2969 559.975 561.8205 563.9746 565.551 566.593 567.027 567.0482 566.7995 565.9561 564.6059 563.6378 562.8138 562.1643 561.7264 561.5168 561.2617 561.0245 560.8411 560.7201 560.6545 560.6255 560.6163 560.6213 560.6436 560.687 560.7524 560.8363 560.9347 561.0421 561.1509 561.2599 561.3824 561.5316 561.7056 561.9276 562.1866 562.4719 562.7876 563.1533 563.6112 564.2303 564.9182 566.0219 567.3606 568.8323 570.375 571.8938 573.4763 575.2269 577.4259 580.4449 584.7992 589.4626 593.7449 597.0899 599.1696 600.1479 -9999 -9999 -9999 -9999 -9999 -9999 -9999 -9999 -9999 -9999 -9999 -9999 -9999 -9999 -9999 -9999 -9999 -9999 -9999 -9999 -9999 -9999
-9999 -9999 -9999 -9999 -9999 -9999 -9999 -9999 -9999 -9999 -9999 -9999 -9999 -9999 -9999 -9999 -9999 -9999 -9999 -9999 -9999 -9999 -9999 -9999 -9999 -9999 -9999 -9999 -9999 -9999 -9999 607.2743 608.1729 607.9908 606.5109 603.8234 600.14 595.8494 591.3562 587.0489 583.2377 580.1294 577.5607 575.5425 574.175 573.6479 573.6791 573.0071 572.1818 571.3945 570.9803 570.6381 570.4592 570.2632 569.6798 569.0588 568.4624 567.2634 565.44 563.0738 560.2599 557.3555 554.6532 552.3259 550.3723 548.6561 547.1342 545.9024 544.9491 544.3026 543.6897 543.178 543.0369 543.0304 543.075 543.1352 543.0765 543.0255 543.0099 543.0168 543.0271 543.084 543.3624 543.9623 544.2269 544.3076 544.4916 545.0266 545.887 546.7263 547.5077 548.3643 549.1445 549.8932 550.6461 551.4019 552.1087 552.7622 553.4034 553.995 554.5695 555.1594 555.9733 556.9917 558.2576 559.9109 561.7695 563.924 565.6166 567.0167 567.5907 567.6748 567.3542 566.4598 564.7266 563.4245 562.4363 561.7314 561.297 561.2365 561.0154 560.8174 560.6786 560.5994 560.5689 560.5737 560.6007 560.639 560.6853 560.7437 560.8206 560.9203 561.0331 561.1484 561.2598 561.3653 561.4919 561.65 561.8114 562.0155 562.2516 562.5096 562.7863 563.0934 563.4514 563.9083 564.5223 565.7703 567.2579 568.7422 570.3146 571.8086 573.3309 574.7985 576.6057 579.1367 582.9434 587.2886 591.559 595.1064 597.3317 598.2902 598.4445 -9999 -9999 -9999 -9999 -9999 -9999 -9999 -9999 -9999 -9999 -9999 -9999 -9999 -9999 -9999 -9999 -9999 -9999 -9999 -9999 -9999
-9999 -9999 -9999 -9999 -9999 -9999 -9999 -9999 -9999 -9999 -9999 -9999 -9999 -9999 -9999 -9999 -9999 -9999 -9999 -9999 -9999 -9999 -9999 -9999 -9999 -9999 -9999 -9999 -9999 -9999 -9999 -9999 614.2997 614.2982 612.9379 610.3185 606.6619 602.3442 597.711 593.0867 588.79 585.0124 581.7239 578.9615 576.8906 575.5993 574.7711 574.0338 573.2856 572.6185 572.2437 572.0044 571.5284 571.0483 570.5381 570.2577 569.8701 568.7727 567.0579 564.7358 561.979 559.1001 556.3641 553.9629 551.824 549.844 548.2174 546.9303 545.9506 545.2284 544.7291 544.4093 544.3158 544.3283 544.3915 544.4807 544.4053 544.3644 544.3947 544.494 544.5867 544.6564 544.9559 545.5479 545.8321 545.8958 545.9963 546.3683 547.1339 547.7846 548.3473 549.0194 549.6422 550.2848 550.9572 551.6116 552.2053 552.9241 553.6011 554.1985 554.7258 555.2499 556.1012 557.1035 558.2749 559.8555 561.652 563.6025 564.9565 566.1614 566.7658 566.8453 566.5239 565.5592 564.1771 562.912 561.9271 561.2729 560.9395 560.8458 560.7247 560.6096 560.5322 560.5021 560.5134 560.5541 560.613 560.68 560.7494 560.8223 560.9037 561.0133 561.1388 561.2598 561.3643 561.4673 561.5875 561.7319 561.8935 562.0905 562.3132 562.5591 562.8135 563.0807 563.3712 563.7546 564.3801 565.582 567.0342 568.4171 569.9937 571.4602 572.9825 574.2779 575.7994 577.8915 580.8765 584.6688 588.8116 592.623 595.3926 596.7546 597.345 -9999 -9999 -9999 -9999 -9999 -9999 -9999 -9999 -9999 -9999 -9999 -9999 -9999 -9999 -9999 -9999 -9999 -9999 -9999 -9999 -9999
-9999 -9999 -9999 -9999 -9999 -9999 -9999 -9999 -9999 -9999 -9999 -9999 -9999 -9999 -9999 -9999 -9999 -9999 -9999 -9999 -9999 -9999 -9999 -9999 -9999 -9999 -9999 -9999 -9999 -9999 -9999 -9999 -9999 -9999 618.4285 615.8198 612.2507 608.0951 603.6575 599.1597 594.8129 590.7562 586.97 583.5392 580.7043 578.7422 577.4893 576.5769 575.6583 574.8803 574.3724 574.0724 573.0587 572.219 571.6462 571.3544 570.9911 570.095 568.4883 566.3132 563.6686 560.897 558.1927 555.6356 553.3118 551.2205 549.3603 547.9824 546.9771 546.2644 545.9846 545.8841 545.8761 545.8999 545.9327 545.9666 545.9445 545.9409 545.9913 546.124 546.3101 546.4438 546.6913 547.1515 547.3947 547.4669 547.5652 547.9135 548.5903 549.0161 549.3126 549.8002 550.2811 550.8154 551.4451 552.0942 552.697 553.3638 554.0101 554.6029 555.1364 555.6957 556.4952 557.4367 558.4274 559.8554 561.5369 563.3264 564.2617 564.6971 564.6119 564.4745 564.2628 563.7759 562.9783 562.0825 561.3134 560.8475 560.6064 560.5256 560.4745 560.4351 560.4195 560.438 560.4907 560.5694 560.6622 560.7543 560.8389 560.9244 561.0034 561.1238 561.2594 561.3817 561.4976 561.6082 561.7256 561.8558 562.0029 562.1808 562.394 562.6378 562.8892 563.157 563.4175 563.7535 564.3327 565.3618 566.5515 567.7538 569.2336 570.7162 572.222 573.5773 574.9625 576.6486 578.9151 581.8539 585.6387 589.566 592.8828 595.0507 596.3414 597.0768 -9999 -9999 -9999 -9999 -9999 -9999 -9999 -9999 -9999 -9999 -9999 -9999 -9999 -9999 -9999 -9999 -9999 -9999 -9999 -9999
-9999 -9999 -9999 -9999 -9999 -9999 -9999 -9999 -9999 -9999 -9999 -9999 -9999 -9999 -9999 -9999 -9999 -9999 -9999 -9999 -9999 -9999 -9999 -9999 -9999 -9999 -9999 -9999 -9999 -9999 -9999 -9999 -9999 -9999 -9999 619.9434 616.5043 612.6163 608.5826 604.5475 600.5365 596.594 592.6993 588.9366 585.6149 583.1331 581.6904 580.7372 579.8279 578.7749 577.6439 576.405 575.0367 573.9203 573.1493 572.7259 572.3131 571.4096 569.8237 567.6234 565.0844 562.4795 559.8945 557.2606 554.7264 552.4507 550.5826 549.1635 548.2109 547.6152 547.4089 547.3814 547.4082 547.4364 547.4578 547.4813 547.5115 547.5848 547.7108 547.9595 548.3622 548.5793 548.7421 548.9325 549.0182 549.0259 549.0643 549.3007 549.8589 550.3334 550.6042 550.8586 551.1201 551.4951 552.0895 552.7244 553.3451 553.9429 554.5597 555.119 555.6084 556.2054 557.0138 557.9659 558.7843 559.8733 561.153 562.3717 563.1252 563.0382 562.37 562.0872 561.9805 561.8625 561.7554 561.2924 560.8282 560.5112 560.3491 560.2999 560.2989 560.3195 560.3571 560.4187 560.5093 560.6233 560.7517 560.8713 560.9622 561.0613 561.1182 561.2585 561.4011 561.5491 561.6997 561.8407 561.9727 562.0939 562.2152 562.3561 562.5322 562.7527 563.0136 563.3138 563.5679 563.8486 564.3255 565.2021 566.1716 567.2499 568.5072 570.0071 571.4518 572.9044 574.183 575.5533 577.2791 579.5673 582.5549 586.3083 590.0316 593.1117 595.2134 596.5171 -9999 -9999 -9999 -9999 -9999 -9999 -9999 -9999 -9999 -9999 -9999 -9999 -9999 -9999 -9999 -9999 -9999 -9999 -9999 -9999
-9999 -9999 -9999 -9999 -9999 -9999 -9999 -9999 -9999 -9999 -9999 -9999 -9999 -9999 -9999 -9999 -9999 -9999 -9999 -9999 -9999 -9999 -9999 -9999 -9999 -9999 -9999 -9999 -9999 -9999 -9999 -9999 -9999 -9999 -9999 -9999 -9999 615.7052 612.1883 608.7658 605.343 601.8315 598.2159 594.5425 591.172 588.6139 587.1183 586.2499 585.39 584.0708 582.3666 580.4533 578.5045 576.8139 575.5334 574.8346 574.3005 573.1879 571.3591 569.1216 566.6121 563.9614 561.2963 558.6028 556.0009 553.7524 551.9283 550.5257 549.5762 549.0969 548.9582 548.9598 548.9882 549.008 549.0244 549.0664 549.1702 549.3537 549.5195 549.7536 550.1482 550.3748 550.4875 550.5567 550.5664 550.538 550.5513 550.7439 551.2073 551.7842 552.0359 552.1226 552.1738 552.349 552.8889 553.4906 554.1104 554.5864 555.1165 555.5785 556.0782 556.7186 557.5048 558.3248 559.1045 559.8965 560.688 561.2825 561.4785 561.405 561.2741 561.2489 561.2527 561.2056 561.205 560.8514 560.5088 560.2831 560.1821 560.1743 560.2133 560.2754 560.3547 560.454 560.576 560.719 560.8854 561.0355 561.1144 561.2543 561.2669 561.4436 561.6404 561.8348 562.0303 562.2251 562.4012 562.5247 562.6162 562.7069 562.8264 562.9918 563.2064 563.4786 563.7766 564.0101 564.3394 565.0193 565.8112 566.7035 567.7314 569.124 570.519 571.9498 573.3901 574.6379 576.0046 577.8009 580.2147 583.3284 587.0598 590.7424 593.7344 595.697 596.8928 -9999 -9999 -9999 -9999 -9999 -9999 -9999 -9999 -9999 -9999 -9999 -9999 -9999 -9999 -9999 -9999 -9999 -9999 -9999
-9999 -9999 -9999 -9999 -9999 -9999 -9999 -9999 -9999 -9999 -9999 -9999 -9999 -9999 -9999 -9999 -9999 -9999 -9999 -9999 -9999 -9999 -9999 -9999 -9999 -9999 -9999 -9999 -9999 -9999 -9999 -9999 -9999 -9999 -9999 -9999 -9999 -9999 614.5696 611.775 609.0081 606.1044 603.0257 599.8085 596.8211 594.5477 593.3329 592.6919 591.8738 590.3708 588.2048 585.7311 583.1681 580.9084 579.2521 578.2264 577.4342 575.787 573.6354 571.106 568.3653 565.5709 562.8585 560.1683 557.5239 555.2135 553.4092 552.1208 551.3524 550.8051 550.611 550.5884 550.6035 550.6199 550.6519 550.7495 550.9862 551.3944 551.6241 551.7895 551.9761 552.0861 552.1266 552.1327 552.1073 552.0706 552.0594 552.1723 552.5308 553.157 553.4817 553.5637 553.5619 553.6451 553.9599 554.4139 554.9608 555.2103 555.6173 556.0714 556.6366 557.3758 558.2548 559.1236 559.7917 560.3698 560.8896 561.3814 561.8564 562.0945 561.8699 561.5151 561.249 560.9669 560.7851 560.5167 560.2805 560.1412 560.106 560.1442 560.2204 560.3143 560.4227 560.5531 560.7014 560.8539 561.0591 561.2523 561.2688 561.447 561.6085 561.847 562.1074 562.3473 562.5824 562.8387 563.0983 563.2394 563.3038 563.3405 563.3965 563.4883 563.605 563.7698 563.9845 564.2883 564.5636 565.0414 565.6703 566.4421 567.3869 568.5425 569.7809 571.0972 572.7388 573.9237 575.0587 576.4828 578.4026 580.9506 584.1458 587.9564 591.5732 594.4016 596.1642 597.1293 -9999 -9999 -9999 -9999 -9999 -9999 -9999 -9999 -9999 -9999 -9999 -9999 -9999 -9999 -9999 -9999 -9999 -9999
-9999 -9999 -9999 -9999 -9999 -9999 -9999 -9999 -9999 -9999 -9999 -9999 -9999 -9999 -9999 -9999 -9999 -9999 -9999 -9999 -9999 -9999 -9999 -9999 -9999 -9999 -9999 -9999 -9999 -9999 -9999 -9999 -9999 -9999 -9999 -9999 -9999 -9999 -9999 -9999 -9999 609.3171 606.8568 604.2854 601.9522 600.2083 599.3942 599.0931 598.4126 596.9009 594.5914 591.7398 588.6942 585.9335 583.8563 582.3076 580.9016 578.9921 576.6417 573.8755 570.8934 567.8652 564.8943 561.9838 559.2197 556.8824 555.0839 553.8361 553.1237 552.6735 552.5242 552.4926 552.4694 552.4572 552.4681 552.5419 552.75 553.1399 553.3726 553.5037 553.6224 553.718 553.7582 553.7576 553.7156 553.6736 553.6658 553.7806 554.1403 554.7461 555.0444 555.1155 555.0928 555.0839 555.1702 555.3585 555.7075 555.9313 556.2556 556.733 557.4242 558.3351 559.4066 560.3817 560.9889 561.5242 561.9769 562.5898 563.168 563.6035 563.0114 562.0408 561.2876 560.809 560.5113 560.2836 560.1341 560.0822 560.1172 560.2087 560.3193 560.4363 560.5635 560.726 560.9054 561.0275 561.2568 561.4695 561.6264 561.874 562.1797 562.54 562.9178 563.2139 563.4716 563.7783 564.1626 564.3343 564.392 564.3825 564.3914 564.434 564.439 564.4586 564.4713 564.6987 564.9255 565.2612 565.7505 566.4252 567.3021 568.2577 569.3466 570.5812 572.0459 573.3427 574.3543 575.543 577.0703 579.0637 581.5862 585.108 588.9848 592.4846 595.0663 596.5693 -9999 -9999 -9999 -9999 -9999 -9999 -9999 -9999 -9999 -9999 -9999 -9999 -9999 -9999 -9999 -9999 -9999 -9999
-9999 -9999 -9999 -9999 -9999 -9999 -9999 -9999 -9999 -9999 -9999 -9999 -9999 -9999 -9999 -9999 -9999 -9999 -9999 -9999 -9999 -9999 -9999 -9999 -9999 -9999 -9999 -9999 -9999 -9999 -9999 -9999 -9999 -9999 -9999 -9999 -9999 -9999 -9999 -9999 -9999 -9999 -9999 607.7813 606.1509 604.9845 604.5906 604.6265 604.2144 602.9096 600.7322 597.9246 594.8683 592.002 589.5848 587.4948 585.4441 583.0891 580.3794 577.4329 574.2131 570.9316 567.693 564.5461 561.597 559.0609 557.1523 555.902 555.329 555.0804 554.9807 554.8981 554.7621 554.6788 554.6528 554.6788 554.7833 554.9581 555.0704 555.1545 555.2823 555.4582 555.5404 555.5526 555.5283 555.5007 555.4907 555.5568 555.8004 556.277 556.5504 556.6335 556.6105 556.5679 556.5734 556.6485 556.7801 556.9009 557.1639 557.7052 558.6017 559.752 560.9549 561.9352 562.7372 563.5657 564.0291 564.265 564.3242 564.229 563.5936 562.179 561.23 560.6523 560.3235 560.1396 560.0718 560.1049 560.2161 560.3629 560.5054 560.6374 560.7661 560.9763 561.2381 561.2975 561.5749 561.8762 562.1917 562.575 563.0516 563.5873 564.1786 564.5909 564.8708 565.1635 565.6155 565.8813 566.0182 565.9734 565.972 566.0548 566.0012 565.9604 565.7094 565.5713 565.5645 565.7079 566.0259 566.5545 567.3054 568.1449 569.1255 570.2509 571.4745 572.876 573.8463 574.9316 576.2516 577.8964 579.9373 582.6059 586.3138 590.2001 593.5455 595.8936 -9999 -9999 -9999 -9999 -9999 -9999 -9999 -9999 -9999 -9999 -9999 -9999 -9999 -9999 -9999 -9999 -9999 -9999
-9999 -9999 -9999 -9999 -9999 -9999 -9999 -9999 -9999 -9999 -9999 -9999 -9999 -9999 -9999 -9999 -9999 -9999 -9999 -9999 -9999 -9999 -9999 -9999 -9999 -9999 -9999 -9999 -9999 -9999 -9999 -9999 -9999 -9999 -9999 -9999 -9999 -9999 -9999 -9999 -9999 -9999 -9999 -9999 609.3662 608.6561 608.5656 608.8342 608.6897 607.7405 605.8894 603.4645 600.8384 598.2467 595.7821 593.3296 590.7609 587.9713 584.955 581.7858 578.3003 574.7643 571.2648 567.8748 564.7209 561.9906 559.8702 558.58 557.9978 557.7347 557.5171 557.2632 556.8731 556.6522 556.5677 556.5568 556.5972 556.6729 556.7441 556.8645 557.124 557.5355 557.7057 557.7422 557.7307 557.7103 557.6964 557.7186 557.8311 558.0363 558.1705 558.2215 558.1844 558.1321 558.1055 558.1161 558.1429 558.194 558.4426 559.1185 560.3942 561.691 563.0239 564.2419 565.3092 566.2184 566.4349 565.9536 565.1249 564.1869 562.8737 561.5501 560.8596 560.4645 560.2173 560.1011 560.1078 560.2175 560.3984 560.6028 560.7639 560.9113 561.0055 561.2768 561.678 561.8965 562.1861 562.5735 563.0568 563.6146 564.3047 565.0322 565.9011 566.6686 567.1465 567.4271 567.6719 567.848 568.0225 567.8829 567.8297 567.8477 567.7933 567.6199 567.1913 566.7208 566.4753 566.4129 566.5322 566.8548 567.4062 568.1847 569.0555 569.8998 570.8198 572.2179 573.4227 574.5854 575.8079 577.1892 578.7414 580.476 583.8411 587.9238 591.9351 595.1769 597.188 -9999 -9999 -9999 -9999 -9999 -9999 -9999 -9999 -9999 -9999 -9999 -9999 -9999 -9999 -9999 -9999 -9999
-9999 -9999 -9999 -9999 -9999 -9999 -9999 -9999 -9999 -9999 -9999 -9999 -9999 -9999 -9999 -9999 -9999 -9999 -9999 -9999 -9999 -9999 -9999 -9999 -9999 -9999 -9999 -9999 -9999 -9999 -9999 -9999 -9999 -9999 -9999 -9999 -9999 -9999 -9999 -9999 -9999 -9999 -9999 -9999 -9999 -9999 -9999 611.897 611.886 611.2274 609.7451 607.8687 605.9225 603.8838 601.6948 599.1786 596.3651 593.3355 590.1414 586.7105 583.0399 579.3484 575.6058 571.9529 568.5737 565.6687 563.3231 561.7512 560.8983 560.3444 559.7759 559.3107 558.8633 558.6396 558.5623 558.5556 558.5869 558.6386 558.6873 558.7914 559.0522 559.5099 559.6697 559.7055 559.7001 559.6852 559.6675 559.6631 559.7002 559.7836 559.8636 559.9255 559.8533 559.7829 559.7343 559.7188 559.7286 559.8297 560.2271 561.1163 562.519 564.0439 565.4423 566.6927 567.8091 568.8324 568.7917 567.4687 565.6791 564.0306 562.2666 561.2565 560.7823 560.546 560.3259 560.2344 560.2815 560.433 560.6577 560.9092 561.0544 561.2436 561.2881 561.7223 562.3165 562.6576 563.0198 563.5638 564.2916 565.0728 566.0556 567.0757 567.9501 568.8168 569.5393 569.8662 569.9824 569.9998 569.9922 570.0186 570.0344 570.0461 569.9564 569.6198 568.8588 568.1225 567.7341 567.4799 567.3997 567.5056 567.9497 568.5781 569.3446 569.98 570.7639 572.0897 573.3305 574.4956 575.5461 576.4866 577.5039 578.9293 581.9159 585.9517 590.3484 594.2864 597.0591 -9999 -9999 -9999 -9999 -9999 -9999 -9999 -9999 -9999 -9999 -9999 -9999 -9999 -9999 -9999 -9999 -9999
-9999 -9999 -9999 -9999 -9999 -9999 -9999 -9999 -9999 -9999 -9999 -9999 -9999 -9999 -9999 -9999 -9999 -9999 -9999 -9999 -9999 -9999 -9999 -9999 -9999 -9999 -9999 -9999 -9999 -9999 -9999 -9999 -9999 -9999 -9999 -9999 -9999 -9999 -9999 -9999 -9999 -9999 -9999 -9999 -9999 -9999 -9999 -9999 614.2044 613.715 612.501 611.1248 609.8604 608.4466 606.7076 604.4011 601.6499 598.6799 595.5822 592.2239 588.5559 584.6589 580.6997 576.7373 573.0532 569.8794 567.2215 565.2501 563.9628 562.9692 562.1118 561.5921 561.2632 561.0769 561.0038 561.0075 561.0809 561.1995 561.2787 561.3502 561.4901 561.6941 561.7766 561.7961 561.8011 561.8008 561.7822 561.7621 561.7549 561.7665 561.789 561.8095 561.7825 561.7546 561.7303 561.7103 561.7061 561.7939 562.194 563.2218 564.7773 566.5366 568.0096 569.0415 569.624 570.1624 569.8856 568.4885 566.2113 564.4451 562.9049 561.8262 561.3685 561.1327 560.7587 560.6113 560.6412 560.7668 560.9642 561.2402 561.266 561.4412 561.6711 562.1758 562.8462 563.4645 564.0214 564.8576 565.9635 567.1124 568.1541 569.2922 570.1027 570.7932 571.4879 571.8077 571.8522 571.7783 571.7767 571.8313 571.8745 571.8846 571.7604 571.3499 570.5968 570.0413 569.6171 569.0815 568.8053 568.7737 568.9775 569.3369 569.8565 570.526 571.43 572.5211 573.4862 574.5668 575.5178 576.2305 576.9293 578.0067 580.5961 584.5188 589.0928 593.4224 596.7164 -9999 -9999 -9999 -9999 -9999 -9999 -9999 -9999 -9999 -9999 -9999 -9999 -9999 -9999 -9999 -9999 -9999
-9999 -9999 -9999 -9999 -9999 -9999 -9999 -9999 -9999 -9999 -9999 -9999 -9999 -9999 -9999 -9999 -9999 -9999 -9999 -9999 -9999 -9999 -9999 -9999 -9999 -9999 -9999 -9999 -9999 -9999 -9999 -9999 -9999 -9999 -9999 -9999 -9999 -9999 -9999 -9999 -9999 -9999 -9999 -9999 -9999 -9999 -9999 -9999 -9999 -9999 614.5276 613.5529 612.7326 611.756 610.415 608.4377 605.9671 603.3151 600.6851 597.7452 594.3303 590.4594 586.3254 582.1082 578.0576 574.4893 571.4338 569.0672 567.3301 565.9803 564.9095 564.3087 563.9756 563.7157 563.5778 563.551 563.6835 563.9513 564.1106 564.184 564.2447 564.3154 564.3483 564.3702 564.4045 564.4334 564.3984 564.3519 564.3159 564.2938 564.2961 564.312 564.3181 564.3238 564.3279 564.314 564.2748 564.2664 564.4911 565.3323 566.8884 568.7407 569.788 570.2755 570.3724 570.6541 570.4891 569.4686 567.3685 565.6998 564.4623 563.5719 562.8511 562.1927 561.5463 561.3132 561.2641 561.2639 561.2806 561.4366 561.5344 561.7534 562.1245 562.7358 563.5255 564.3805 565.2689 566.6006 567.911 569.2604 570.2577 571.1508 571.8745 572.4731 573.1149 573.382 573.4208 573.3887 573.3879 573.4119 573.4318 573.4297 573.3217 572.9468 572.1891 571.7342 571.2908 570.7006 570.4075 570.3276 570.3627 570.476 570.7727 571.5134 572.4071 573.2491 573.8552 574.667 575.5889 576.3646 577.155 578.2216 580.0736 583.7366 588.3722 592.9955 596.7039 598.9257 -9999 -9999 -9999 -9999 -9999 -9999 -9999 -9999 -9999 -9999 -9999 -9999 -9999 -9999 -9999 -9999
-9999 -9999 -9999 -9999 -9999 -9999 -9999 -9999 -9999 -9999 -9999 -9999 -9999 -9999 -9999 -9999 -9999 -9999 -9999 -9999 -9999 -9999 -9999 -9999 -9999 -9999 -9999 -9999 -9999 -9999 -9999 -9999 -9999 -9999 -9999 -9999 -9999 -9999 -9999 -9999 -9999 -9999 -9999 -9999 -9999 -9999 -9999 -9999 -9999 -9999 -9999 -9999 -9999 -9999 -9999 610.9177 608.7756 606.5807 604.852 602.6573 599.7376 596.167 592.114 587.7485 583.4648 579.4927 575.9891 573.1807 571.0287 569.3785 568.0569 567.2827 566.8381 566.4585 566.2165 566.0654 566.1628 566.5103 566.7202 566.8118 566.8543 566.8834 566.9029 566.9443 567.0363 567.1335 567.0389 566.9316 566.8496 566.7891 566.7929 566.8409 566.8897 566.9223 566.927 566.8881 566.7633 566.5768 566.4706 567.0831 568.3622 569.81 570.5509 570.6509 570.4023 570.5764 570.6704 570.21 568.9602 567.6384 566.387 565.8067 564.8892 563.8431 562.9808 562.5344 562.2471 562.0541 561.8782 561.8638 561.9749 562.2777 562.7933 563.5735 564.5842 565.7875 567.0362 568.4267 569.8141 571.0024 571.9199 572.6018 573.2211 573.6163 574.1453 574.4725 574.6064 574.6724 574.7281 574.7672 574.7712 574.7083 574.529 574.1582 573.6269 573.3132 572.9393 572.3373 572.0276 571.9316 571.9204 571.9696 572.1583 572.6338 573.2898 573.6849 574.1036 574.6672 575.512 576.4117 577.4431 578.6232 579.9541 583.4498 588.1395 592.998 597.041 599.6824 -9999 -9999 -9999 -9999 -9999 -9999 -9999 -9999 -9999 -9999 -9999 -9999 -9999 -9999 -9999 -9999
-9999 -9999 -9999 -9999 -9999 -9999 -9999 -9999 -9999 -9999 -9999 -9999 -9999 -9999 -9999 -9999 -9999 -9999 -9999 -9999 -9999 -9999 -9999 -9999 -9999 -9999 -9999 -9999 -9999 -9999 -9999 -9999 -9999 -9999 -9999 -9999 -9999 -9999 -9999 -9999 -9999 -9999 -9999 -9999 -9999 -9999 -9999 -9999 -9999 -9999 -9999 -9999 -9999 -9999 -9999 -9999 -9999 608.3604 607.8853 606.5291 604.2197 601.1824 597.5233 593.3505 588.9865 584.769 580.9166 577.6235 575.0458 573.0071 571.413 570.3463 569.6887 569.242 568.8889 568.5073 568.4427 568.6105 568.7645 568.8548 568.9042 568.9249 568.9229 568.9513 569.0988 569.3253 569.0994 568.9068 568.7676 568.6504 568.6793 568.812 568.9435 568.999 568.9403 568.7676 568.4056 567.9156 567.4031 567.3955 567.8679 569.131 570.2736 570.5886 570.4013 570.4004 570.5416 570.4146 569.9354 568.665 567.2458 567.8754 567.1522 565.7147 564.5595 563.9421 563.3475 562.9276 562.5934 562.4989 562.6598 563.1049 563.8078 564.8311 566.1362 567.5374 568.8458 570.149 571.3439 572.3787 573.1696 573.5805 574.0679 574.4764 574.9425 575.3589 575.6772 575.8324 576.0267 576.1689 576.184 576.0306 575.7626 575.3911 574.9695 574.6063 574.1809 573.6494 573.4265 573.3539 573.3253 573.3167 573.3375 573.4247 573.6926 573.9097 574.232 574.7229 575.2475 575.8992 576.5956 577.5166 579.5756 583.2895 588.0906 593.1212 597.4301 -9999 -9999 -9999 -9999 -9999 -9999 -9999 -9999 -9999 -9999 -9999 -9999 -9999 -9999 -9999 -9999 -9999
-9999 -9999 -9999 -9999 -9999 -9999 -9999 -9999 -9999 -9999 -9999 -9999 -9999 -9999 -9999 -9999 -9999 -9999 -9999 -9999 -9999 -9999 -9999 -9999 -9999 -9999 -9999 -9999 -9999 -9999 -9999 -9999 -9999 -9999 -9999 -9999 -9999 -9999 -9999 -9999 -9999 -9999 -9999 -9999 -9999 -9999 -9999 -9999 -9999 -9999 -9999 -9999 -9999 -9999 -9999 -9999 -9999 -9999 610.52 609.3444 607.4397 605.1487 602.1677 598.5238 594.4663 590.2922 586.2023 582.5726 579.4631 577.027 575.0683 573.4563 572.301 571.5563 571.0734 570.7177 570.6185 570.6757 570.7524 570.8073 570.8406 570.825 570.7136 570.5637 570.565 570.6694 570.5414 570.4422 570.3766 570.3326 570.3849 570.5609 570.7942 570.8484 570.6273 570.2272 569.5508 568.7873 567.8938 567.3664 567.4955 568.1357 569.5031 570.2301 570.404 570.4 570.4003 570.4011 570.1519 569.4264 568.1813 568.9133 568.9993 567.6571 566.0223 565.2601 564.275 563.6542 563.3469 563.3233 563.6348 564.3248 565.2777 566.6501 568.0282 569.5023 570.6368 571.7079 572.5684 573.3535 573.9053 574.3125 574.7211 575.0939 575.5494 576.0796 576.6568 576.9692 577.5223 577.9475 578.0747 577.7738 577.3259 576.8365 576.3372 575.8903 575.4171 574.8988 574.5758 574.348 574.1671 574.0522 573.9484 573.8263 573.9677 574.1719 574.47 574.8412 575.2286 575.6224 576.0342 576.9378 579.3583 583.1948 588.0082 593.1181 597.62 -9999 -9999 -9999 -9999 -9999 -9999 -9999 -9999 -9999 -9999 -9999 -9999 -9999 -9999 -9999 -9999 -9999
-9999 -9999 -9999 -9999 -9999 -9999 -9999 -9999 -9999 -9999 -9999 -9999 -9999 -9999 -9999 -9999 -9999 -9999 -9999 -9999 -9999 -9999 -9999 -9999 -9999 -9999 -9999 -9999 -9999 -9999 -9999 -9999 -9999 -9999 -9999 -9999 -9999 -9999 -9999 -9999 -9999 -9999 -9999 -9999 -9999 -9999 -9999 -9999 -9999 -9999 -9999 -9999 -9999 -9999 -9999 -9999 -9999 -9999 -9999 -9999 609.4646 608.0704 605.9076 602.9844 599.5303 595.774 591.7948 587.9562 584.54 581.7166 579.2905 576.9169 575.1442 574.0482 573.4586 573.1766 573.1038 573.1237 573.1477 573.1556 573.1454 573.0482 572.7053 572.1968 571.978 571.9548 571.9052 571.8704 571.8453 571.8442 571.9613 572.2985 572.8039 572.8923 572.3102 571.412 570.3204 569.2382 568.2193 567.5093 567.3612 567.6018 568.325 569.7132 570.3086 570.4003 570.4 570.3979 570.0813 569.3437 569.3027 569.84 569.9976 569.2276 567.3773 565.7654 564.7754 564.3655 564.2665 564.4231 564.9756 566.0172 567.2966 568.6589 570.0073 571.2246 572.2378 573.0859 573.5317 574.0027 574.4005 574.8514 575.2654 575.5951 576.0425 576.6152 577.3129 578.1636 579.5074 580.5969 580.9174 580.4694 579.6308 578.6708 577.8784 577.2523 576.6674 576.004 575.53 575.123 574.7871 574.6017 574.5074 574.3788 574.3333 574.4849 574.7812 575.106 575.4133 575.7867 576.0491 577.0219 579.4528 583.1171 587.7148 592.7769 597.6288 -9999 -9999 -9999 -9999 -9999 -9999 -9999 -9999 -9999 -9999 -9999 -9999 -9999 -9999 -9999 -9999 -9999
-9999 -9999 -9999 -9999 -9999 -9999 -9999 -9999 -9999 -9999 -9999 -9999 -9999 -9999 -9999 -9999 -9999 -9999 -9999 -9999 -9999 -9999 -9999 -9999 -9999 -9999 -9999 -9999 -9999 -9999 -9999 -9999 -9999 -9999 -9999 -9999 -9999 -9999 -9999 -9999 -9999 -9999 -9999 -9999 -9999 -9999 -9999 -9999 -9999 -9999 -9999 -9999 -9999 -9999 -9999 -9999 -9999 -9999 -9999 -9999 -9999 610.5115 608.8353 606.5601 603.8106 600.7833 597.2925 593.5497 589.9381 586.7228 584.0002 581.0147 578.6834 577.1746 576.3653 576.0363 575.9427 575.8961 575.8 575.6571 575.4974 575.2402 574.5155 573.7659 573.4304 573.3674 573.3788 573.3914 573.3715 573.351 573.4535 573.8555 574.5488 574.7997 573.9708 572.5953 570.9996 569.6555 568.5104 567.7181 567.3563 567.373 567.6375 568.8146 570.0424 570.4301 570.4 570.4 570.3901 570.1194 570.2869 570.4025 570.4023 569.8979 568.3235 566.9698 566.0509 565.5513 565.5223 565.9579 566.8623 568.014 569.4081 570.5903 571.71 572.5856 573.3922 573.9739 574.3003 574.5939 574.9204 575.3723 575.8403 576.132 576.6514 577.4184 578.463 580.2484 582.1955 583.457 583.6387 582.9478 581.6505 580.725 579.5634 578.6732 577.6649 577.0515 576.4487 575.857 575.387 575.1692 575.1263 574.9783 574.7363 574.8278 575.1968 575.4895 575.6976 575.9771 576.3621 577.5816 579.7606 582.9396 587.055 591.8801 -9999 -9999 -9999 -9999 -9999 -9999 -9999 -9999 -9999 -9999 -9999 -9999 -9999 -9999 -9999 -9999 -9999 -9999
-9999 -9999 -9999 -9999 -9999 -9999 -9999 -9999 -9999 -9999 -9999 -9999 -9999 -9999 -9999 -9999 -9999 -9999 -9999 -9999 -9999 -9999 -9999 -9999 -9999 -9999 -9999 -9999 -9999 -9999 -9999 -9999 -9999 -9999 -9999 -9999 -9999 -9999 -9999 -9999 -9999 -9999 -9999 -9999 -9999 -9999 -9999 -9999 -9999 -9999 -9999 -9999 -9999 -9999 -9999 -9999 -9999 -9999 -9999 -9999 -9999 -9999 610.8464 609.103 606.9214 604.8567 602.1891 598.8718 595.3084 591.7863 588.4769 585.3042 582.7631 581.0426 580.08 579.7035 579.5535 579.3731 579.0374 578.5793 578.1133 577.6622 576.589 575.6938 575.2509 575.144 575.202 575.2313 575.1411 575.0132 575.0711 575.5719 576.4193 576.9127 576.0204 574.1553 572.1316 570.3052 568.8936 567.9553 567.478 567.3593 567.4139 567.9957 569.335 570.2625 570.4014 570.4192 570.401 570.4178 570.4172 570.2784 570.0029 569.4058 568.3284 567.47 567.0847 566.6671 566.818 567.5339 568.6873 569.9786 571.1727 572.2171 573.0953 573.5715 574.1058 574.5527 574.8324 575.0641 575.3544 575.8167 576.4737 576.7839 577.507 578.7289 580.3094 582.4173 584.4728 585.472 585.5666 584.6895 583.4859 582.3738 581.3887 580.4847 579.3751 578.5965 577.7332 576.8194 576.1403 575.8807 575.8749 575.6303 575.1006 575.212 575.7468 576.0063 576.0311 576.3101 576.7928 577.9456 579.8707 582.5229 586.0388 590.4586 -9999 -9999 -9999 -9999 -9999 -9999 -9999 -9999 -9999 -9999 -9999 -9999 -9999 -9999 -9999 -9999 -9999 -9999
-9999 -9999 -9999 -9999 -9999 -9999 -9999 -9999 -9999 -9999 -9999 -9999 -9999 -9999 -9999 -9999 -9999 -9999 -9999 -9999 -9999 -9999 -9999 -9999 -9999 -9999 -9999 -9999 -9999 -9999 -9999 -9999 -9999 -9999 -9999 -9999 -9999 -9999 -9999 -9999 -9999 -9999 -9999 -9999 -9999 -9999 -9999 -9999 -9999 -9999 -9999 -9999 -9999 -9999 -9999 -9999 -9999 -9999 -9999 -9999 -9999 -9999 -9999 610.732 608.7274 607.8334 606.1389 603.5587 600.4185 596.9666 593.5196 590.3524 587.8237 586.0999 585.0757 584.6106 584.3437 583.9504 583.2537 582.2798 581.2686 580.3294 579.2258 578.3336 577.8594 577.7189 577.8182 577.8225 577.5579 577.1635 576.9893 577.4697 578.4702 579.2418 578.4594 576.1656 573.5694 571.103 569.3605 568.2194 567.5941 567.3595 567.3566 567.7458 568.7535 569.7043 570.3085 570.4065 570.5231 570.4617 570.1279 569.6867 569.175 568.525 567.7947 567.3658 567.3318 567.4973 568.0566 569.1185 570.3969 571.6172 572.5536 573.361 573.931 574.2694 574.601 574.8936 575.1468 575.3698 575.6345 576.0553 576.8488 577.7053 578.5303 579.8293 581.5224 583.4567 585.2997 586.1124 586.0117 585.2218 584.0957 583.0292 581.9962 580.9606 580.3759 580.4282 579.6317 578.3764 577.2335 576.7713 576.6653 576.0638 575.5959 575.5606 576.305 576.491 576.269 576.5175 577.0504 578.0956 579.8409 582.0614 584.9277 -9999 -9999 -9999 -9999 -9999 -9999 -9999 -9999 -9999 -9999 -9999 -9999 -9999 -9999 -9999 -9999 -9999 -9999 -9999
-9999 -9999 -9999 -9999 -9999 -9999 -9999 -9999 -9999 -9999 -9999 -9999 -9999 -9999 -9999 -9999 -9999 -9999 -9999 -9999 -9999 -9999 -9999 -9999 -9999 -9999 -9999 -9999 -9999 -9999 -9999 -9999 -9999 -9999 -9999 -9999 -9999 -9999 -9999 -9999 -9999 -9999 -9999 -9999 -9999 -9999 -9999 -9999 -9999 -9999 -9999 -9999 -9999 -9999 -9999 -9999 -9999 -9999 -9999 -9999 -9999 -9999 -9999 -9999 -9999 610.2784 609.1398 607.3343 604.9108 601.9041 598.726 595.8384 593.5646 592.0175 591.0273 590.4517 590.0067 589.4191 588.5062 587.3254 586.041 584.8155 583.6184 582.5828 581.8546 581.5486 581.6473 581.5568 580.9759 580.114 579.4992 580.0036 581.1336 581.9017 581.0917 578.5998 575.3328 572.199 569.9769 568.5482 567.738 567.3613 567.2648 567.386 568.02 568.8472 569.595 570.1794 570.3692 570.1568 569.4825 568.8528 568.2706 567.7181 567.3613 567.5939 567.9428 568.7674 569.775 570.7792 571.9747 573.0001 573.5331 574.0534 574.4369 574.6901 574.9082 575.1304 575.3544 575.597 575.8995 576.4003 577.5224 578.179 578.895 579.9543 581.3191 582.7858 584.3416 585.4201 585.422 584.8821 584.0008 583.124 582.3457 581.7305 581.5388 581.8534 581.5518 580.3592 578.9403 577.8446 577.0242 576.5065 576.3152 576.1871 575.981 576.2568 576.5732 576.8212 577.2443 578.1333 579.7225 581.6157 583.8961 -9999 -9999 -9999 -9999 -9999 -9999 -9999 -9999 -9999 -9999 -9999 -9999 -9999 -9999 -9999 -9999 -9999 -9999 -9999
-9999 -9999 -9999 -9999 -9999 -9999 -9999 -9999 -9999 -9999 -9999 -9999 -9999 -9999 -9999 -9999 -9999 -9999 -9999 -9999 -9999 -9999 -9999 -9999 -9999 -9999 -9999 -9999 -9999 -9999 -9999 -9999 -9999 -9999 -9999 -9999 -9999 -9999 -9999 -9999 -9999 -9999 -9999 -9999 -9999 -9999 -9999 -9999 -9999 -9999 -9999 -9999 -9999 -9999 -9999 -9999 -9999 -9999 -9999 -9999 -9999 -9999 -9999 -9999 -9999 -9999 611.1415 610.076 608.5013 606.1878 603.592 601.2534 599.4433 598.1642 597.259 596.5725 595.9211 595.2233 594.3051 593.2016 591.9703 590.7462 589.5795 588.4997 587.64 587.1412 586.9946 586.6809 585.6254 584.1162 582.8803 582.6709 583.2137 583.3833 582.6407 580.5968 577.1176 573.4574 570.6514 568.9314 567.9705 567.5084 567.3561 567.2507 567.4122 567.9249 568.4571 569.0187 569.4191 568.9959 568.4094 567.9602 567.5953 567.3605 567.6835 568.957 569.5059 570.4141 571.4464 572.3305 573.2303 573.8334 574.1853 574.4889 574.7491 574.9368 575.1067 575.3009 575.5493 575.839 576.1573 576.5751 577.4083 578.0087 578.5758 579.2489 580.243 581.3951 582.5619 583.6081 -9999 -9999 583.4285 582.8942 582.4877 582.3517 582.5977 583.1854 583.3314 582.472 581.1815 579.8149 578.5598 577.9199 577.7274 577.6446 577.5369 577.6011 577.4587 577.2866 577.3978 578.0352 579.3691 581.0243 -9999 -9999 -9999 -9999 -9999 -9999 -9999 -9999 -9999 -9999 -9999 -9999 -9999 -9999 -9999 -9999 -9999 -9999 -9999 -9999
