ncols         400
nrows         27
xllcorner     470200
yllcorner     6194350
cellsize      50
NODATA_value  -9999
-9999 -9999 -9999 -9999 -9999 -9999 -9999 -9999 -9999 -9999 -9999 -9999 -9999 -9999 -9999 -9999 -9999 -9999 -9999 -9999 637.0084 636.8816 636.8698 637.0062 637.3446 637.8824 637.9626 637.9018 637.7571 637.5735 637.3943 637.252 637.1929 637.1286 637.0683 637.0172 636.9758 636.9435 636.9183 636.8983 636.8803 636.8619 636.8411 636.8171 636.791 636.7648 636.741 636.7209 636.7047 636.6888 636.6724 636.6545 636.6344 636.6127 636.5892 636.5627 636.5319 636.4968 636.4623 636.43 636.3998 636.3707 636.348 636.3375 636.3318 636.3112 636.277 636.2377 636.2035 636.1819 636.1651 636.1478 636.1169 636.0613 635.9908 635.9071 635.8354 635.7806 635.7435 635.7295 635.7523 635.8299 635.975 636.1903 636.4638 636.7638 637.0425 637.238 637.2515 637.3022 637.3311 637.396 637.4641 637.5026 637.5547 637.6519 637.8429 638.1506 638.5221 638.7421 638.7461 638.5669 638.4199 638.2969 638.6104 639.224 639.9928 640.6741 641.1323 641.3058 641.2606 641.0193 640.6698 640.2354 639.7534 639.2206 638.5281 637.8828 637.4907 637.4504 637.6555 637.9294 637.7844 637.4102 637.235 637.0393 636.99 636.9856 636.9797 636.9667 636.9459 636.9151 636.8895 636.9419 637.164 637.377 637.749 638.2181 638.725 639.1453 639.6279 640.5055 641.193 641.8229 642.2539 642.6215 643.0254 643.2291 643.0831 643.1281 643.4714 643.9215 644.2461 644.4725 644.6869 644.8962 645.028 -9999 -9999 -9999 -9999 -9999 -9999 -9999 -9999 -9999 -9999 -9999 -9999 -9999 -9999 -9999 -9999 -9999 -9999 -9999 -9999 -9999 -9999 -9999 -9999 -9999 -9999 -9999 -9999 -9999 -9999 -9999 -9999 -9999 -9999 -9999 -9999 -9999 -9999 -9999 -9999 -9999 -9999 -9999 -9999 -9999 -9999 -9999 -9999 -9999 -9999 -9999 -9999 -9999 -9999 -9999 -9999 -9999 -9999 -9999 -9999 -9999 -9999 -9999 -9999 -9999 -9999 -9999 -9999 -9999 -9999 -9999 -9999 -9999 -9999 -9999 -9999 -9999 -9999 -9999 -9999 -9999 -9999 -9999 -9999 -9999 -9999 -9999 -9999 643.7245 643.9874 644.1854 644.226 643.8659 643.0592 642.0201 640.9962 640.2783 639.9215 640.0734 640.2935 640.3779 640.1058 639.6708 639.4401 639.3576 639.4601 639.5438 639.5135 639.3361 638.9135 638.3716 638.3268 638.5894 638.7797 638.8666 638.4532 638.1628 638.0009 637.8972 637.787 637.6072 637.4479 637.266 637.2455 637.2497 637.2424 637.1283 637.0826 637.0817 637.1112 637.1675 637.2482 637.2498 637.2501 637.2791 637.2811 637.2501 637.2477 637.2444 637.2456 637.2607 637.2551 637.2149 637.0073 636.8975 636.8757 636.8671 636.807 636.6622 636.5431 636.467 636.4161 636.3586 636.2584 636.2028 636.1812 636.1801 636.1951 636.2147 636.2404 636.2791 636.3356 636.4022 636.4626 636.4993 636.4987 636.4596 636.3966 636.3331 636.2805 636.2369 636.1977 636.1511 636.0923 636.0438 636.0271 636.04 636.0571 636.0486 636.007 635.9687 635.9563 635.9595 635.9821 636.0213 636.0568 636.098 636.1201 636.0317 635.9174 635.9362 636.1355 636.375 636.4898 636.4645 636.3558 636.2404 636.1389 636.0818 636.0253 635.9957 635.9459 635.9288 635.9373 635.9586 636.0014 636.0668 636.1289 636.168 636.1927 636.2213 636.2614 636.3311 636.4739 636.6809 636.9211 637.2615 637.8608 638.6052 639.3059 640.0908 641.3397 641.9072 642.0271 642.0005 641.9998 -9999 -9999 -9999 -9999 -9999 -9999 -9999 -9999 -9999 -9999 -9999 -9999 -9999 -9999 -9999 -9999 -9999
-9999 -9999 -9999 -9999 -9999 -9999 -9999 -9999 -9999 -9999 -9999 -9999 -9999 -9999 -9999 -9999 -9999 -9999 -9999 -9999 636.9995 636.9187 636.8866 636.98 637.149 637.5542 637.7902 637.7911 637.6619 637.4879 637.3344 637.2489 637.1656 637.0961 637.0371 636.988 636.9484 636.9174 636.8932 636.8739 636.8567 636.8391 636.8192 636.7959 636.7705 636.745 636.7219 636.7037 636.6903 636.679 636.667 636.6548 636.6428 636.631 636.6201 636.6075 636.5932 636.5769 636.5605 636.5455 636.5318 636.5183 636.5063 636.4991 636.4906 636.4491 636.3972 636.3429 636.2914 636.2488 636.2161 636.1839 636.1483 636.099 636.0317 635.9559 635.876 635.8057 635.7542 635.7257 635.7285 635.7766 635.8838 636.0547 636.2812 636.5419 636.8 637.0095 637.1291 637.2454 637.2504 637.2875 637.2963 637.2988 637.3091 637.3536 637.4551 637.621 637.8055 637.8995 637.8563 637.7114 637.5918 637.5499 637.7589 638.1564 638.6196 639.1387 639.3318 639.3588 639.2568 639.0034 638.6998 638.3837 637.9788 637.6465 637.3188 636.9864 636.7774 636.7654 636.9016 637.0707 637.0762 636.9684 636.9017 636.8263 636.796 636.7858 636.7742 636.755 636.7255 636.6853 636.6453 636.64 636.6982 636.7703 636.9406 637.202 637.4671 637.7936 638.3409 639.0508 639.386 639.7369 640.1102 640.5179 641.0437 641.4827 641.5944 641.9296 642.5327 643.1788 643.8251 644.3799 644.888 645.1305 645.2593 645.4319 645.6789 645.9849 646.1654 -9999 -9999 -9999 -9999 -9999 -9999 -9999 -9999 -9999 -9999 -9999 -9999 -9999 -9999 -9999 -9999 -9999 -9999 -9999 -9999 -9999 -9999 -9999 -9999 -9999 -9999 -9999 -9999 -9999 -9999 -9999 -9999 -9999 -9999 -9999 -9999 -9999 -9999 -9999 -9999 -9999 -9999 -9999 -9999 -9999 -9999 -9999 -9999 -9999 -9999 -9999 -9999 -9999 -9999 -9999 -9999 -9999 -9999 -9999 -9999 -9999 -9999 -9999 -9999 -9999 -9999 -9999 -9999 -9999 -9999 -9999 -9999 -9999 -9999 -9999 -9999 -9999 -9999 -9999 -9999 -9999 -9999 643.0561 643.1028 643.4102 643.672 643.8039 643.6931 643.015 642.0404 641.0645 640.2453 639.901 639.8353 639.826 639.7867 639.7767 639.4562 639.0064 638.7762 638.5178 638.3088 638.2545 638.231 638.1641 637.9907 637.7349 637.7049 637.8635 638.0099 638.0489 637.8451 637.6683 637.5507 637.462 637.393 637.2638 637.2362 637.1046 637.0648 637.0654 637.0586 636.9963 636.9548 636.9498 636.9808 637.0408 637.1122 637.1488 637.1884 637.2484 637.2465 637.1483 637.0837 637.0407 636.9957 636.9664 636.9565 636.9104 636.7731 636.6672 636.6012 636.5573 636.4962 636.3945 636.298 636.2267 636.1711 636.1361 636.0765 636.027 636.0148 636.0146 636.0233 636.0393 636.0591 636.0912 636.1409 636.2042 636.2672 636.3136 636.3306 636.3145 636.2737 636.2263 636.1857 636.1542 636.1301 636.1068 636.08 636.0582 636.0575 636.0856 636.1285 636.1613 636.1642 636.1531 636.1589 636.1685 636.1821 636.2122 636.2534 636.2877 636.3303 636.3011 636.1798 636.0908 636.1217 636.2524 636.3809 636.4137 636.3575 636.2619 636.1628 636.0864 636.0305 635.9961 635.9556 635.9255 635.9161 635.937 635.9967 636.0895 636.1868 636.2589 636.312 636.3623 636.4163 636.4748 636.5779 636.7366 636.9361 637.2454 637.7645 638.2192 638.7173 639.3582 640.6974 641.6107 641.9982 642.0666 642.0338 -9999 -9999 -9999 -9999 -9999 -9999 -9999 -9999 -9999 -9999 -9999 -9999 -9999 -9999 -9999 -9999 -9999
-9999 -9999 -9999 -9999 -9999 -9999 -9999 -9999 -9999 -9999 -9999 -9999 -9999 -9999 -9999 -9999 -9999 -9999 -9999 637 637.004 636.9998 637.0092 637.2761 637.7579 637.8513 637.8612 637.7628 637.591 637.4039 637.2524 637.1874 637.1213 637.059 637.0041 636.9579 636.9202 636.8903 636.8668 636.848 636.8313 636.8143 636.7949 636.7726 636.7479 636.7229 636.7003 636.6835 636.6735 636.6658 636.6577 636.6489 636.6436 636.6395 636.64 636.64 636.64 636.64 636.64 636.64 636.64 636.64 636.64 636.6401 636.6384 636.5682 636.4991 636.4361 636.3771 636.3226 636.2783 636.2383 636.196 636.1477 636.0895 636.021 635.9479 635.8744 635.8087 635.7598 635.7365 635.7513 635.8163 635.938 636.1111 636.3203 636.5414 636.7451 636.912 637.0592 637.1526 637.2476 637.2501 637.2593 637.2498 637.256 637.29 637.3572 637.4307 637.4553 637.3997 637.2869 637.1874 637.1605 637.2858 637.5486 637.8846 638.2231 638.1833 638.1152 638.0043 637.7733 637.478 637.2961 637.1182 636.9698 636.8297 636.6874 636.5944 636.5898 636.6656 636.7628 636.7993 636.7802 636.754 636.7154 636.6848 636.6609 636.6366 636.609 636.575 636.5326 636.4861 636.4468 636.4238 636.4139 636.4581 636.5611 636.6973 636.9059 637.2296 637.5505 637.7291 637.9644 638.3308 638.6746 639.057 639.5397 639.7821 640.3757 641.1266 641.9396 642.7555 643.5301 644.1508 644.5984 644.8268 645.0247 645.3365 645.6785 645.9008 645.957 646.0537 646.413 -9999 -9999 -9999 -9999 -9999 -9999 -9999 -9999 -9999 -9999 -9999 -9999 -9999 -9999 -9999 -9999 -9999 -9999 -9999 -9999 -9999 -9999 -9999 -9999 -9999 -9999 -9999 -9999 -9999 -9999 -9999 -9999 -9999 -9999 -9999 -9999 -9999 -9999 -9999 -9999 -9999 -9999 -9999 -9999 -9999 -9999 -9999 -9999 -9999 -9999 -9999 -9999 -9999 -9999 -9999 -9999 -9999 -9999 -9999 -9999 -9999 -9999 -9999 -9999 -9999 -9999 -9999 -9999 -9999 -9999 -9999 -9999 -9999 -9999 -9999 -9999 641.3938 641.8837 642.4047 642.6575 642.7883 642.9376 642.9255 642.7183 642.545 641.7801 640.8556 639.9337 639.2294 638.9976 638.9607 638.8743 638.7141 638.8597 638.723 638.2571 638.0626 637.9284 637.7059 637.5886 637.5488 637.5253 637.4661 637.3776 637.3795 637.4636 637.54 637.5392 637.468 637.3977 637.3373 637.2538 637.2424 637.1208 637.0526 636.968 636.9303 636.9243 636.9156 636.8804 636.8475 636.8359 636.8527 636.8944 636.9467 636.9891 637.0299 637.0632 637.0405 636.954 636.8688 636.8187 636.7712 636.7206 636.6824 636.6384 636.5579 636.4717 636.4077 636.3481 636.2821 636.2 636.1199 636.0562 636.01 635.9673 635.9568 635.9122 635.899 635.9021 635.9092 635.9205 635.9359 635.9581 635.9959 636.05 636.1108 636.1639 636.1983 636.2078 636.1946 636.1707 636.15 636.1371 636.132 636.132 636.1325 636.134 636.1455 636.179 636.2338 636.2926 636.3336 636.3505 636.3721 636.3997 636.4166 636.4409 636.4758 636.5142 636.5426 636.5531 636.4821 636.3641 636.2906 636.2891 636.3239 636.3511 636.3408 636.3007 636.2427 636.182 636.1299 636.0925 636.0582 636.0245 636.0002 636.0021 636.0444 636.1261 636.226 636.3115 636.3825 636.4548 636.5291 636.5923 636.6628 636.7687 636.8894 637.0431 637.2913 637.6557 638.1186 638.8096 639.9569 641.2429 641.8924 642.0596 642.0002 642 -9999 -9999 -9999 -9999 -9999 -9999 -9999 -9999 -9999 -9999 -9999 -9999 -9999 -9999 -9999 -9999
-9999 -9999 -9999 -9999 -9999 -9999 -9999 -9999 -9999 -9999 -9999 -9999 -9999 -9999 -9999 -9999 -9999 -9999 -9999 637 636.9916 636.9824 637.0093 637.3387 637.9432 638.0328 637.9388 637.7551 637.5368 637.3459 637.2484 637.1572 637.0847 637.0239 636.9719 636.9282 636.8923 636.8635 636.8406 636.8218 636.8053 636.7886 636.7698 636.7482 636.7244 636.7 636.6777 636.6616 636.6561 636.6524 636.6475 636.64 636.64 636.64 636.649 636.6598 636.671 636.6827 636.6944 636.7051 636.7144 636.7219 636.7267 636.7247 636.7049 636.6402 636.5751 636.5128 636.4534 636.3967 636.3436 636.3001 636.2565 636.2077 636.1528 636.0934 636.0299 635.9623 635.8934 635.8308 635.7837 635.7638 635.7842 635.8524 635.9679 636.1211 636.296 636.4764 636.6509 636.8172 636.9617 637.0922 637.1755 637.2492 637.25 637.2518 637.2502 637.2628 637.2791 637.2736 637.226 637.1394 637.0574 637.0237 637.0857 637.2426 637.449 637.6182 637.5963 637.5299 637.426 637.244 637.0411 636.9336 636.8818 636.8587 636.8335 636.7932 636.7615 636.7562 636.778 636.8072 636.8142 636.7941 636.7586 636.7094 636.6567 636.6069 636.5615 636.5191 636.4786 636.4366 636.3917 636.3428 636.29 636.2386 636.2108 636.2184 636.2596 636.3511 636.4921 636.6255 636.7245 636.8828 637.1318 637.3468 637.6318 638.0759 638.4174 638.8481 639.5314 640.2947 641.1138 641.936 642.6274 643.1503 643.5405 643.9191 644.3563 644.7618 644.9721 645.0579 645.0404 645.218 645.6257 645.8925 645.7751 645.4459 644.8643 644.3082 644.4542 645.0827 645.8469 -9999 -9999 -9999 -9999 -9999 -9999 -9999 -9999 -9999 -9999 -9999 -9999 -9999 -9999 -9999 -9999 -9999 -9999 -9999 -9999 -9999 -9999 -9999 -9999 -9999 -9999 -9999 -9999 -9999 -9999 -9999 -9999 -9999 -9999 -9999 -9999 -9999 -9999 -9999 -9999 -9999 -9999 -9999 -9999 -9999 -9999 -9999 -9999 -9999 -9999 -9999 -9999 -9999 -9999 -9999 -9999 -9999 -9999 -9999 -9999 -9999 -9999 -9999 -9999 -9999 641.6825 640.9653 640.8386 641.2794 641.9732 642.27 642.3083 642.1781 641.9189 641.5476 641.0446 640.3704 639.6146 638.8055 638.2395 638.0659 638.0497 638.0301 637.9965 638.0556 638.0078 637.7789 637.6293 637.5135 637.3656 637.2709 637.2418 637.2465 637.2486 637.2397 637.2587 637.2946 637.311 637.2562 637.2494 637.2494 637.2455 637.1464 637.0792 636.9812 636.9061 636.8457 636.819 636.8167 636.8143 636.7947 636.7673 636.7466 636.7424 636.7567 636.7823 636.8079 636.8287 636.8346 636.8004 636.7244 636.6477 636.5846 636.5573 636.5165 636.4645 636.4146 636.3567 636.2973 636.2398 636.1828 636.1213 636.0571 635.9937 635.9415 635.901 635.8723 635.8451 635.8501 635.8268 635.8276 635.8375 635.8488 635.8608 635.8766 635.9024 635.9442 635.9983 636.053 636.0989 636.1304 636.1454 636.1483 636.1507 636.1597 636.1758 636.1985 636.2249 636.2501 636.2756 636.3111 636.3651 636.4319 636.4954 636.5381 636.5697 636.6124 636.6432 636.6665 636.6967 636.7283 636.7579 636.7681 636.7341 636.6491 636.5477 636.4722 636.4283 636.3981 636.3715 636.3536 636.3427 636.3209 636.2906 636.2605 636.2303 636.1957 636.1601 636.1373 636.1418 636.182 636.2506 636.3231 636.3909 636.4736 636.5678 636.649 636.7062 636.7679 636.8316 636.8977 637.0068 637.2401 637.6152 638.2524 639.21 640.6111 641.6487 641.9974 642.0032 641.9579 -9999 -9999 -9999 -9999 -9999 -9999 -9999 -9999 -9999 -9999 -9999 -9999 -9999 -9999 -9999 -9999
-9999 -9999 -9999 -9999 -9999 -9999 -9999 -9999 -9999 -9999 -9999 -9999 -9999 -9999 -9999 -9999 -9999 -9999 -9999 636.9999 637.0264 637.067 637.13 637.3109 637.9449 638.0671 637.9464 637.7214 637.4706 637.2546 637.1761 637.1082 637.0457 636.9902 636.9418 636.9003 636.8659 636.8379 636.8152 636.7964 636.7798 636.7632 636.7449 636.7241 636.7013 636.678 636.6564 636.64 636.64 636.64 636.64 636.6359 636.6366 636.6416 636.6541 636.6705 636.6888 636.7084 636.7278 636.7457 636.7608 636.7722 636.778 636.7737 636.7505 636.6993 636.64 636.58 636.5218 636.4652 636.4116 636.3616 636.3192 636.2739 636.2216 636.1655 636.1093 636.0518 635.9885 635.9214 635.8593 635.8124 635.7928 635.8107 635.8693 635.9653 636.0902 636.2348 636.3931 636.5598 636.7256 636.8839 637.0187 637.1324 637.1996 637.2498 637.25 637.2498 637.2454 637.2355 637.2078 637.1445 637.0808 637.0403 637.0583 637.1406 637.2552 637.3394 637.3396 637.3142 637.2458 637.0963 636.9771 636.9415 636.9741 637.0351 637.0846 637.1014 637.095 637.0798 637.0607 637.0324 636.9882 636.9291 636.8585 636.7773 636.691 636.6086 636.5354 636.4724 636.4194 636.3744 636.3336 636.2906 636.2373 636.1752 636.1168 636.0751 636.0555 636.0637 636.0939 636.1248 636.16 636.2462 636.3999 636.5847 636.8566 637.2349 637.5916 637.9227 638.3984 638.8933 639.3884 640.0588 640.6666 641.2389 641.7985 642.2791 642.7832 643.2386 643.4614 643.5722 643.6044 643.7319 644.0989 644.2996 644.2429 644.1013 643.7439 643.2608 643.3123 643.86 644.5208 644.8362 644.5048 644.0884 644.1966 644.9556 645.9429 -9999 -9999 -9999 -9999 -9999 -9999 -9999 -9999 -9999 -9999 -9999 -9999 -9999 -9999 -9999 -9999 -9999 -9999 -9999 -9999 -9999 -9999 -9999 -9999 -9999 -9999 -9999 -9999 -9999 -9999 -9999 -9999 -9999 -9999 -9999 -9999 -9999 -9999 -9999 -9999 -9999 -9999 -9999 -9999 -9999 -9999 -9999 -9999 -9999 -9999 -9999 -9999 -9999 -9999 -9999 -9999 -9999 642.6842 641.7664 640.8478 640.2438 640.3993 640.9605 641.6164 641.7248 641.545 641.1058 640.5913 640.0008 639.407 638.9949 638.4905 637.9939 637.6312 637.4928 637.4824 637.505 637.5354 637.582 637.5701 637.4728 637.3839 637.3043 637.2195 637.1669 637.1611 637.1848 637.2151 637.2328 637.25 637.25 637.2482 637.1584 637.1134 637.0956 637.0727 636.9991 636.9247 636.8451 636.7814 636.7395 636.7267 636.7358 636.7469 636.7428 636.7222 636.6943 636.6694 636.6544 636.6495 636.6478 636.6426 636.6243 636.5838 636.5187 636.4496 636.397 636.3582 636.3435 636.31 636.2602 636.2106 636.1622 636.1165 636.0712 636.0181 635.9658 635.9178 635.8765 635.8456 635.8218 635.804 635.7909 635.7968 635.7929 635.8003 635.8149 635.8304 635.8453 635.864 635.8937 635.9371 635.9882 636.038 636.0825 636.12 636.1493 636.1749 636.2057 636.2433 636.2874 636.3371 636.387 636.4319 636.4745 636.5247 636.5869 636.6553 636.7147 636.7554 636.7997 636.8456 636.8742 636.9021 636.9286 636.9525 636.9675 636.9509 636.8873 636.7985 636.7064 636.6259 636.5591 636.5065 636.4738 636.4663 636.4739 636.4745 636.4642 636.4437 636.4122 636.3719 636.3307 636.2969 636.2815 636.2942 636.327 636.3693 636.4388 636.5393 636.6409 636.7069 636.7451 636.7727 636.8 636.8698 637.0182 637.3068 637.9023 638.7853 639.9844 641.1924 641.8488 641.9723 641.9139 -9999 -9999 -9999 -9999 -9999 -9999 -9999 -9999 -9999 -9999 -9999 -9999 -9999 -9999 -9999 -9999
-9999 -9999 -9999 -9999 -9999 -9999 -9999 -9999 -9999 -9999 -9999 -9999 -9999 -9999 -9999 -9999 -9999 -9999 636.9999 637.0016 637.1264 637.2936 637.5223 637.858 638.0758 638.0736 637.9099 637.6694 637.429 637.2505 637.1498 637.0759 637.0143 636.9609 636.9144 636.8745 636.8411 636.8135 636.7909 636.7721 636.7554 636.7389 636.7211 636.7013 636.6799 636.6587 636.64 636.6266 636.6241 636.6249 636.6264 636.6268 636.6303 636.6386 636.6532 636.673 636.6959 636.7202 636.7443 636.7668 636.7858 636.7992 636.8055 636.8015 636.782 636.7435 636.6939 636.64 636.5845 636.5298 636.4759 636.4254 636.379 636.3364 636.2899 636.2372 636.1832 636.1306 636.0763 636.0145 635.9476 635.8846 635.836 635.8128 635.8224 635.8667 635.9427 636.0464 636.1752 636.3259 636.4916 636.6625 636.8259 636.9727 637.0878 637.1741 637.2205 637.25 637.25 637.25 637.2499 637.2052 637.166 637.1248 637.1195 637.1579 637.2185 637.2543 637.2502 637.2493 637.1724 637.0784 637.0374 637.0679 637.1579 637.2756 637.3752 637.4298 637.4371 637.4103 637.3602 637.2905 637.2023 637.1003 636.9908 636.8756 636.7571 636.6432 636.542 636.4565 636.3855 636.3304 636.2883 636.2538 636.2137 636.1613 636.1008 636.0428 635.995 635.9591 635.9325 635.9083 635.8966 635.9285 636.0238 636.1854 636.437 636.7779 637.1335 637.3249 637.6608 637.9561 638.295 638.7182 639.1467 639.5438 640.1617 640.5215 640.913 641.3161 641.6224 641.8862 642.074 642.3062 642.7065 642.9182 642.9407 642.8649 642.6124 642.2063 642.2339 642.7051 643.1342 643.2363 642.8599 642.6003 642.9488 643.8619 644.8973 645.7211 646.16 646.5707 647.1879 647.7326 647.8188 647.4865 646.9689 646.5141 646.8364 647.4541 -9999 -9999 -9999 -9999 -9999 -9999 -9999 -9999 -9999 -9999 -9999 -9999 -9999 -9999 -9999 -9999 -9999 -9999 -9999 -9999 -9999 -9999 -9999 -9999 -9999 -9999 -9999 -9999 -9999 -9999 -9999 -9999 -9999 -9999 -9999 -9999 -9999 -9999 -9999 -9999 -9999 -9999 -9999 -9999 642.804 642.5721 641.903 640.9785 640.142 639.73 639.9265 640.3596 640.7128 640.6882 640.2408 639.6705 639.1859 638.787 638.3949 638.0979 637.7902 637.5006 637.288 637.197 637.1962 637.2382 637.2919 637.3398 637.3494 637.3158 637.2745 637.2339 637.1965 637.1807 637.194 637.2196 637.25 637.25 637.2236 637.1859 637.1388 637.0542 636.9896 636.9474 636.9076 636.8481 636.785 636.7251 636.6794 636.6547 636.6556 636.6779 636.7056 636.72 636.712 636.6844 636.6461 636.6064 636.5721 636.5424 636.511 636.4721 636.4229 636.3666 636.3076 636.2609 636.2302 636.2095 636.1978 636.1718 636.1348 636.097 636.0591 636.0239 635.9863 635.9431 635.9052 635.871 635.845 635.8267 635.812 635.7985 635.7936 635.7969 635.8038 635.8183 635.8373 635.856 635.8742 635.8965 635.9293 635.9728 636.0215 636.0705 636.1199 636.1687 636.2156 636.2655 636.3224 636.3854 636.4542 636.5264 636.5936 636.6519 636.7054 636.7621 636.8246 636.8876 636.9379 636.9775 637.0261 637.064 637.0901 637.1162 637.1326 637.1469 637.144 637.104 637.0271 636.934 636.8424 636.7603 636.6932 636.6497 636.6346 636.6437 636.663 636.6759 636.672 636.6494 636.6128 636.5663 636.5089 636.4452 636.3942 636.3695 636.3666 636.3998 636.4821 636.587 636.6745 636.7152 636.7306 636.7416 636.7988 636.9619 637.2564 637.7657 638.5453 639.6589 641.0413 641.9764 642.1314 641.99 641.7948 -9999 -9999 -9999 -9999 -9999 -9999 -9999 -9999 -9999 -9999 -9999 -9999 -9999 -9999 -9999
-9999 -9999 -9999 -9999 -9999 -9999 -9999 -9999 -9999 -9999 -9999 -9999 -9999 -9999 -9999 -9999 -9999 -9999 637.0457 637.1151 637.2821 637.5066 637.7584 637.9976 638.0886 638.0205 637.8311 637.5872 637.3661 637.2479 637.1353 637.0524 636.9883 636.9351 636.8894 636.8502 636.8171 636.7896 636.767 636.7484 636.7319 636.7161 636.699 636.6799 636.6598 636.64 636.6233 636.6118 636.6078 636.6082 636.6106 636.6139 636.62 636.6304 636.6464 636.6681 636.6937 636.7212 636.7482 636.7733 636.7947 636.8101 636.8177 636.8156 636.8015 636.7736 636.7349 636.6892 636.64 636.5891 636.5378 636.4866 636.438 636.3937 636.3502 636.3029 636.2512 636.1993 636.1484 636.0941 636.0315 635.9639 635.8997 635.8492 635.8226 635.8257 635.8602 635.9254 636.0205 636.1454 636.2965 636.4655 636.6405 636.8092 636.9576 637.0778 637.1628 637.2198 637.2471 637.262 637.2672 637.2501 637.2497 637.2094 637.1989 637.2163 637.2499 637.25 637.2195 637.1892 637.1304 637.0797 637.0886 637.1676 637.2901 637.4353 637.5667 637.6487 637.6713 637.6429 637.5769 637.4832 637.368 637.2378 637.1008 636.9615 636.8228 636.6871 636.5649 636.4597 636.3721 636.3007 636.249 636.2136 636.1853 636.1495 636.103 636.05 635.9988 635.9498 635.9021 635.8547 635.8153 635.8096 635.8623 635.9882 636.1917 636.4542 636.7137 636.9248 637.1938 637.3421 637.6064 637.8851 638.2964 638.8328 639.4492 639.3857 639.2219 639.3739 639.7405 640.1869 640.5443 640.8725 641.2878 641.5141 641.5778 641.5181 641.334 641.0665 641.152 641.6057 641.8585 641.7776 641.3821 641.2811 641.7859 642.7149 643.7563 644.5514 644.9876 645.3609 645.9363 646.4841 646.7569 646.6127 646.2043 645.8629 645.9348 646.2541 646.6971 647.1691 647.4099 647.0057 645.8535 644.2307 642.7215 642.0424 641.8865 641.9103 -9999 -9999 -9999 -9999 -9999 -9999 -9999 -9999 -9999 -9999 -9999 -9999 -9999 -9999 -9999 -9999 -9999 -9999 -9999 -9999 -9999 645.4635 645.2056 644.9841 644.704 644.4449 643.9349 643.1007 642.1309 641.3537 641.1048 641.1971 641.5557 641.8534 641.7739 641.5041 640.9248 640.1544 639.486 639.1094 639.2363 639.504 639.4601 639.267 638.8342 638.5277 638.2412 637.9963 637.7694 637.5847 637.4135 637.2614 637.1505 637.1029 637.1124 637.1564 637.2087 637.252 637.269 637.2621 637.2489 637.2354 637.2269 637.2313 637.2499 637.25 637.2428 637.2154 637.1658 637.1025 637.0293 636.9436 636.87 636.8144 636.7673 636.7184 636.6711 636.6313 636.6052 636.5972 636.6103 636.6431 636.6848 636.7178 636.7278 636.7102 636.67 636.6167 636.5599 636.5062 636.4529 636.3969 636.3369 636.2803 636.2311 636.1898 636.1646 636.1486 636.1387 636.1289 636.1108 636.0906 636.0665 636.0408 636.0154 635.9857 635.9536 635.9269 635.9022 635.8843 635.8721 635.8612 635.8503 635.8483 635.8523 635.8643 635.8835 635.9047 635.9243 635.944 635.9684 636.0026 636.0461 636.0952 636.1484 636.2065 636.2679 636.3324 636.4036 636.4815 636.5645 636.6522 636.7396 636.818 636.8843 636.9438 637.0013 637.0597 637.1139 637.1553 637.1947 637.2375 637.2653 637.2872 637.3046 637.3096 637.3114 637.2921 637.2378 637.1543 637.0592 636.967 636.8873 636.8325 636.8096 636.8165 636.8444 636.8774 636.8949 636.8867 636.8591 636.8188 636.7578 636.6676 636.5658 636.4807 636.4247 636.4033 636.4433 636.5269 636.6179 636.6836 636.7117 636.7281 636.7831 636.9476 637.2515 637.7145 638.4209 639.4916 641.1783 642.5203 642.8826 642.3589 641.9211 -9999 -9999 -9999 -9999 -9999 -9999 -9999 -9999 -9999 -9999 -9999 -9999 -9999 -9999 -9999
-9999 -9999 -9999 -9999 -9999 -9999 -9999 -9999 -9999 -9999 -9999 -9999 -9999 -9999 -9999 -9999 -9999 -9999 637.095 637.2147 637.4152 637.6606 637.8863 638.0011 638.0372 637.9357 637.7328 637.4862 637.2563 637.1699 637.0908 637.0203 636.9603 636.9089 636.8645 636.8259 636.793 636.7655 636.743 636.7249 636.7094 636.6948 636.6783 636.6597 636.64 636.621 636.6052 636.5942 636.5893 636.5892 636.5923 636.5977 636.6055 636.6173 636.6342 636.6566 636.6838 636.7135 636.7427 636.7697 636.7926 636.8098 636.8193 636.8201 636.811 636.7919 636.763 636.7263 636.6845 636.64 636.5941 636.5459 636.4933 636.4447 636.4017 636.3585 636.3105 636.2588 636.2069 636.1545 636.0975 636.0331 635.9651 635.9019 635.8541 635.8298 635.8344 635.8695 635.9354 636.0333 636.1633 636.3207 636.4955 636.675 636.8447 636.9917 637.1069 637.1899 637.2421 637.2726 637.2864 637.2841 637.2777 637.2501 637.2499 637.25 637.248 637.2268 637.1881 637.146 637.0981 637.0685 637.0901 637.182 637.3164 637.4618 637.5995 637.6994 637.7401 637.7222 637.6578 637.5601 637.4384 637.3 637.1531 637.0057 636.8602 636.7208 636.588 636.4731 636.3736 636.2897 636.2217 636.1753 636.146 636.1206 636.0889 636.0502 636.0084 635.965 635.918 635.8684 635.8197 635.7909 635.8104 635.8944 636.0431 636.2299 636.4128 636.5778 636.7843 636.9591 637.1867 637.3359 637.7341 638.2937 638.8064 638.6609 638.3773 638.2982 638.4371 638.6669 639.0409 639.3837 639.7507 639.973 640.0616 639.9803 639.8378 639.7449 639.9067 640.355 640.5469 640.4177 640.0575 640.0417 640.5888 641.4866 642.4258 643.1344 643.6164 643.9904 644.4569 644.9577 645.3502 645.4915 645.3387 645.025 644.9473 645.0466 645.2959 645.6993 645.9882 645.7728 644.8994 643.6589 642.5378 642.1675 642.1584 642.2075 642.1954 642.1288 642.1226 642.0892 641.9874 -9999 -9999 -9999 -9999 -9999 -9999 -9999 -9999 643.9794 644.6102 644.7628 644.2643 643.9434 643.7396 643.8425 644.0864 644.1624 644.0728 643.8939 643.5435 643.3171 643.009 642.3918 641.558 640.9272 640.671 640.7203 640.9448 641.0127 640.8041 640.3958 639.9413 639.4028 638.8735 638.5431 638.5012 638.5228 638.4846 638.3192 638.047 637.8425 637.6775 637.5474 637.4343 637.3418 637.262 637.1959 637.1499 637.1334 637.1496 637.1869 637.2183 637.2435 637.2561 637.2575 637.2554 637.25 637.25 637.25 637.2443 637.2272 637.1989 637.154 637.0907 637.0139 636.9291 636.8416 636.7646 636.7047 636.6583 636.6201 636.5894 636.5691 636.5621 636.5697 636.5931 636.6327 636.6824 636.729 636.7568 636.7557 636.725 636.6716 636.6044 636.5342 636.4659 636.3966 636.3287 636.2656 636.2164 636.181 636.1569 636.1464 636.1398 636.1372 636.1309 636.1214 636.1145 636.1004 636.087 636.0706 636.0491 636.0266 636.0079 635.9904 635.9772 635.9683 635.959 635.9522 635.9517 635.9576 635.9715 635.9903 636.0092 636.0264 636.045 636.0699 636.1049 636.1494 636.2013 636.2607 636.3282 636.4009 636.4797 636.5662 636.658 636.7542 636.8534 636.949 637.0327 637.103 637.1646 637.2195 637.2727 637.3179 637.3531 637.3906 637.4224 637.4413 637.4559 637.4606 637.4543 637.4422 637.4094 637.3467 637.2601 637.1663 637.0768 637.0065 636.969 636.965 636.9921 637.0403 637.0839 637.0986 637.0854 637.0571 637.0077 636.917 636.7893 636.6584 636.5521 636.4772 636.4547 636.4958 636.5638 636.639 636.6974 636.7408 636.8053 636.9595 637.2514 637.6746 638.3859 639.5354 641.1947 642.894 643.7009 643.0401 642.1867 -9999 -9999 -9999 -9999 -9999 -9999 -9999 -9999 -9999 -9999 -9999 -9999 -9999 -9999 -9999
-9999 -9999 -9999 -9999 -9999 -9999 -9999 -9999 -9999 -9999 -9999 -9999 -9999 -9999 -9999 -9999 -9999 -9999 637.1161 637.2609 637.4896 637.761 637.9959 638.054 638.0089 637.8597 637.6479 637.4312 637.2505 637.1421 637.0585 636.9891 636.9309 636.8812 636.8379 636.8003 636.7677 636.7402 636.7181 636.7012 636.687 636.6749 636.6589 636.64 636.6198 636.6005 636.5846 636.5736 636.5681 636.5677 636.5714 636.5782 636.5876 636.6002 636.6174 636.6399 636.6675 636.6984 636.7297 636.7584 636.7828 636.8016 636.8137 636.8175 636.8131 636.8005 636.7797 636.7515 636.7172 636.6793 636.64 636.5994 636.5442 636.4888 636.4423 636.4023 636.3597 636.3104 636.2561 636.2007 636.1437 636.0825 636.0167 635.9513 635.8956 635.8586 635.8464 635.8624 635.9085 635.9861 636.0972 636.2406 636.4092 636.5914 636.7729 636.9384 637.0752 637.1783 637.2484 637.291 637.3113 637.3136 637.304 637.2827 637.2689 637.2539 637.2336 637.2006 637.1576 637.1135 637.071 637.0458 637.0576 637.126 637.2434 637.3748 637.4955 637.5925 637.6467 637.6478 637.5998 637.5142 637.4034 637.2753 637.1365 636.9957 636.8587 636.7266 636.6024 636.4858 636.3856 636.2959 636.2174 636.1543 636.1122 636.0841 636.0579 636.0282 635.9968 635.9645 635.9273 635.886 635.8413 635.803 635.7988 635.8456 635.9464 636.0754 636.2041 636.3119 636.452 636.6066 636.7847 636.9645 637.2943 637.7899 638.228 638.123 637.8554 637.668 637.6701 637.7759 638.0097 638.332 638.6522 638.9017 639.0577 638.8764 638.6533 638.4606 638.5809 638.9818 639.145 639.0484 638.791 638.8005 639.2386 640.0155 640.8185 641.4193 641.9219 642.3116 642.6775 643.0977 643.5086 643.7669 643.7834 643.6508 643.6109 643.6475 643.7847 644.155 644.5189 644.5209 644.0261 643.3683 642.8726 642.5151 642.4995 642.4879 642.4998 642.5278 642.8506 642.8351 642.5034 642.215 642.3887 642.7604 643.1263 643.2894 643.1622 643.3066 643.8136 644.1528 644.2889 643.9922 643.3268 642.869 642.5029 642.541 642.8636 643.0163 643.0209 642.929 642.7261 642.5663 642.3628 641.9364 641.1873 640.6548 640.3853 640.3409 640.3851 640.2943 639.9877 639.5419 639.0621 638.6957 638.1943 637.9949 637.9377 637.9144 637.8665 637.7548 637.6016 637.4803 637.3932 637.3368 637.2934 637.2634 637.2393 637.2205 637.2094 637.2089 637.2239 637.2499 637.25 637.25 637.25 637.25 637.2499 637.2347 637.2234 637.2117 637.1938 637.1672 637.1297 637.0778 637.0104 636.9305 636.8441 636.7585 636.6831 636.6241 636.5826 636.5555 636.5403 636.5374 636.5476 636.5699 636.6027 636.6459 636.6976 636.7499 636.7894 636.8042 636.7891 636.7456 636.6816 636.6056 636.5289 636.4541 636.3805 636.3136 636.2585 636.2194 636.197 636.187 636.1854 636.1857 636.1888 636.1873 636.1865 636.1868 636.1802 636.176 636.1665 636.1523 636.1383 636.1272 636.1166 636.1084 636.1006 636.0936 636.0911 636.092 636.0981 636.1096 636.1224 636.1348 636.1475 636.1643 636.1893 636.2248 636.2704 636.3258 636.391 636.4653 636.5456 636.6334 636.728 636.8264 636.9286 637.032 637.1293 637.2136 637.2845 637.3448 637.3963 637.4438 637.4827 637.5138 637.5466 637.5682 637.5787 637.584 637.5751 637.5568 637.5313 637.4865 637.4169 637.3299 637.2389 637.1573 637.1029 637.0815 637.0947 637.1439 637.2087 637.2533 637.2627 637.2502 637.219 637.1463 637.0201 636.8672 636.7245 636.6086 636.5253 636.5055 636.5377 636.5917 636.6652 636.7367 636.8209 636.97 637.2256 637.5531 638.2303 639.3622 640.9869 642.905 643.8011 643.4156 642.4828 641.8954 -9999 -9999 -9999 -9999 -9999 -9999 -9999 -9999 -9999 -9999 -9999 -9999 -9999 -9999
644.8963 -9999 -9999 -9999 -9999 -9999 -9999 -9999 -9999 -9999 -9999 -9999 -9999 -9999 -9999 -9999 -9999 -9999 637.0875 637.2338 637.4812 637.7705 638.0009 638.0632 637.9725 637.7776 637.5518 637.3701 637.2476 637.1222 637.0277 636.9554 636.8977 636.8497 636.8082 636.7721 636.7406 636.7136 636.6923 636.6772 636.6641 636.6568 636.64 636.6197 636.5981 636.578 636.5614 636.5499 636.544 636.5434 636.5475 636.5555 636.5663 636.5797 636.5968 636.619 636.6461 636.6772 636.71 636.741 636.7675 636.7881 636.8024 636.8096 636.8093 636.8018 636.787 636.7653 636.7373 636.7052 636.6726 636.6399 636.5829 636.5247 636.4739 636.4332 636.3961 636.3523 636.2993 636.2401 636.1782 636.1143 636.0487 635.9847 635.9296 635.8905 635.8736 635.8822 635.9186 635.9854 636.0856 636.22 636.3837 636.5659 636.7527 636.9285 637.0787 637.1944 637.2747 637.3234 637.3461 637.3479 637.3342 637.309 637.281 637.2515 637.2204 637.1821 637.1371 637.0923 637.0532 637.0247 637.0219 637.0505 637.1251 637.2227 637.3197 637.3975 637.4485 637.4628 637.4373 637.3754 637.2865 637.1801 637.0618 636.9385 636.8181 636.7037 636.5952 636.4934 636.3983 636.3141 636.2346 636.1623 636.1044 636.0636 636.0313 636 635.9701 635.9433 635.9143 635.8817 635.8458 635.8083 635.7885 635.8083 635.871 635.9618 636.0511 636.1334 636.2087 636.3225 636.4716 636.6625 636.9492 637.3198 637.7064 637.6743 637.491 637.2718 637.2311 637.2384 637.3338 637.6194 637.8471 638.0245 638.1487 638.0099 637.89 637.7959 637.8669 638.0728 638.1687 638.1124 637.9872 637.9957 638.2307 638.6409 639.2261 639.6913 640.1212 640.4574 640.7341 641.0369 641.3675 641.5884 641.6664 641.7016 641.8019 641.8987 642.0477 642.4132 642.7708 642.9777 642.8849 642.6907 642.5877 642.468 642.2247 641.9514 642.2007 642.5214 642.8975 643.0516 642.9763 642.9235 643.015 643.3451 643.8302 643.8911 643.8518 643.9634 644.0425 644.0216 643.7574 643.1005 642.3473 641.8569 641.546 641.5751 641.8066 641.9232 641.9316 641.8767 641.801 641.7367 641.6564 641.4363 640.816 640.2976 639.9976 639.8624 639.759 639.5598 639.2128 638.7837 638.2636 638.006 637.7393 637.6143 637.5736 637.5533 637.5172 637.4569 637.3827 637.3235 637.2836 637.2676 637.25 637.2499 637.25 637.25 637.25 637.25 637.25 637.2432 637.2286 637.2156 637.2061 637.1997 637.193 637.178 637.1614 637.142 637.1174 637.0861 637.0464 636.9952 636.9314 636.8568 636.7765 636.6978 636.6285 636.5745 636.5388 636.5214 636.5194 636.5311 636.5554 636.5901 636.6316 636.6777 636.728 636.7789 636.8217 636.8458 636.8442 636.815 636.7618 636.6917 636.6139 636.5383 636.4666 636.3986 636.3403 636.2963 636.2677 636.2557 636.2557 636.2597 636.2666 636.2748 636.2782 636.2845 636.2872 636.2864 636.287 636.2827 636.2761 636.271 636.268 636.2645 636.2593 636.2527 636.248 636.2476 636.249 636.2517 636.2545 636.2583 636.264 636.2734 636.2892 636.314 636.3494 636.3953 636.4519 636.5198 636.5968 636.6803 636.7711 636.8669 636.9658 637.0673 637.1683 637.2622 637.3431 637.4124 637.4694 637.5176 637.5599 637.5948 637.6227 637.6494 637.6639 637.667 637.6624 637.641 637.6105 637.5715 637.5145 637.4389 637.3516 637.2654 637.1975 637.1588 637.1515 637.1853 637.2556 637.3265 637.3654 637.374 637.3631 637.316 637.2109 637.0594 636.9002 636.7557 636.6349 636.5514 636.5332 636.564 636.6226 636.7028 636.791 636.9098 637.0771 637.3096 637.921 638.916 640.3636 642.4147 643.6008 643.5391 642.8773 642.0779 -9999 -9999 -9999 -9999 -9999 -9999 -9999 -9999 -9999 -9999 -9999 -9999 -9999 -9999
643.4302 642.571 641.783 -9999 -9999 -9999 -9999 -9999 -9999 -9999 -9999 -9999 -9999 -9999 -9999 -9999 636.9677 636.999 637.0009 637.135 637.4025 637.725 638.0004 638.0609 637.9258 637.6757 637.4152 637.2507 637.1498 637.0552 636.9753 636.9104 636.8574 636.813 636.7749 636.7417 636.7126 636.6864 636.6659 636.6554 636.64 636.64 636.6206 636.5972 636.5737 636.5524 636.5349 636.5231 636.5168 636.5161 636.5206 636.5295 636.5417 636.5562 636.5734 636.5947 636.6208 636.6514 636.6846 636.7175 636.7468 636.7701 636.7867 636.7968 636.8002 636.7965 636.786 636.7686 636.7445 636.7142 636.6792 636.6401 636.5972 636.5482 636.4987 636.4561 636.4202 636.3824 636.3344 636.2755 636.2093 636.1393 636.0687 636.0028 635.9485 635.9122 635.8979 635.9078 635.9437 636.009 636.1078 636.2415 636.4059 636.5907 636.7813 636.9618 637.1176 637.2383 637.3208 637.3692 637.3898 637.3884 637.3696 637.3376 637.2983 637.2562 637.2165 637.177 637.1332 637.0883 637.049 637.0193 637.0001 637.0037 637.024 637.0766 637.1365 637.1914 637.2292 637.2437 637.2318 637.193 637.1295 637.0491 636.9565 636.8559 636.7546 636.6589 636.5706 636.4863 636.4071 636.333 636.2631 636.1931 636.1284 636.0756 636.0325 635.9924 635.9542 635.9224 635.8932 635.8623 635.8317 635.7985 635.77 635.7704 635.803 635.8663 635.9349 635.9928 636.0541 636.1301 636.2467 636.419 636.6641 636.9633 637.235 637.2672 637.2213 637.03 636.9268 636.8999 636.9784 637.183 637.2508 637.2888 637.3273 637.329 637.4276 637.441 637.4765 637.5494 637.5816 637.5562 637.5283 637.5433 637.6644 637.9063 638.2532 638.5725 638.8664 639.1031 639.2869 639.4403 639.5322 639.4791 639.4862 639.5896 639.8298 639.9969 640.1751 640.4916 640.7515 641.1206 641.3664 641.5159 641.7474 641.9587 641.6836 641.3583 641.6652 642.1101 642.5274 642.8425 642.9761 643.0441 643.2903 643.8045 643.9806 643.9472 643.8834 643.7738 643.6091 643.3298 642.7547 642.0069 641.2908 640.7422 640.4611 640.4987 640.6204 640.6652 640.6151 640.504 640.4624 640.4994 640.473 640.2696 639.8486 639.5642 639.3156 639.1156 638.7724 638.4957 638.3804 638.0734 637.7728 637.5927 637.4548 637.3898 637.3728 637.3636 637.3395 637.318 637.2949 637.2751 637.2501 637.2498 637.2158 637.2 637.1957 637.1956 637.1954 637.1929 637.1864 637.174 637.1578 637.1425 637.1298 637.1199 637.1101 637.0967 637.0798 637.0582 637.0311 636.9986 636.9598 636.9131 636.8573 636.793 636.7244 636.6571 636.5977 636.5515 636.5226 636.5123 636.5197 636.5419 636.5763 636.6204 636.6694 636.7186 636.767 636.813 636.8523 636.8776 636.8826 636.8651 636.8239 636.7651 636.6945 636.6217 636.5544 636.4937 636.4364 636.3908 636.3583 636.3409 636.3362 636.3427 636.3516 636.3643 636.3775 636.3838 636.3947 636.3967 636.3978 636.4003 636.4021 636.4052 636.4099 636.4154 636.4127 636.4094 636.4041 636.4019 636.402 636.3993 636.3899 636.3832 636.3817 636.3848 636.3931 636.4083 636.4321 636.4649 636.5079 636.5623 636.629 636.7049 636.7874 636.876 636.9681 637.0626 637.1589 637.2535 637.3408 637.4167 637.4824 637.5353 637.5803 637.6183 637.6505 637.6757 637.6965 637.7064 637.704 637.6897 637.6577 637.6157 637.5624 637.493 637.4116 637.3241 637.2473 637.1951 637.1694 637.1783 637.2338 637.3151 637.3806 637.4147 637.4253 637.4056 637.3307 637.1989 637.0398 636.8834 636.7366 636.615 636.5442 636.5415 636.5901 636.6638 636.7523 636.8643 637.0197 637.2497 637.673 638.4351 639.6287 641.4667 642.8112 643.2617 642.9671 642.1414 -9999 -9999 -9999 -9999 -9999 -9999 -9999 -9999 -9999 -9999 -9999 -9999 -9999 -9999
641.682 640.8052 640.1295 639.8516 639.3967 638.664 637.8474 637.116 636.897 636.9982 637.0179 637.0733 -9999 637.1531 637.1027 637.0016 636.9305 636.8933 636.8961 637.0071 637.2753 637.6016 637.9414 638.0269 637.8624 637.5634 637.2663 637.1328 637.0469 636.9736 636.9102 636.8561 636.8105 636.7714 636.7382 636.7094 636.6855 636.6607 636.64 636.64 636.6235 636.6119 636.5918 636.568 636.5441 636.5224 636.5048 636.4929 636.4867 636.4861 636.4908 636.5007 636.5142 636.53 636.548 636.5686 636.5931 636.6221 636.6547 636.6885 636.7206 636.7472 636.767 636.7798 636.7863 636.786 636.7788 636.7644 636.7428 636.714 636.6786 636.64 636.6052 636.5649 636.5197 636.4761 636.4377 636.4016 636.3591 636.3048 636.2387 636.1644 636.0875 636.0155 635.9584 635.9232 635.913 635.928 635.9693 636.0399 636.1445 636.285 636.4569 636.6487 636.8448 637.0281 637.1836 637.3018 637.3793 637.421 637.4353 637.4295 637.4071 637.371 637.3248 637.2738 637.2256 637.1849 637.1448 637.1031 637.0631 637.0309 637.0068 636.988 636.9846 636.9861 637.007 637.0307 637.05 637.0582 637.0497 637.0239 636.9799 636.9211 636.8524 636.7746 636.6915 636.6111 636.5371 636.4706 636.4062 636.3458 636.2886 636.2309 636.1714 636.1161 636.067 636.0197 635.9715 635.9278 635.8903 635.8529 635.8184 635.786 635.7545 635.7366 635.7487 635.7852 635.8379 635.8868 635.931 635.9918 636.0879 636.2292 636.4213 636.6426 636.8325 636.8975 636.8779 636.7631 636.666 636.6229 636.6542 636.7444 636.7822 636.8145 636.8848 637.0114 637.2162 637.2448 637.2451 637.2475 637.2493 637.256 637.3197 637.3418 637.3924 637.5332 637.7171 637.8945 638.0582 638.1925 638.2906 638.3492 638.3494 638.2841 638.2706 638.3462 638.4954 638.6029 638.7062 638.9507 639.0147 639.2052 639.5127 639.9165 640.0855 640.5151 640.7387 640.7025 640.8576 641.238 641.642 642.109 642.3708 642.4034 642.5803 642.9177 643.1006 642.9304 642.8176 642.7015 642.3915 641.8294 641.2214 640.6245 640.0477 639.4667 639.0546 639.1263 639.2199 639.2224 639.1044 638.8671 638.7702 638.775 638.7684 638.6887 638.5782 638.6146 638.3334 638.1636 638.0057 637.8617 637.7855 637.6332 637.4789 637.3773 637.3134 637.2854 637.2836 637.2802 637.2503 637.2498 637.2499 637.2495 637.2069 637.177 637.1393 637.1131 637.0997 637.094 637.0898 637.0842 637.0763 637.0657 637.0541 637.043 637.033 637.0242 637.0157 637.0056 636.9922 636.973 636.947 636.9155 636.8792 636.8375 636.7905 636.7384 636.6833 636.6301 636.5831 636.5471 636.5258 636.5214 636.5341 636.562 636.6019 636.6509 636.7045 636.757 636.8043 636.8453 636.8782 636.8993 636.9042 636.8911 636.8605 636.8107 636.7512 636.6865 636.6251 636.5709 636.5248 636.4813 636.4515 636.431 636.4222 636.4235 636.4343 636.448 636.4648 636.4796 636.488 636.4996 636.499 636.4988 636.5042 636.5135 636.527 636.5441 636.5442 636.5413 636.5396 636.537 636.5376 636.5343 636.511 636.4947 636.4879 636.4872 636.4908 636.499 636.5126 636.5322 636.5577 636.5948 636.6443 636.7067 636.7783 636.8566 636.9398 637.0259 637.1141 637.2034 637.2905 637.3704 637.4404 637.5015 637.5507 637.5927 637.6276 637.6569 637.68 637.6968 637.7032 637.6968 637.6737 637.6323 637.5781 637.5104 637.4302 637.3428 637.2579 637.1941 637.1556 637.1434 637.1719 637.2417 637.3198 637.3753 637.4066 637.4124 637.3702 637.2676 637.1234 636.967 636.8099 636.6616 636.5554 636.5209 636.5574 636.6305 636.7194 636.8346 636.999 637.2292 637.4753 638.0327 638.9547 640.2608 641.8519 642.7925 642.8917 642.1208 -9999 -9999 -9999 -9999 -9999 -9999 -9999 -9999 -9999 -9999 -9999 -9999 -9999 -9999
640.0278 639.251 638.7467 638.7253 638.4913 638.0327 637.4967 637.0131 636.8795 636.9967 637.116 637.2448 637.349 637.3912 637.3325 637.1795 637.0039 636.8832 636.8802 636.9948 637.167 637.3431 637.5283 637.8951 637.7653 637.4675 637.2416 637.071 636.9675 636.8973 636.8433 636.7984 636.7603 636.7269 636.7002 636.6757 636.6621 636.64 636.6205 636.6102 636.5936 636.5763 636.5549 636.5314 636.5084 636.4877 636.4708 636.4595 636.454 636.4541 636.4595 636.47 636.4845 636.5017 636.5209 636.5415 636.5644 636.5911 636.6218 636.6553 636.6888 636.7188 636.7422 636.7584 636.7679 636.7706 636.7668 636.7554 636.7365 636.7102 636.677 636.6401 636.6165 636.5798 636.5377 636.4948 636.4543 636.416 636.3752 636.3258 636.264 636.1906 636.1102 636.0324 635.9695 635.9318 635.923 635.9426 635.9908 636.0698 636.1843 636.3361 636.5201 636.7228 636.9262 637.1118 637.2638 637.3727 637.4378 637.4667 637.4717 637.4615 637.4389 637.4037 637.3573 637.3033 637.2489 637.2029 637.1664 637.1295 637.093 637.0587 637.0314 637.009 636.9863 636.9714 636.9561 636.9493 636.9459 636.9406 636.9288 636.907 636.8741 636.8285 636.7749 636.715 636.6477 636.5779 636.5129 636.4542 636.4019 636.3514 636.3048 636.2596 636.2126 636.165 636.1196 636.0732 636.0225 635.9697 635.9221 635.8754 635.8301 635.7913 635.7567 635.7259 635.7178 635.7299 635.7631 635.8038 635.8405 635.8844 635.9557 636.0656 636.2101 636.3691 636.5031 636.5676 636.5642 636.4987 636.4235 636.3729 636.3652 636.3923 636.4191 636.4657 636.5595 636.7067 636.8765 636.9473 636.9713 636.988 637.0248 637.1059 637.2405 637.2482 637.2525 637.3575 637.4384 637.5056 637.5671 637.619 637.656 637.6725 637.6592 637.624 637.6125 637.6417 637.6852 637.6601 637.5298 637.5593 637.6384 637.9064 638.1787 638.4658 638.7053 639.118 639.4026 639.4744 639.5128 639.5707 639.9446 640.5851 641.0222 641.1502 641.2295 641.3459 641.3928 641.2151 641.141 640.9924 640.6193 639.9586 639.4606 639.1743 638.699 638.3969 638.1841 638.1984 638.2408 638.2113 638.0862 637.9015 637.7971 637.7748 637.7792 637.7794 637.7926 637.8359 637.7197 637.6211 637.5448 637.4851 637.449 637.39 637.3279 637.2842 637.2646 637.25 637.2499 637.2496 637.2006 637.175 637.1624 637.1483 637.1112 637.0732 637.0352 637.0049 636.9854 636.9741 636.9663 636.9586 636.9506 636.943 636.9373 636.9329 636.9289 636.9248 636.9203 636.9148 636.9066 636.8927 636.8712 636.843 636.8102 636.7734 636.7336 636.692 636.65 636.6104 636.5765 636.5518 636.5387 636.5396 636.5553 636.585 636.6261 636.6753 636.7292 636.7826 636.8296 636.8672 636.8943 636.9092 636.9104 636.8971 636.8696 636.8298 636.778 636.7235 636.6707 636.6237 636.5848 636.5555 636.5286 636.5137 636.5033 636.5006 636.5078 636.5224 636.5392 636.553 636.568 636.5793 636.5837 636.5809 636.5819 636.5901 636.606 636.6397 636.6401 636.64 636.64 636.64 636.6401 636.6395 636.5992 636.5811 636.5743 636.573 636.5746 636.5782 636.5845 636.5927 636.6003 636.6184 636.6499 636.6932 636.7487 636.8143 636.8864 636.9629 637.0432 637.1256 637.2089 637.2896 637.3629 637.428 637.4849 637.531 637.5703 637.6031 637.6299 637.6512 637.6659 637.6685 637.6578 637.626 637.5745 637.5068 637.426 637.3366 637.2451 637.1676 637.1176 637.0909 637.0941 637.139 637.2102 637.2761 637.3222 637.3478 637.3357 637.2668 637.1475 637.0017 636.8466 636.6868 636.554 636.4923 636.5166 636.5939 636.6814 636.7856 636.9224 637.0831 637.2746 637.7313 638.4649 639.4083 640.8319 642.1695 642.4958 641.9772 641.1672 -9999 -9999 -9999 -9999 -9999 -9999 -9999 -9999 -9999 -9999 -9999 -9999 -9999
638.8068 638.2567 638.0398 638.0342 637.9969 637.7808 637.4707 637.1698 637.0154 637.0457 637.2761 637.4718 637.6176 637.7017 637.6611 637.4855 637.265 637.0503 637.0153 637.045 637.2111 637.244 637.1841 637.8716 637.6207 637.275 637.0952 636.9675 636.8817 636.8226 636.7786 636.7414 636.7112 636.6821 636.6649 636.6401 636.64 636.6165 636.5926 636.5732 636.5531 636.5323 636.5101 636.4877 636.4665 636.4482 636.4335 636.4237 636.4197 636.4211 636.4276 636.4387 636.454 636.4725 636.4927 636.514 636.5361 636.5603 636.5881 636.6198 636.6531 636.6849 636.712 636.7322 636.7451 636.7513 636.7509 636.7434 636.7288 636.7079 636.683 636.6585 636.64 636.5965 636.5529 636.5117 636.4717 636.4316 636.3892 636.3411 636.2839 636.2151 636.1365 636.0567 635.9894 635.9474 635.9371 635.959 636.0125 636.0999 636.225 636.3893 636.5864 636.8013 637.0131 637.2004 637.3468 637.4415 637.4863 637.4949 637.4871 637.4745 637.4567 637.429 637.389 637.3386 637.2832 637.2309 637.1912 637.1591 637.1272 637.0962 637.0668 637.0426 637.0205 636.9949 636.9711 636.9449 636.9207 636.8992 636.8779 636.853 636.8223 636.7841 636.7373 636.686 636.6302 636.5685 636.5068 636.4512 636.401 636.3561 636.3144 636.2763 636.2391 636.2023 636.1666 636.1296 636.0861 636.035 635.9829 635.9316 635.8767 635.8271 635.7849 635.7504 635.7197 635.7148 635.7227 635.7455 635.776 635.8083 635.8557 635.9306 636.031 636.1407 636.235 636.2894 636.2961 636.2595 636.204 636.1526 636.122 636.1174 636.1355 636.1874 636.2837 636.4174 636.5542 636.6391 636.6866 636.7273 636.7877 636.8828 636.9981 637.0574 637.1212 637.238 637.2482 637.2475 637.2473 637.2473 637.2468 637.2455 637.2421 637.2369 637.235 637.2373 637.2354 637.1802 636.9709 636.8787 636.9262 637.1306 637.2578 637.3779 637.5614 637.9413 638.1896 638.303 638.4149 638.5749 638.9946 639.6023 640.082 640.0861 639.9731 639.8422 639.6733 639.8283 640.0223 639.9086 639.5656 639.0443 638.6034 638.299 637.9795 637.782 637.6718 637.6625 637.6672 637.6244 637.5221 637.3953 637.3127 637.2849 637.2897 637.3137 637.3557 637.3969 637.3711 637.338 637.3158 637.303 637.2971 637.283 637.2686 637.25 637.2499 637.2173 637.1914 637.1644 637.1169 637.0795 637.0533 637.0288 636.995 636.9587 636.9236 636.8942 636.8728 636.8583 636.8483 636.8398 636.8324 636.827 636.8253 636.8265 636.829 636.8312 636.8322 636.832 636.829 636.821 636.8057 636.7828 636.7543 636.7224 636.6886 636.6548 636.6228 636.5946 636.5723 636.5577 636.5529 636.559 636.577 636.6064 636.6455 636.6911 636.7407 636.7909 636.8361 636.871 636.894 636.9041 636.9008 636.8854 636.8586 636.823 636.7814 636.7348 636.6908 636.6525 636.6212 636.5994 636.5865 636.5746 636.5691 636.5672 636.5706 636.5819 636.599 636.6079 636.6185 636.64 636.64 636.64 636.64 636.64 636.6401 636.6763 636.6946 636.7037 636.7074 636.7064 636.6995 636.681 636.6403 636.64 636.64 636.64 636.64 636.64 636.64 636.64 636.6294 636.6336 636.6486 636.6746 636.7102 636.7589 636.8167 636.8815 636.9529 637.0289 637.1082 637.1879 637.2644 637.3335 637.395 637.4486 637.4929 637.5304 637.5619 637.5872 637.6066 637.6189 637.6169 637.5986 637.557 637.4932 637.4115 637.3199 637.2225 637.1313 637.0659 637.0277 637.0123 637.03 637.0813 637.1429 637.1941 637.2299 637.2405 637.2043 637.1164 636.9917 636.8474 636.6924 636.5463 636.4609 636.4678 636.5436 636.6348 636.7269 636.8457 636.9967 637.2192 637.5656 638.2424 639.0546 639.955 641.4266 642.1063 641.8474 641.0983 -9999 -9999 -9999 -9999 -9999 -9999 -9999 -9999 -9999 -9999 -9999 -9999 -9999
638.1185 637.941 637.8788 637.8984 637.9076 637.8258 637.6814 637.5381 637.4749 637.5259 637.6409 637.7609 637.8782 637.9948 637.989 637.8316 637.6904 637.5745 637.5455 637.5673 637.6429 637.6357 637.4903 637.5425 637.2866 637.0779 636.9486 636.8602 636.7979 636.7528 636.72 636.6885 636.6692 636.6401 636.64 636.6158 636.6006 636.5763 636.55 636.5253 636.5016 636.4788 636.457 636.4368 636.4189 636.4045 636.3937 636.387 636.3854 636.3888 636.3969 636.4088 636.4244 636.4435 636.4645 636.4866 636.5088 636.5313 636.5558 636.584 636.6156 636.6475 636.6769 636.7008 636.7177 636.7277 636.7312 636.728 636.7183 636.7028 636.6837 636.6631 636.64 636.6041 636.5645 636.5264 636.4894 636.4503 636.4066 636.3572 636.3013 636.2368 636.1633 636.0864 636.0187 635.9742 635.9618 635.9839 636.041 636.1347 636.2691 636.4448 636.654 636.8801 637.0998 637.2894 637.4289 637.506 637.5225 637.5004 637.4758 637.4634 637.4565 637.4427 637.4149 637.3727 637.3209 637.2675 637.219 637.1859 637.1575 637.1306 637.1045 637.0797 637.0576 637.036 637.0104 636.9823 636.9507 636.9175 636.8854 636.8535 636.819 636.781 636.7368 636.6874 636.6354 636.58 636.5203 636.4631 636.412 636.3658 636.3246 636.2877 636.254 636.2225 636.1948 636.1682 636.1373 636.0975 636.0505 636.0022 635.9474 635.8906 635.8406 635.7974 635.7653 635.7354 635.7255 635.7283 635.7395 635.7592 635.7883 635.8338 635.896 635.9651 636.0265 636.0664 636.077 636.0571 636.017 635.9697 635.9294 635.9086 635.9169 635.964 636.0514 636.1656 636.2789 636.3621 636.4186 636.4681 636.5309 636.6153 636.7098 636.7872 636.8654 636.949 636.9713 636.9695 636.9587 636.9419 636.9215 636.9009 636.8837 636.8706 636.8623 636.8538 636.8307 636.76 636.6111 636.506 636.4932 636.58 636.6548 636.7382 636.8917 637.1506 637.2935 637.4057 637.6343 637.8578 638.2938 638.8298 639.2497 639.1595 638.9424 638.7556 638.6486 638.791 639.014 639.0474 638.8662 638.5316 638.1734 637.8695 637.6205 637.4875 637.428 637.4143 637.4031 637.3631 637.2921 637.2126 637.1578 637.1339 637.1309 637.1483 637.1823 637.217 637.2278 637.231 637.238 637.2484 637.2545 637.25 637.2499 637.2208 637.1956 637.1546 637.1121 637.0679 637.0183 636.9757 636.9426 636.9141 636.8837 636.8525 636.8226 636.7969 636.7767 636.7617 636.7506 636.7422 636.7356 636.7316 636.7317 636.736 636.743 636.7505 636.7568 636.7614 636.7632 636.7604 636.751 636.7341 636.7108 636.6837 636.6554 636.6276 636.6028 636.5828 636.5689 636.5622 636.5637 636.5743 636.5943 636.6229 636.6584 636.6984 636.7406 636.7836 636.8233 636.8545 636.8735 636.8802 636.8739 636.8569 636.831 636.7987 636.7633 636.7277 636.6928 636.6619 636.6385 636.6245 636.6178 636.6162 636.6128 636.6133 636.6173 636.6238 636.64 636.64 636.64 636.6609 636.6709 636.6754 636.6775 636.6792 636.6851 636.7097 636.7307 636.7446 636.7516 636.7509 636.7419 636.7233 636.6981 636.6924 636.691 636.6895 636.6863 636.6808 636.6722 636.6591 636.64 636.64 636.644 636.6548 636.6722 636.7045 636.7437 636.7911 636.8523 636.921 636.9967 637.0757 637.1544 637.2286 637.2955 637.3549 637.4065 637.4502 637.4869 637.5181 637.5428 637.5596 637.5676 637.5576 637.5272 637.4728 637.395 637.3013 637.2003 637.0983 637.0143 636.9609 636.931 636.9261 636.9532 637.0003 637.046 637.0811 637.1011 637.0909 637.0361 636.9404 636.8176 636.6775 636.5359 636.4355 636.4226 636.4892 636.576 636.6531 636.7429 636.8523 636.9886 637.2455 637.7924 638.6155 639.6028 641.1415 641.8848 641.5525 641.0212 -9999 -9999 -9999 -9999 -9999 -9999 -9999 -9999 -9999 -9999 -9999 -9999 -9999
637.9873 638 637.9834 637.9906 637.9998 637.9786 637.934 637.896 637.9054 637.979 637.9643 637.9714 638.0004 638.079 638.0679 638.0004 637.9974 637.9929 637.9926 637.9952 637.9994 637.958 637.5513 637.2752 637.0706 636.9246 636.8326 636.7727 636.7274 636.6924 636.6727 636.6401 636.6398 636.6106 636.5944 636.571 636.5481 636.521 636.492 636.464 636.4381 636.415 636.3955 636.3796 636.3674 636.359 636.3541 636.3523 636.3541 636.3599 636.3696 636.3826 636.3982 636.4167 636.4375 636.46 636.4824 636.5043 636.5263 636.5507 636.5788 636.6091 636.639 636.6653 636.6859 636.7001 636.7078 636.7091 636.7043 636.694 636.6793 636.6615 636.64 636.6129 636.5786 636.5426 636.5078 636.4716 636.4291 636.379 636.3224 636.2596 636.1904 636.1187 636.0546 636.011 635.9981 636.0203 636.0793 636.1778 636.319 636.5035 636.7228 636.9586 637.1863 637.3799 637.5156 637.5754 637.5568 637.4884 637.4423 637.4348 637.4445 637.4485 637.4351 637.4023 637.3561 637.3033 637.2533 637.2092 637.1813 637.1567 637.1342 637.1128 637.0922 637.0721 637.0513 637.0268 636.9976 636.9636 636.9265 636.8881 636.8488 636.8063 636.7615 636.7112 636.6575 636.6029 636.5455 636.4869 636.4324 636.3835 636.3396 636.3011 636.2667 636.2351 636.2082 636.1865 636.165 636.1383 636.1029 636.0632 636.0179 635.9636 635.9103 635.8632 635.8228 635.7938 635.766 635.7482 635.7428 635.7444 635.7539 635.7753 635.8081 635.8453 635.8785 635.9011 635.9086 635.8975 635.8692 635.8295 635.7884 635.7596 635.7582 635.7948 635.8687 635.9651 636.0609 636.1364 636.1898 636.234 636.2839 636.3468 636.4186 636.4888 636.5601 636.6271 636.6656 636.6851 636.6901 636.6786 636.6514 636.6151 636.578 636.5461 636.5242 636.5099 636.4886 636.4409 636.3572 636.283 636.239 636.2456 636.2775 636.3333 636.4362 636.5933 636.7297 636.9068 637.1624 637.3195 637.6959 638.1349 638.5013 638.3123 638.0755 637.9229 637.866 637.944 638.1054 638.2114 638.2059 638.1069 637.8871 637.6366 637.4299 637.3539 637.3302 637.3226 637.3125 637.2887 637.252 637.2133 637.1852 637.1694 637.1557 637.1556 637.1722 637.1937 637.2103 637.2251 637.2391 637.25 637.2499 637.2256 637.2028 637.1666 637.1263 637.0776 637.0258 636.9735 636.9225 636.879 636.845 636.8173 636.7917 636.767 636.7435 636.7224 636.7048 636.6909 636.6801 636.6716 636.6655 636.6624 636.6631 636.6682 636.6772 636.6876 636.6975 636.7058 636.7112 636.7123 636.7075 636.696 636.6783 636.6563 636.6329 636.6105 636.5909 636.5764 636.5679 636.5663 636.5717 636.5848 636.6052 636.6325 636.6642 636.6979 636.7322 636.7658 636.7964 636.8209 636.8351 636.8379 636.83 636.813 636.7898 636.7618 636.7324 636.7046 636.6817 636.6605 636.6429 636.6367 636.6342 636.6348 636.6367 636.64 636.64 636.64 636.652 636.6566 636.6616 636.6768 636.6888 636.6965 636.7017 636.7068 636.7162 636.7348 636.7543 636.7697 636.7792 636.781 636.7747 636.7612 636.7452 636.7369 636.7321 636.7271 636.72 636.7096 636.6951 636.6764 636.6564 636.646 636.64 636.64 636.64 636.6617 636.6818 636.7067 636.7546 636.8119 636.8824 636.9607 637.0409 637.1198 637.1934 637.2594 637.3178 637.3688 637.4126 637.4496 637.4805 637.5041 637.5167 637.5159 637.4932 637.4467 637.3763 637.2845 637.1817 637.0746 636.9755 636.9026 636.8561 636.8318 636.8359 636.8647 636.8985 636.9242 636.9404 636.9415 636.9144 636.8517 636.7577 636.6426 636.5182 636.4172 636.3882 636.441 636.5215 636.5806 636.6353 636.7107 636.7927 636.9695 637.4381 638.4336 639.7184 641.1255 641.4713 641.1221 640.8687 -9999 -9999 -9999 -9999 -9999 -9999 -9999 -9999 -9999 -9999 -9999 -9999 -9999
637.7206 637.959 637.9931 637.9943 637.9948 637.9956 637.9964 637.997 637.9966 637.9878 637.9965 637.9995 638.0004 638.0589 638.0015 637.9562 637.9412 637.9224 637.9029 637.8519 637.7475 637.6249 637.287 637.0706 636.9182 636.8139 636.7497 636.7117 636.6752 636.6402 636.6398 636.6028 636.5822 636.5557 636.5334 636.5086 636.4814 636.4507 636.4186 636.3884 636.3624 636.3419 636.3276 636.3193 636.3159 636.3162 636.3194 636.3243 636.3306 636.3387 636.3495 636.3627 636.3779 636.3948 636.4139 636.4352 636.4575 636.4791 636.4998 636.5211 636.545 636.5724 636.6011 636.628 636.6511 636.6689 636.6809 636.6868 636.687 636.6819 636.6719 636.6578 636.64 636.6244 636.5967 636.5632 636.5295 636.495 636.4554 636.4071 636.3509 636.2885 636.2214 636.1537 636.0942 636.0547 636.0437 636.0668 636.1273 636.2285 636.374 636.5642 636.7908 637.0352 637.2717 637.4738 637.6147 637.6686 637.6166 637.478 637.4059 637.4108 637.4397 637.4592 637.4556 637.4294 637.3859 637.3348 637.2825 637.237 637.1985 637.175 637.1552 637.1368 637.1196 637.1024 637.0841 637.0638 637.0398 637.0101 636.975 636.9355 636.8927 636.8477 636.7982 636.7468 636.6912 636.6321 636.5747 636.5157 636.4584 636.406 636.359 636.3179 636.2825 636.2498 636.2202 636.1964 636.1771 636.1571 636.1331 636.1025 636.0692 636.0261 635.9771 635.9299 635.8876 635.8527 635.8271 635.8018 635.7797 635.7655 635.7571 635.7571 635.7667 635.7797 635.79 635.7952 635.7941 635.7846 635.7644 635.7336 635.6974 635.6667 635.6572 635.6813 635.7401 635.821 635.9035 635.9706 636.0168 636.0491 636.0793 636.1158 636.1609 636.2123 636.269 636.3267 636.3765 636.4182 636.4468 636.4518 636.4281 636.3819 636.3264 636.2739 636.2349 636.2152 636.2043 636.1884 636.16 636.1257 636.0935 636.0632 636.054 636.0758 636.1348 636.2292 636.349 636.5148 636.7279 636.9216 637.2102 637.4677 637.8241 637.5116 637.3224 637.2518 637.2315 637.2428 637.2836 637.3683 637.4809 637.6383 637.5909 637.4373 637.2588 637.2469 637.2484 637.249 637.2493 637.2496 637.2498 637.2499 637.25 637.2499 637.2332 637.2213 637.2227 637.2312 637.2404 637.2501 637.25 637.2339 637.2106 637.1755 637.1388 637.0966 637.0502 636.9984 636.9437 636.8899 636.8402 636.7988 636.7673 636.7436 636.7242 636.7065 636.6897 636.6736 636.6592 636.6466 636.6361 636.6277 636.6215 636.6184 636.619 636.6237 636.6327 636.6443 636.656 636.6663 636.6738 636.6771 636.6754 636.6682 636.6556 636.6387 636.6201 636.6024 636.5875 636.577 636.5717 636.5725 636.5796 636.5927 636.6118 636.636 636.6632 636.691 636.7179 636.7424 636.7629 636.778 636.7854 636.7834 636.7729 636.7568 636.7391 636.7183 636.6953 636.673 636.6616 636.6514 636.64 636.64 636.64 636.64 636.64 636.6445 636.6467 636.6486 636.6565 636.6636 636.6719 636.6848 636.6972 636.707 636.7145 636.7221 636.7327 636.7482 636.7654 636.7811 636.7926 636.7978 636.7963 636.7888 636.7784 636.77 636.7628 636.7549 636.7448 636.731 636.7133 636.6923 636.671 636.6542 636.6416 636.6338 636.6309 636.64 636.64 636.6401 636.6783 636.7145 636.7762 636.8513 636.9315 637.0129 637.093 637.1672 637.2332 637.291 637.3416 637.3855 637.4227 637.4529 637.4727 637.4772 637.4628 637.4232 637.3583 637.2704 637.1671 637.0582 636.9512 636.8617 636.797 636.7533 636.7349 636.7442 636.7643 636.7769 636.781 636.7795 636.7667 636.7323 636.6705 636.5859 636.4879 636.3999 636.3634 636.4022 636.4797 636.5314 636.5583 636.6089 636.7023 636.868 637.3118 638.2578 639.4769 640.6619 641.0078 640.8873 640.7615 640.7922 -9999 -9999 -9999 -9999 -9999 -9999 -9999 -9999 -9999 -9999 -9999 -9999
637.2921 637.5244 637.6074 637.6292 637.6367 637.6429 637.6489 637.6514 637.6482 637.6448 637.6823 637.8112 637.9746 637.9837 637.8566 637.7639 637.6951 637.6163 637.5769 637.4965 637.3066 637.2443 637.0645 636.918 636.8114 636.7365 636.6912 636.6737 636.64 636.5969 636.5703 636.535 636.5078 636.4827 636.4589 636.4319 636.4004 636.3653 636.3302 636.2993 636.2762 636.2625 636.2583 636.2622 636.2717 636.2841 636.2974 636.3101 636.321 636.3309 636.3412 636.3528 636.366 636.3804 636.3962 636.4144 636.4347 636.4556 636.4755 636.4948 636.5155 636.5391 636.5651 636.5913 636.6155 636.6358 636.6515 636.6617 636.6669 636.6672 636.6635 636.6565 636.6479 636.64 636.6153 636.5859 636.5546 636.5219 636.4846 636.4398 636.3863 636.3254 636.2598 636.1946 636.1387 636.103 636.0953 636.1201 636.1817 636.2839 636.4308 636.6229 636.8531 637.1039 637.3503 637.5664 637.7267 637.8018 637.7482 637.5136 637.4106 637.4336 637.4731 637.4926 637.4859 637.456 637.4108 637.3572 637.3043 637.2559 637.2173 637.1864 637.1678 637.1534 637.1397 637.1261 637.1113 637.094 637.0735 637.0486 637.0178 636.981 636.9389 636.8918 636.8417 636.7863 636.7285 636.668 636.6047 636.545 636.4857 636.4307 636.381 636.3368 636.3 636.2678 636.2375 636.2104 636.188 636.1685 636.1481 636.125 636.099 636.069 636.0291 635.9874 635.9467 635.9103 635.8809 635.8593 635.8369 635.8148 635.7947 635.778 635.7687 635.764 635.7573 635.7467 635.7343 635.7209 635.704 635.681 635.6527 635.6254 635.6111 635.623 635.6663 635.7327 635.8044 635.8647 635.9048 635.9266 635.9385 635.9499 635.9673 635.9948 636.0333 636.0806 636.1337 636.1901 636.2397 636.2646 636.2515 636.2028 636.1338 636.0627 636.0049 635.974 635.9689 635.9766 635.9882 635.9929 635.9821 635.9608 635.9352 635.9253 635.9458 635.9983 636.084 636.2172 636.3911 636.577 636.8013 637.0151 637.2067 637.0216 636.8545 636.7781 636.7349 636.7246 636.7342 636.8237 637.0109 637.2242 637.2617 637.229 637.0907 637.0498 637.0485 637.0592 637.0773 637.1024 637.1332 637.1661 637.198 637.228 637.2499 637.25 637.25 637.25 637.25 637.2499 637.2231 637.1878 637.1487 637.1057 637.0624 637.0182 636.9722 636.9232 636.8718 636.8212 636.7756 636.7384 636.7112 636.6925 636.6794 636.6687 636.6582 636.6473 636.636 636.6249 636.6146 636.6058 636.5993 636.5956 636.5956 636.5995 636.6072 636.6184 636.6309 636.642 636.6503 636.655 636.6552 636.6506 636.642 636.6299 636.6158 636.6025 636.5917 636.5845 636.5815 636.5833 636.5901 636.6016 636.6172 636.6365 636.6578 636.6793 636.6992 636.7162 636.7282 636.7343 636.7338 636.7263 636.7131 636.6952 636.6859 636.6756 636.6614 636.64 636.64 636.64 636.6339 636.6335 636.6344 636.6356 636.6369 636.6401 636.6432 636.6468 636.6532 636.6611 636.6712 636.6837 636.6964 636.7075 636.7167 636.7255 636.7361 636.7496 636.7648 636.78 636.7927 636.8013 636.8046 636.8027 636.7972 636.7902 636.7821 636.7727 636.761 636.7458 636.7269 636.7052 636.683 636.6627 636.6456 636.6322 636.6233 636.6199 636.6152 636.6172 636.6399 636.6403 636.6916 636.7584 636.8333 636.9147 636.9988 637.0811 637.1561 637.2218 637.2789 637.3287 637.3718 637.4075 637.4337 637.4455 637.4373 637.4052 637.3464 637.2628 637.1597 637.0486 636.938 636.8375 636.7576 636.6965 636.6563 636.6439 636.6487 636.6484 636.6382 636.6272 636.6172 636.6001 636.5649 636.5098 636.4432 636.3774 636.3449 636.3739 636.4494 636.5096 636.5322 636.5645 636.6621 636.8707 637.2717 638.0257 639.0157 640.0481 640.5231 640.6254 640.6433 640.7572 -9999 -9999 -9999 -9999 -9999 -9999 -9999 -9999 -9999 -9999 -9999 -9999
637.1501 637.2501 637.2565 637.2565 637.2565 637.2569 637.2574 637.2578 637.2571 637.2555 637.2729 637.4376 637.5673 637.5924 637.5381 637.4807 637.4083 637.2701 637.2549 637.2379 637.0897 636.9958 636.8867 636.8012 636.7365 636.6805 636.6402 636.6397 636.5911 636.535 636.4896 636.4513 636.423 636.3992 636.3742 636.3434 636.306 636.2657 636.2286 636.2004 636.1854 636.1848 636.1973 636.2192 636.2466 636.2742 636.2989 636.3189 636.3336 636.3436 636.3507 636.3575 636.3658 636.3755 636.3867 636.3997 636.4158 636.434 636.4525 636.4706 636.4891 636.5095 636.5323 636.5568 636.5808 636.6025 636.6208 636.635 636.6448 636.6501 636.6522 636.6509 636.6471 636.64 636.6254 636.605 636.5806 636.5519 636.5178 636.4763 636.4264 636.3688 636.3059 636.243 636.1893 636.156 636.1508 636.1774 636.2394 636.3408 636.486 636.6759 636.9049 637.1576 637.4111 637.6409 637.8267 637.9513 637.9862 637.7463 637.5509 637.563 637.5714 637.5591 637.5282 637.483 637.4279 637.3697 637.3135 637.2649 637.225 637.1958 637.1744 637.1616 637.1528 637.144 637.1334 637.12 637.1027 637.0811 637.0542 637.0209 636.9814 636.9359 636.8846 636.8296 636.7692 636.7061 636.6416 636.5759 636.5146 636.4567 636.405 636.3586 636.3188 636.2864 636.2574 636.2302 636.2061 636.1842 636.1633 636.142 636.1194 636.0963 636.067 636.0316 635.9965 635.9618 635.9307 635.9063 635.8885 635.8697 635.8496 635.8273 635.8064 635.7894 635.7717 635.7496 635.7261 635.705 635.6865 635.6684 635.6483 635.6276 635.6132 635.6158 635.6439 635.6953 635.757 635.8123 635.8496 635.8663 635.8671 635.8598 635.8537 635.8569 635.8747 635.9076 635.9551 636.0153 636.0778 636.1208 636.1228 636.0795 636.0041 635.9188 635.843 635.7944 635.7816 635.7976 635.8304 635.8637 635.8792 635.8723 635.8546 635.8374 635.8337 635.8568 635.9073 636.0019 636.1337 636.2916 636.4649 636.6223 636.7224 636.6405 636.5146 636.4485 636.3995 636.3674 636.3899 636.4521 636.6061 636.7864 636.8729 636.8853 636.8297 636.803 636.8044 636.8219 636.8522 636.8951 636.948 637.0057 637.0621 637.1135 637.1536 637.1743 637.1851 637.1892 637.1877 637.1784 637.1501 637.1118 637.0691 637.0242 636.9801 636.9378 636.8964 636.8542 636.8108 636.7679 636.7289 636.6971 636.6744 636.6602 636.6522 636.6472 636.6425 636.6362 636.6281 636.6188 636.6091 636.6002 636.5931 636.5889 636.588 636.5908 636.5969 636.6066 636.6184 636.6298 636.6384 636.6438 636.6451 636.6423 636.6364 636.6282 636.6187 636.6093 636.602 636.5975 636.5964 636.5986 636.6039 636.6127 636.624 636.6373 636.6516 636.6655 636.6782 636.689 636.6951 636.6953 636.689 636.6759 636.6638 636.6401 636.64 636.64 636.64 636.6246 636.6205 636.6198 636.6176 636.618 636.6199 636.6225 636.6255 636.629 636.6324 636.6367 636.6429 636.6508 636.6611 636.6736 636.6866 636.6986 636.709 636.7186 636.7288 636.7405 636.7538 636.7678 636.7811 636.7921 636.7994 636.8024 636.8013 636.7969 636.7898 636.7803 636.7684 636.7534 636.7349 636.7136 636.6913 636.6698 636.6499 636.6325 636.6182 636.6071 636.5981 636.5952 636.6017 636.606 636.64 636.6898 636.7521 636.8299 636.9164 637.0046 637.0881 637.1629 637.2273 637.2825 637.3302 637.3704 637.4008 637.4185 637.4171 637.3918 637.34 637.2623 637.1622 637.0494 636.9354 636.8278 636.7354 636.6609 636.6029 636.5681 636.5544 636.5411 636.5181 636.4967 636.4848 636.4761 636.4586 636.4254 636.3853 636.3487 636.3308 636.3573 636.429 636.5056 636.5432 636.5784 636.6737 636.8813 637.2488 637.7992 638.5428 639.5666 640.1115 640.3746 640.5261 640.7177 -9999 -9999 -9999 -9999 -9999 -9999 -9999 -9999 -9999 -9999 -9999 -9999
637.2101 637.254 637.2438 637.217 637.1907 637.1752 637.1758 637.1882 637.2019 637.2074 637.2122 637.2501 637.2537 637.2551 637.2527 637.252 637.2453 637.1257 637.0636 637.0136 636.9114 636.8226 636.7485 636.7124 636.6852 636.64 636.598 636.5681 636.5135 636.4515 636.3988 636.36 636.3333 636.3102 636.2822 636.2449 636.1999 636.1546 636.1183 636.0986 636.0997 636.1215 636.1594 636.2068 636.2563 636.3016 636.338 636.3634 636.3783 636.3843 636.3843 636.382 636.3809 636.3824 636.3865 636.3928 636.4025 636.4158 636.4313 636.4477 636.4646 636.4827 636.5029 636.5251 636.5481 636.5703 636.5902 636.6072 636.6209 636.631 636.6378 636.6416 636.6426 636.64 636.6334 636.621 636.6046 636.583 636.5543 636.5167 636.4705 636.4169 636.3577 636.2976 636.2459 636.2136 636.2093 636.2367 636.2977 636.3962 636.5365 636.7201 636.9426 637.1909 637.444 637.6769 637.8645 637.9807 638.0002 637.9751 637.9638 637.8199 637.7179 637.6411 637.5715 637.5028 637.4344 637.3683 637.3091 637.2589 637.2202 637.1922 637.1743 637.1629 637.157 637.1534 637.1486 637.1404 637.1276 637.1094 637.0857 637.0559 637.0197 636.9769 636.9277 636.8726 636.8129 636.7489 636.682 636.6151 636.5486 636.4875 636.4326 636.3843 636.3419 636.3066 636.2777 636.2516 636.2282 636.2064 636.1849 636.1631 636.1412 636.1199 636.0976 636.0692 636.0385 636.0087 635.9786 635.9521 635.9323 635.9171 635.9019 635.8842 635.8623 635.8407 635.8185 635.7913 635.7606 635.7315 635.7079 635.6898 635.6757 635.6628 635.6523 635.651 635.6666 635.7025 635.7521 635.8021 635.8391 635.8562 635.8546 635.8391 635.8179 635.8016 635.799 635.814 635.848 635.9008 635.9648 636.0198 636.0392 636.0088 635.9369 635.8447 635.7545 635.6864 635.6537 635.6583 635.6927 635.7394 635.7747 635.7866 635.7802 635.7671 635.7579 635.7637 635.7949 635.852 635.9496 636.0686 636.2003 636.3171 636.3794 636.3617 636.2803 636.2192 636.1928 636.1556 636.158 636.22 636.3243 636.4508 636.5381 636.5756 636.5721 636.5696 636.5787 636.5992 636.6329 636.6823 636.7451 636.8157 636.8865 636.9511 637.004 637.041 637.0649 637.0779 637.0811 637.0732 637.0508 637.0182 636.98 636.9397 636.8994 636.8613 636.8262 636.7928 636.7599 636.7274 636.6973 636.672 636.6537 636.6426 636.6376 636.6365 636.6359 636.6334 636.6284 636.6211 636.6127 636.6044 636.5975 636.593 636.5916 636.5932 636.5981 636.6057 636.6155 636.6259 636.6346 636.6403 636.6422 636.6406 636.6367 636.6315 636.6257 636.6202 636.6158 636.6135 636.6134 636.6157 636.6193 636.6248 636.6321 636.6399 636.6472 636.6533 636.6575 636.6626 636.6654 636.6639 636.657 636.6401 636.64 636.6198 636.6123 636.6104 636.6092 636.6014 636.5974 636.5958 636.595 636.5961 636.5986 636.6023 636.6066 636.6112 636.6156 636.6204 636.6265 636.6342 636.6439 636.6558 636.6688 636.6814 636.6927 636.7028 636.7126 636.7229 636.7344 636.7469 636.7599 636.7721 636.782 636.7887 636.7917 636.7908 636.786 636.778 636.7673 636.7535 636.7365 636.7166 636.6951 636.6735 636.6526 636.6329 636.6151 636.5995 636.5867 636.5787 636.5776 636.5822 636.6041 636.64 636.6873 636.7614 636.8491 636.9414 637.0317 637.1144 637.1864 637.2474 637.2991 637.3423 637.3756 637.3964 637.4001 637.3811 637.3365 637.2654 637.171 637.0605 636.9446 636.8314 636.729 636.6425 636.5712 636.5178 636.4838 636.4557 636.4213 636.3902 636.3765 636.3737 636.3671 636.3478 636.325 636.3138 636.3203 636.355 636.4227 636.5066 636.5687 636.6152 636.7111 636.9121 637.2446 637.683 638.3263 639.1293 639.7703 640.175 640.4397 640.6863 -9999 -9999 -9999 -9999 -9999 -9999 -9999 -9999 -9999 -9999 -9999 -9999
637.4203 637.4486 637.427 637.3748 637.3182 637.2859 637.2936 637.3314 637.3731 637.3958 637.3925 637.3679 637.3074 637.2499 637.2037 637.1645 637.1165 637.0178 636.9355 636.865 636.7811 636.7011 636.6406 636.64 636.6395 636.5888 636.536 636.4835 636.4193 636.3536 636.3004 636.265 636.2417 636.2184 636.1848 636.1384 636.0852 636.0374 636.0081 636.0063 636.0352 636.0908 636.1644 636.2448 636.3209 636.3846 636.4305 636.4568 636.4655 636.4609 636.4476 636.4307 636.4146 636.4029 636.3964 636.3942 636.3958 636.4022 636.4127 636.426 636.4409 636.4574 636.4756 636.4958 636.5175 636.5394 636.5604 636.5793 636.5959 636.6099 636.6211 636.6297 636.6359 636.6394 636.64 636.6345 636.6256 636.6124 636.5914 636.5599 636.5184 636.4688 636.4135 636.3568 636.3068 636.2745 636.2695 636.2958 636.3546 636.4481 636.5807 636.754 636.9651 637.2034 637.45 637.6816 637.8734 638.0001 638.0466 638.0449 638.0007 637.9034 637.7921 637.6877 637.5928 637.505 637.4244 637.3519 637.2889 637.2382 637.2002 637.1747 637.1597 637.1531 637.1514 637.1521 637.1525 637.1503 637.1433 637.1304 637.1106 637.0844 637.0516 637.0125 636.9664 636.9141 636.8562 636.7936 636.7275 636.6593 636.5919 636.5272 636.4682 636.4169 636.3716 636.3328 636.301 636.2745 636.2513 636.2307 636.2107 636.1896 636.1687 636.147 636.1279 636.106 636.0796 636.0532 636.0272 636.0013 635.9793 635.9636 635.9501 635.9377 635.9218 635.902 635.8808 635.8551 635.8234 635.79 635.7607 635.7394 635.7264 635.7195 635.7158 635.7157 635.7244 635.7469 635.7828 635.8243 635.8597 635.8796 635.8817 635.8677 635.8423 635.8149 635.796 635.7928 635.8085 635.8451 635.8994 635.9567 635.9911 635.9797 635.9216 635.8337 635.738 635.6537 635.5999 635.5779 635.5926 635.6355 635.6808 635.7076 635.715 635.7106 635.7032 635.7043 635.7217 635.7612 635.8242 635.9142 636.0105 636.0995 636.1539 636.162 636.1357 636.0714 636.0551 636.0444 636.0344 636.0685 636.1402 636.2281 636.3019 636.3492 636.3735 636.3907 636.4091 636.4316 636.4629 636.5085 636.5692 636.6401 636.714 636.7837 636.8434 636.8903 636.9247 636.947 636.9579 636.957 636.9438 636.9209 636.8918 636.8594 636.8264 636.7946 636.7659 636.7407 636.7179 636.6962 636.6758 636.6582 636.6448 636.6365 636.633 636.6331 636.6343 636.6342 636.6315 636.6264 636.6199 636.6132 636.6075 636.6038 636.6022 636.6033 636.6068 636.6125 636.6196 636.6276 636.6354 636.641 636.6429 636.6419 636.6398 636.6368 636.6338 636.6313 636.6295 636.6285 636.629 636.6308 636.6329 636.6354 636.6387 636.6421 636.6445 636.645 636.64 636.64 636.64 636.64 636.64 636.624 636.6145 636.5991 636.589 636.5836 636.5798 636.5746 636.571 636.5692 636.5688 636.57 636.5728 636.577 636.5822 636.5878 636.5933 636.5988 636.605 636.6125 636.6216 636.6323 636.6445 636.6573 636.6691 636.6796 636.6893 636.6989 636.7089 636.7199 636.7318 636.744 636.7552 636.7646 636.771 636.7735 636.772 636.7666 636.7582 636.7467 636.7319 636.7142 636.6943 636.6736 636.6528 636.6324 636.6128 636.5948 636.5798 636.5693 636.5648 636.5677 636.5822 636.6063 636.6402 636.7123 636.7987 636.8926 636.9872 637.0762 637.1548 637.2213 637.2768 637.3221 637.3573 637.3797 637.3857 637.3712 637.3326 637.2688 637.181 637.076 636.9622 636.8464 636.7363 636.6389 636.5554 636.4869 636.4348 636.3915 636.3467 636.3075 636.2902 636.293 636.2954 636.2863 636.2732 636.2794 636.3127 636.3664 636.4389 636.5161 636.588 636.6431 636.7288 636.908 637.2145 637.5608 638.1975 638.9744 639.6237 640.0901 640.4175 640.6931 -9999 -9999 -9999 -9999 -9999 -9999 -9999 -9999 -9999 -9999 -9999 -9999
637.6992 637.7268 637.695 637.6133 637.5178 637.4675 637.4918 637.573 637.655 637.6986 637.6898 637.6279 637.5087 637.3855 637.2715 637.1655 637.0614 636.9493 636.8535 636.7765 636.7065 636.6403 636.5898 636.5654 636.5438 636.4986 636.4445 636.3824 636.3123 636.2463 636.1976 636.1689 636.1502 636.1255 636.0844 636.028 635.9683 635.9236 635.911 635.9402 636.0109 636.114 636.2341 636.3544 636.4601 636.5405 636.5907 636.6107 636.6044 636.5795 636.5444 636.5059 636.4691 636.4387 636.417 636.4032 636.3956 636.3939 636.3977 636.4062 636.418 636.4324 636.4489 636.4677 636.4884 636.5099 636.5312 636.5515 636.5704 636.5874 636.6025 636.6156 636.6265 636.6349 636.64 636.6427 636.6425 636.6378 636.6259 636.6028 636.5678 636.5234 636.4724 636.4189 636.3704 636.3373 636.3298 636.3531 636.4076 636.4945 636.6168 636.7767 636.9724 637.1954 637.4302 637.6565 637.8535 637.9993 638.0548 638.0514 638 637.9122 637.8035 637.6907 637.5831 637.4847 637.3964 637.3196 637.2553 637.2041 637.1669 637.1432 637.1312 637.1284 637.1317 637.1376 637.1434 637.1462 637.1448 637.1375 637.1232 637.1017 637.0731 637.0378 636.9961 636.948 636.8942 636.8352 636.772 636.7065 636.6401 636.5752 636.514 636.4589 636.4106 636.3681 636.3322 636.3024 636.2771 636.256 636.2374 636.2188 636.1991 636.1806 636.1606 636.1435 636.1232 636.1004 636.0778 636.0552 636.0333 636.0161 636.0035 635.9921 635.9813 635.9667 635.9488 635.9275 635.9001 635.8679 635.8362 635.8108 635.795 635.7897 635.7911 635.7959 635.8041 635.8188 635.8425 635.8728 635.9025 635.9231 635.9299 635.9224 635.9018 635.8729 635.8455 635.8279 635.825 635.8408 635.8764 635.9247 635.9663 635.9756 635.9395 635.8674 635.7783 635.6896 635.6184 635.5753 635.5566 635.5735 635.6148 635.6516 635.671 635.6777 635.6765 635.6777 635.6915 635.7181 635.7626 635.8254 635.8982 635.9658 636.0178 636.0336 636.051 636.0104 635.9764 635.9781 635.9826 635.9988 636.0425 636.1006 636.1578 636.2057 636.2433 636.2751 636.3036 636.3304 636.3598 636.3979 636.449 636.5107 636.5776 636.6436 636.7034 636.7537 636.7935 636.8224 636.8403 636.8474 636.844 636.8315 636.8126 636.7897 636.7651 636.7408 636.7188 636.7 636.6848 636.672 636.6606 636.6508 636.6429 636.6377 636.6354 636.6354 636.6365 636.6368 636.6354 636.6321 636.6276 636.6229 636.619 636.6167 636.6161 636.6169 636.6195 636.6234 636.628 636.6329 636.6383 636.6428 636.6442 636.6426 636.6418 636.6409 636.6399 636.6392 636.6389 636.6389 636.6394 636.64 636.64 636.64 636.64 636.64 636.64 636.64 636.6307 636.6245 636.6205 636.6178 636.6139 636.6019 636.59 636.5767 636.5656 636.5579 636.5521 636.5469 636.5431 636.5409 636.5404 636.5415 636.5444 636.5486 636.5541 636.5603 636.5665 636.5729 636.5795 636.587 636.5953 636.605 636.616 636.6281 636.6399 636.6508 636.6606 636.6699 636.679 636.6887 636.6993 636.7109 636.7224 636.7331 636.7421 636.7479 636.7498 636.7477 636.7422 636.7336 636.7219 636.707 636.6894 636.6702 636.6503 636.6302 636.6105 636.592 636.5763 636.5651 636.5601 636.5632 636.5769 636.6021 636.64 636.6907 636.7651 636.856 636.9529 637.0466 637.131 637.2025 637.261 637.3077 637.3431 637.3661 637.373 637.3605 637.3263 637.269 637.1885 637.0901 636.9813 636.8672 636.7532 636.647 636.5522 636.4696 636.4019 636.3455 636.2925 636.2471 636.2247 636.2285 636.2394 636.2402 636.2369 636.2533 636.3091 636.3895 636.4745 636.5514 636.6048 636.6491 636.703 636.8165 637.0253 637.3547 638.0895 638.9341 639.6099 640.1035 640.4512 640.7272 -9999 -9999 -9999 -9999 -9999 -9999 -9999 -9999 -9999 -9999 -9999 -9999
637.9409 637.9771 637.9435 637.829 637.6752 637.5998 637.6542 637.8021 637.931 637.9814 637.9519 637.8622 637.692 637.5269 637.3613 637.1978 637.0459 636.9104 636.8037 636.7281 636.6763 636.6395 636.5608 636.4968 636.4454 636.3934 636.3367 636.2702 636.1981 636.1358 636.0951 636.0754 636.0618 636.0349 635.9855 635.9202 635.8588 635.8265 635.8434 635.9187 636.0471 636.2113 636.3877 636.5526 636.6875 636.7804 636.8271 636.8307 636.799 636.7432 636.6759 636.6074 636.5441 636.4904 636.4489 636.4197 636.4008 636.3902 636.3865 636.3889 636.3962 636.4076 636.4221 636.4397 636.4596 636.481 636.5027 636.5242 636.5447 636.5642 636.5825 636.5994 636.6149 636.6285 636.64 636.6456 636.6537 636.6585 636.656 636.6427 636.616 636.5781 636.5323 636.4825 636.4354 636.401 636.3895 636.4072 636.4553 636.5337 636.6438 636.7878 636.9647 637.1678 637.384 637.5958 637.7836 637.9262 637.9997 637.9999 637.9506 637.8687 637.7667 637.6559 637.5458 637.4435 637.3528 637.275 637.2108 637.1608 637.1247 637.1022 637.0922 637.092 637.0988 637.109 637.1195 637.1276 637.131 637.1287 637.1195 637.1031 637.0797 637.0491 637.0121 636.9694 636.921 636.8679 636.8102 636.7495 636.6877 636.6259 636.566 636.51 636.459 636.4138 636.3737 636.3395 636.3099 636.2855 636.2659 636.2488 636.2321 636.2151 636.2001 636.1829 636.1678 636.1508 636.1322 636.1135 636.0948 636.077 636.0647 636.0542 636.0449 636.0351 636.0215 636.0042 635.9821 635.9547 635.9249 635.8978 635.8784 635.8701 635.8724 635.8813 635.8931 635.9064 635.923 635.9431 635.9641 635.9805 635.9882 635.986 635.9732 635.9504 635.9226 635.8978 635.881 635.8768 635.89 635.9202 635.9573 635.9806 635.9697 635.9218 635.8501 635.7712 635.696 635.6392 635.6 635.5813 635.5965 635.6304 635.66 635.6779 635.6869 635.691 635.7036 635.7271 635.7573 635.802 635.8568 635.9104 635.9553 635.9881 635.9878 636.0207 635.9689 635.9574 635.9661 635.9826 636.0104 636.0501 636.094 636.1364 636.177 636.2168 636.2544 636.2881 636.3195 636.3527 636.3929 636.4415 636.4954 636.551 636.604 636.6515 636.6915 636.7227 636.7444 636.7572 636.7614 636.7576 636.7476 636.7338 636.7178 636.7009 636.6854 636.6719 636.6617 636.6547 636.6496 636.6461 636.6434 636.6418 636.6412 636.6413 636.6415 636.6411 636.6396 636.6373 636.6347 636.632 636.6296 636.6287 636.6292 636.6304 636.6321 636.6343 636.6367 636.6389 636.6414 636.6436 636.6439 636.64 636.64 636.64 636.64 636.64 636.64 636.64 636.64 636.6382 636.636 636.6339 636.6317 636.6294 636.6268 636.6233 636.6147 636.6066 636.5999 636.5941 636.5873 636.5767 636.5647 636.5522 636.5411 636.5322 636.525 636.5194 636.515 636.5123 636.5112 636.512 636.5143 636.5182 636.5236 636.5299 636.5367 636.5437 636.5508 636.5583 636.5663 636.575 636.5848 636.5957 636.6069 636.6179 636.6279 636.6373 636.6462 636.6552 636.6648 636.6753 636.6863 636.6976 636.7081 636.7167 636.7218 636.723 636.7208 636.7156 636.7072 636.6956 636.6808 636.6638 636.6455 636.6266 636.6075 636.5897 636.5745 636.5639 636.5598 636.5637 636.5775 636.6029 636.64 636.6707 636.7371 636.8265 636.9255 637.0231 637.1121 637.188 637.2494 637.2967 637.3313 637.3528 637.3595 637.3479 637.3163 637.2637 637.1907 637.0995 636.9969 636.8871 636.7729 636.6614 636.5576 636.4626 636.3798 636.3118 636.2542 636.2062 636.1782 636.1777 636.1917 636.2019 636.2123 636.2426 636.3144 636.422 636.5279 636.6064 636.6483 636.6591 636.6776 636.7461 636.9221 637.2931 638.0585 638.9464 639.6699 640.1734 640.506 640.7528 -9999 -9999 -9999 -9999 -9999 -9999 -9999 -9999 -9999 -9999 -9999 -9999
638.0192 638.076 638.0712 637.9395 637.6923 637.5795 637.6787 637.9302 638.0966 638.0988 637.9765 637.8586 637.7128 637.5873 637.4132 637.2178 637.0366 636.8839 636.7699 636.6946 636.6401 636.5903 636.5068 636.4221 636.3507 636.2896 636.2286 636.1593 636.0876 636.0311 636.0005 635.9908 635.9819 635.9525 635.8956 635.8253 635.7697 635.7607 635.8209 635.9574 636.158 636.3947 636.6334 636.8427 637.0029 637.1016 637.136 637.1128 637.0444 636.9473 636.8384 636.7318 636.6361 636.5552 636.4908 636.4432 636.4105 636.3895 636.3778 636.3738 636.3761 636.3835 636.3956 636.4116 636.4308 636.4519 636.4742 636.4966 636.5187 636.5402 636.5612 636.5813 636.6002 636.6172 636.6308 636.64 636.6578 636.6731 636.6808 636.6775 636.6605 636.6305 636.5906 636.5453 636.5002 636.4645 636.4482 636.4585 636.4977 636.5654 636.6618 636.788 636.9435 637.1231 637.3157 637.5059 637.6754 637.8058 637.8796 637.8916 637.8549 637.785 637.694 637.5923 637.4878 637.3882 637.2991 637.2233 637.1613 637.1133 637.079 637.0577 637.0484 637.0494 637.0577 637.0704 637.0839 637.0955 637.103 637.1049 637.1 637.0884 637.0695 637.0442 637.0123 636.9752 636.9333 636.8871 636.837 636.7836 636.7283 636.6728 636.6178 636.5643 636.5138 636.467 636.4244 636.3862 636.3529 636.3239 636.3007 636.2825 636.2673 636.2534 636.2399 636.2285 636.2153 636.2027 636.1893 636.1755 636.1614 636.1469 636.1335 636.1252 636.1165 636.1085 636.0987 636.0854 636.0679 636.0457 636.0202 635.9946 635.9736 635.9611 635.9601 635.9695 635.9843 636 636.0149 636.0292 636.0422 636.0518 636.0554 636.053 636.0448 636.0293 636.0067 635.9817 635.9586 635.9404 635.9332 635.9419 635.9639 635.9885 635.9973 635.9762 635.9287 635.8679 635.8045 635.7468 635.7012 635.6638 635.647 635.66 635.6871 635.7139 635.7335 635.7463 635.7587 635.7817 635.8082 635.838 635.8781 635.9207 635.9594 635.9909 636.0151 636.0099 636.0413 636.0037 635.9952 636.0055 636.0267 636.0558 636.0901 636.1268 636.1652 636.2064 636.2489 636.2888 636.3243 636.3571 636.3909 636.4279 636.4681 636.5101 636.5521 636.5917 636.6271 636.6563 636.6782 636.6931 636.7013 636.7031 636.6998 636.6929 636.6838 636.6737 636.6638 636.655 636.6484 636.6444 636.6427 636.6427 636.6437 636.6451 636.6466 636.6475 636.6472 636.6459 636.6437 636.6414 636.64 636.6389 636.6373 636.6373 636.6382 636.6394 636.6404 636.64 636.64 636.64 636.64 636.64 636.64 636.6345 636.6315 636.6301 636.6295 636.6292 636.6288 636.6283 636.6271 636.6248 636.6215 636.618 636.6143 636.6104 636.6058 636.6002 636.5922 636.5837 636.5759 636.5684 636.5601 636.5497 636.5381 636.5264 636.5153 636.5059 636.498 636.4919 636.4869 636.4835 636.4818 636.4818 636.4835 636.4866 636.4913 636.4976 636.5046 636.512 636.5193 636.5271 636.535 636.5433 636.5521 636.5616 636.5719 636.5823 636.5925 636.6022 636.6115 636.6204 636.6295 636.6393 636.6497 636.6609 636.6721 636.6825 636.6903 636.6947 636.6956 636.6936 636.6887 636.6807 636.6692 636.6549 636.6388 636.6215 636.6039 636.5875 636.5739 636.5646 636.5615 636.5654 636.5768 636.5947 636.6166 636.6401 636.7112 636.8033 636.9042 637.0043 637.0961 637.1752 637.2388 637.2867 637.3197 637.3389 637.3436 637.3314 637.301 637.2524 637.1852 637.1017 637.0062 636.9017 636.7894 636.6749 636.5658 636.4622 636.3667 636.287 636.2258 636.1787 636.1472 636.1381 636.1483 636.1654 636.1911 636.2441 636.3359 636.4642 636.5934 636.6803 636.7108 636.6995 636.6841 636.725 636.8929 637.286 638.054 638.9728 639.7676 640.2595 640.5427 640.7192 -9999 -9999 -9999 -9999 -9999 -9999 -9999 -9999 -9999 -9999 -9999 -9999
637.8074 637.8684 637.9609 637.8935 637.5057 637.3531 637.5023 637.9109 638.0765 637.9166 637.4539 637.1561 637.5242 637.5823 637.4247 637.2144 637.0238 636.8663 636.7524 636.6844 636.6398 636.5558 636.4514 636.3496 636.2657 636.1982 636.134 636.0631 635.993 635.9434 635.9236 635.9236 635.9188 635.887 635.8251 635.7551 635.7135 635.7382 635.8531 636.0621 636.3441 636.6588 636.9584 637.2028 637.3798 637.4757 637.4907 637.4347 637.3225 637.1772 637.0212 636.8715 636.7392 636.6284 636.5398 636.4724 636.4238 636.391 636.3707 636.3599 636.3568 636.3602 636.3691 636.3832 636.4014 636.4225 636.4452 636.4686 636.4921 636.5154 636.5387 636.5619 636.5844 636.6053 636.6239 636.64 636.6595 636.6812 636.6987 636.7059 636.6994 636.6784 636.6455 636.605 636.5626 636.5261 636.505 636.5071 636.5356 636.5908 636.6719 636.7793 636.912 637.0659 637.2323 637.3976 637.546 637.6617 637.7323 637.7532 637.7305 637.6752 637.5984 637.5093 637.4161 637.325 637.2417 637.1702 637.1119 637.067 637.0349 637.015 637.0062 637.0067 637.0148 637.0275 637.0419 637.0549 637.0647 637.0695 637.0682 637.0601 637.0454 637.0244 636.9979 636.9662 636.9305 636.8917 636.8499 636.8055 636.7588 636.711 636.6633 636.6157 636.5686 636.5232 636.48 636.4399 636.4042 636.3726 636.3453 636.3241 636.3082 636.296 636.2855 636.2761 636.2684 636.2595 636.2496 636.24 636.2308 636.2209 636.2109 636.202 636.1962 636.1886 636.1804 636.1702 636.1568 636.1394 636.1188 636.0969 636.0769 636.0623 636.0568 636.0626 636.0771 636.0948 636.1111 636.124 636.1327 636.1365 636.1343 636.127 636.1169 636.1044 636.0869 636.0651 636.0419 636.0184 635.9981 635.9879 635.9912 636.0046 636.0193 636.0198 635.9974 635.9587 635.9131 635.8672 635.8278 635.7906 635.7583 635.7466 635.759 635.7833 635.8109 635.8333 635.8501 635.8716 635.9001 635.925 635.9517 635.9838 636.0146 636.0432 636.0669 636.0842 636.0815 636.0986 636.0857 636.08 636.0887 636.108 636.1341 636.1644 636.1975 636.2346 636.2754 636.3168 636.3553 636.3896 636.4211 636.4513 636.4814 636.5118 636.5421 636.5715 636.5988 636.6225 636.6416 636.6553 636.6641 636.6683 636.6688 636.6664 636.662 636.6568 636.6514 636.6467 636.643 636.6406 636.64 636.6412 636.6434 636.6459 636.6486 636.6504 636.6505 636.649 636.6462 636.6429 636.6425 636.6421 636.64 636.64 636.64 636.64 636.64 636.6364 636.6328 636.6299 636.6276 636.6255 636.6229 636.6178 636.6135 636.6107 636.609 636.6078 636.6071 636.6058 636.604 636.6012 636.5975 636.5933 636.5885 636.5835 636.578 636.5718 636.5641 636.556 636.548 636.5397 636.5308 636.5208 636.5099 636.4987 636.4882 636.4788 636.4706 636.4641 636.4587 636.4551 636.4526 636.4518 636.4525 636.4547 636.4586 636.4641 636.4709 636.4783 636.4861 636.494 636.502 636.5102 636.5184 636.527 636.5363 636.546 636.5558 636.5653 636.5748 636.5842 636.5936 636.6034 636.6136 636.6246 636.6361 636.6476 636.6575 636.6646 636.6685 636.6694 636.6678 636.6635 636.6555 636.6444 636.6307 636.6157 636.6001 636.5856 636.5739 636.5664 636.5648 636.5693 636.5792 636.5936 636.6119 636.64 636.7031 636.791 636.89 636.9895 637.0818 637.1617 637.2264 637.2748 637.3066 637.3231 637.3247 637.3105 637.28 637.2339 637.1719 637.0951 637.0063 636.9081 636.7994 636.6837 636.5703 636.4628 636.36 636.2704 636.2042 636.1584 636.126 636.1077 636.1079 636.1276 636.1694 636.2484 636.3715 636.5204 636.6663 636.7634 636.7884 636.7578 636.7209 636.7427 636.9005 637.2841 638.0148 638.9492 639.8519 640.3101 640.5458 640.681 -9999 -9999 -9999 -9999 -9999 -9999 -9999 -9999 -9999 -9999 -9999 -9999
637.1644 637.1036 637.4028 637.6649 637.1409 637.0099 637.1524 637.7266 637.8256 637.4792 637.0666 637.265 637.9088 637.7081 637.4381 637.2094 637.0328 636.8804 636.7609 636.6879 636.6393 636.5288 636.4041 636.2898 636.2003 636.1304 636.0643 635.9929 635.9254 635.8828 635.8731 635.8817 635.8805 635.8474 635.7839 635.7201 635.6997 635.7645 635.9387 636.2219 636.5845 636.9729 637.3204 637.5731 637.752 637.8358 637.8311 637.7501 637.5988 637.4073 637.2057 637.0144 636.8453 636.7041 636.5912 636.504 636.4394 636.3937 636.3636 636.3457 636.3373 636.3365 636.3424 636.3544 636.3713 636.3923 636.4156 636.4401 636.465 636.49 636.5155 636.5414 636.5673 636.5924 636.6167 636.64 636.6554 636.6818 636.7083 636.7261 636.7303 636.7194 636.6945 636.6597 636.6204 636.5837 636.5585 636.5522 636.5696 636.6113 636.6765 636.7643 636.8741 637.0024 637.1418 637.2819 637.4087 637.5098 637.5754 637.6021 637.592 637.5521 637.4907 637.4164 637.3367 637.2577 637.1842 637.1196 637.0665 637.0256 636.9962 636.9778 636.9691 636.969 636.9754 636.9863 636.9991 637.0116 637.0215 637.0275 637.028 637.0226 637.0109 636.9937 636.9713 636.9449 636.9152 636.8832 636.8492 636.8138 636.7768 636.7383 636.699 636.6592 636.6182 636.5767 636.5354 636.4955 636.459 636.4269 636.3986 636.3749 636.3577 636.3457 636.337 636.3303 636.3251 636.3211 636.3156 636.3087 636.3026 636.2966 636.2909 636.2848 636.2795 636.2747 636.2675 636.2584 636.2477 636.2343 636.2183 636.2009 636.1841 636.1704 636.1625 636.1635 636.1742 636.1907 636.2079 636.2214 636.2295 636.231 636.2253 636.2124 636.1964 636.1805 636.1641 636.1445 636.1226 636.0996 636.0754 636.0536 636.0415 636.0401 636.0469 636.0548 636.052 636.0337 636.0064 635.9764 635.9484 635.9241 635.8956 635.8728 635.8685 635.8832 635.9086 635.9391 635.9642 635.985 636.0136 636.0413 636.0625 636.0847 636.1079 636.1295 636.15 636.168 636.1792 636.1805 636.1862 636.1869 636.189 636.1987 636.2149 636.2363 636.262 636.2918 636.3257 636.3623 636.3989 636.4327 636.463 636.4902 636.5148 636.5376 636.5591 636.5792 636.5979 636.6143 636.6282 636.6389 636.646 636.6501 636.6519 636.6517 636.6503 636.6477 636.6453 636.6434 636.6421 636.6411 636.6409 636.6417 636.6432 636.6442 636.6462 636.648 636.6486 636.6476 636.6454 636.64 636.64 636.64 636.6359 636.6329 636.6304 636.6281 636.6251 636.6202 636.6146 636.6095 636.605 636.6006 636.5963 636.5909 636.5858 636.582 636.5792 636.5773 636.5758 636.5741 636.5719 636.569 636.5652 636.5607 636.5555 636.55 636.5443 636.538 636.531 636.5236 636.5157 636.5076 636.499 636.4896 636.4797 636.4696 636.4598 636.4507 636.4427 636.436 636.4303 636.4261 636.4233 636.4216 636.4215 636.4229 636.4258 636.4303 636.4363 636.4435 636.4513 636.4594 636.4675 636.476 636.4841 636.4922 636.5006 636.5095 636.5187 636.5279 636.5375 636.5474 636.5574 636.5677 636.5784 636.5896 636.6013 636.6135 636.6249 636.6343 636.6407 636.6447 636.6461 636.645 636.6405 636.6327 636.6221 636.6096 636.5964 636.5842 636.5747 636.5695 636.5698 636.5756 636.5865 636.6014 636.6191 636.6401 636.7021 636.786 636.8808 636.9773 637.0676 637.1466 637.2108 637.2586 637.2896 637.3038 637.3026 637.2858 637.254 637.2094 637.1512 637.0801 636.9973 636.9039 636.8001 636.686 636.5692 636.4589 636.3545 636.26 636.1879 636.1405 636.1074 636.082 636.071 636.0876 636.1442 636.2502 636.4058 636.585 636.7432 636.8441 636.864 636.8196 636.7644 636.7712 636.9149 637.266 637.8846 638.739 639.7161 640.2195 640.4742 640.6266 -9999 -9999 -9999 -9999 -9999 -9999 -9999 -9999 -9999 -9999 -9999 -9999
637.7023 637.2172 637.0049 637.0409 636.9996 636.9996 636.9953 637.09 637.1028 636.9999 636.9034 637.1498 637.5498 637.5032 637.3732 637.249 637.1409 636.9948 636.8418 636.7299 636.6406 636.5273 636.3879 636.2633 636.1725 636.101 636.0321 635.9593 635.8938 635.8571 635.8555 635.8708 635.8727 635.8401 635.7795 635.7272 635.732 635.8365 636.0631 636.4067 636.8322 637.2754 637.6439 637.8389 637.9954 638.0575 638.0504 637.9833 637.8196 637.6014 637.3683 637.145 636.9453 636.7762 636.6399 636.5341 636.4543 636.3964 636.3563 636.3307 636.3166 636.3118 636.3147 636.3247 636.3407 636.3615 636.3853 636.4108 636.4371 636.464 636.4916 636.5199 636.5485 636.5764 636.6023 636.6241 636.64 636.6749 636.7098 636.7372 636.7521 636.7513 636.7356 636.7078 636.6725 636.6365 636.6077 636.5938 636.5999 636.6281 636.6773 636.7464 636.834 636.9375 637.0513 637.1669 637.2736 637.3605 637.4203 637.4498 637.4498 637.4243 637.3788 637.3202 637.2552 637.1895 637.1277 637.0729 637.0267 636.9905 636.9642 636.9476 636.9393 636.938 636.9423 636.9503 636.96 636.9696 636.9777 636.9828 636.9839 636.9799 636.9707 636.9562 636.9374 636.915 636.8904 636.8643 636.8374 636.8098 636.7818 636.7529 636.723 636.6915 636.6583 636.6227 636.5859 636.5488 636.5133 636.4817 636.4543 636.4315 636.4139 636.4025 636.3954 636.3909 636.3881 636.3866 636.3852 636.382 636.3776 636.3739 636.3708 636.3682 636.3646 636.3613 636.3568 636.3494 636.3398 636.3289 636.3165 636.303 636.2902 636.2797 636.2725 636.2707 636.2764 636.2886 636.3036 636.3171 636.3262 636.3288 636.3232 636.3085 636.2871 636.2648 636.2443 636.224 636.2017 636.1792 636.1562 636.1319 636.1105 636.0977 636.093 636.095 636.0991 636.0955 636.0828 636.0666 636.0503 636.038 636.0247 636.0067 635.995 635.9997 636.0182 636.047 636.0806 636.1075 636.133 636.164 636.1877 636.2045 636.2214 636.2369 636.2514 636.265 636.2776 636.2848 636.2883 636.2913 636.2954 636.3024 636.313 636.3265 636.3436 636.3645 636.3892 636.4172 636.447 636.4764 636.5038 636.5284 636.5503 636.5695 636.5857 636.5995 636.6112 636.621 636.6291 636.636 636.6406 636.6431 636.6447 636.6455 636.6453 636.6439 636.6424 636.6422 636.6422 636.6422 636.6423 636.6426 636.6426 636.64 636.64 636.64 636.64 636.64 636.64 636.6333 636.629 636.6255 636.6202 636.615 636.6102 636.6053 636.6 636.5934 636.5864 636.5795 636.5731 636.567 636.5612 636.5553 636.5498 636.5452 636.5415 636.5387 636.5365 636.5345 636.5322 636.5292 636.5255 636.5211 636.5161 636.5109 636.5051 636.4991 636.493 636.4866 636.4797 636.4725 636.4647 636.4562 636.4475 636.4385 636.4297 636.4213 636.4137 636.407 636.4014 636.3969 636.3936 636.3915 636.3907 636.3914 636.3934 636.3969 636.4018 636.4081 636.4156 636.4235 636.4316 636.4403 636.4489 636.4571 636.4651 636.4735 636.4821 636.491 636.5004 636.5103 636.521 636.532 636.5435 636.5553 636.5676 636.5803 636.593 636.6044 636.6134 636.6199 636.624 636.6259 636.6249 636.6205 636.6134 636.6041 636.5938 636.5841 636.577 636.5741 636.5764 636.584 636.5967 636.6151 636.64 636.6613 636.7128 636.7874 636.8748 636.9655 637.052 637.1283 637.1907 637.2371 637.2668 637.2797 637.2762 637.2574 637.2245 637.1802 637.1249 637.0577 636.9799 636.8911 636.7903 636.6796 636.5631 636.4499 636.3454 636.2507 636.1748 636.1228 636.0867 636.0562 636.0368 636.049 636.1144 636.2448 636.4301 636.6354 636.8108 636.9109 636.9211 636.8627 636.7907 636.7787 636.899 637.2089 637.6714 638.4559 639.3639 640.0073 640.3382 640.5582 -9999 -9999 -9999 -9999 -9999 -9999 -9999 -9999 -9999 -9999 -9999 -9999
