ncols         420
nrows         28
xllcorner     674150
yllcorner     6084250
cellsize      50
NODATA_value  -9999
534.7106 534.5737 534.4561 534.3577 534.2751 534.2025 534.13 534.044 533.9473 533.8455 533.7429 533.6425 533.5453 533.4515 533.3602 533.2712 533.1847 533.1015 533.022 532.9463 532.8741 532.8058 532.7427 532.6863 532.6382 532.6 532.5832 532.5608 532.5358 532.5093 532.4812 532.4517 532.4208 532.3889 532.3561 532.3221 532.2872 532.2516 532.2147 532.1764 532.1361 532.0942 532.0502 532.0035 531.954 531.9023 531.8486 531.7931 531.736 531.6775 531.6182 531.5583 531.4987 531.4396 531.3821 531.3267 531.2736 531.2231 531.1763 531.1346 531.1014 531.08 531.0365 530.9838 530.9231 530.8557 530.7827 530.7054 530.6245 530.5404 530.4535 530.3652 530.2779 530.1932 530.1115 530.0307 529.9493 529.8671 529.7858 529.7094 529.6424 529.5908 529.5599 529.5016 529.4336 529.3583 529.2767 529.1886 529.0926 528.9883 528.8765 528.7595 528.6408 528.5236 528.411 528.3063 528.2122 528.1318 528.0697 528.0299 527.9583 527.8812 527.7994 527.7125 527.6206 527.5239 527.4225 527.3161 527.205 527.0907 526.9755 526.8629 526.7563 526.6595 526.5761 526.5101 526.4822 526.446 526.4012 526.3486 526.2899 526.226 526.1558 526.0775 525.9894 525.8918 525.7864 525.6742 525.5572 525.4373 525.3173 525.2004 525.0883 524.9804 524.906 524.7608 524.5656 524.3397 524.1 523.8631 523.6448 523.4612 523.3745 523.2977 523.2194 523.1567 523.1194 523.1064 523.1123 523.1319 523.1637 523.2139 523.2849 523.3698 523.4601 523.5497 523.6053 523.7234 523.8662 524.0062 524.1415 524.2865 524.4593 524.6813 524.9792 525.3784 525.8934 526.5264 527.2985 527.9753 528.189 528.8069 529.5393 530.0611 530.5331 531.0939 531.8506 532.5821 533.0991 533.4897 533.8111 534.1287 534.5574 534.9473 535.2281 535.462 535.6487 535.8214 536.0045 536.1993 536.4117 536.6696 536.9599 537.2074 537.6228 537.9562 538.2542 538.6763 539.3994 540.408 542.0408 543.6813 544.4966 544.8853 -9999 -9999 -9999 -9999 -9999 -9999 -9999 -9999 -9999 -9999 -9999 -9999 -9999 -9999 -9999 -9999 -9999 -9999 -9999 -9999 -9999 -9999 -9999 -9999 -9999 -9999 -9999 -9999 -9999 -9999 -9999 -9999 -9999 -9999 -9999 -9999 -9999 -9999 -9999 -9999 -9999 -9999 -9999 -9999 -9999 -9999 -9999 -9999 -9999 -9999 -9999 -9999 -9999 -9999 -9999 -9999 -9999 -9999 -9999 -9999 -9999 -9999 -9999 -9999 -9999 -9999 -9999 -9999 -9999 -9999 -9999 -9999 -9999 -9999 -9999 -9999 -9999 -9999 -9999 -9999 -9999 -9999 -9999 -9999 -9999 -9999 -9999 -9999 -9999 -9999 -9999 -9999 -9999 -9999 -9999 -9999 -9999 -9999 -9999 -9999 -9999 -9999 -9999 -9999 -9999 -9999 -9999 -9999 -9999 -9999 -9999 -9999 -9999 -9999 -9999 -9999 -9999 -9999 -9999 -9999 -9999 -9999 -9999 -9999 -9999 -9999 -9999 -9999 -9999 -9999 -9999 -9999 -9999 -9999 -9999 -9999 -9999 -9999 -9999 -9999 -9999 -9999 -9999 -9999 -9999 -9999 -9999 -9999 554.1022 553.6715 553.0107 552.5059 551.4398 549.6494 547.4183 545.1053 543.0766 541.6846 540.4246 539.6664 539.303 538.8708 538.0809 537.5314 537.1084 536.7255 536.1775 535.6427 535.0984 534.6823 534.2179 534.0574 533.7249 533.4924 533.0755 532.6157 532.3143 532.207 532.0514 531.8831 531.75 531.6664 531.6489 531.7217 531.9193 532.2566 532.6754 533.5323 534.1851 534.8776 535.5779 536.2066 537.0334 537.6177 538.3109 538.9537 539.4725 539.8183 540.0012 540.0002 540 540.0062 540.0172 539.9716 539.8144 539.5214 539.2765 538.8229 538.418 538.0909 537.9823 537.9609 537.9575 538.0225 538.3224 538.9561
534.7136 534.5745 534.453 534.3502 534.265 534.1946 534.13 534.0435 533.9436 533.8387 533.7334 533.6305 533.5313 533.4357 533.3429 533.2526 533.1646 533.0797 532.9986 532.9216 532.8491 532.7817 532.7211 532.6694 532.6288 532.6 532.576 532.55 532.5223 532.4935 532.4633 532.4321 532.4 532.3674 532.334 532.2996 532.2645 532.2289 532.192 532.1538 532.1138 532.0719 532.0283 531.9821 531.9328 531.8812 531.8276 531.7723 531.7152 531.6566 531.5969 531.537 531.4774 531.4188 531.3618 531.3071 531.2549 531.2057 531.1599 531.1179 531.08 531.0581 531.0184 530.9653 530.9028 530.8328 530.7565 530.6758 530.5923 530.5068 530.4199 530.332 530.2445 530.1588 530.0755 529.9939 529.913 529.8328 529.7548 529.6816 529.616 529.5601 529.5316 529.4813 529.414 529.3354 529.2493 529.1569 529.0579 528.9514 528.8382 528.7203 528.601 528.4834 528.3707 528.2662 528.1727 528.0938 528.0302 527.989 527.9205 527.8381 527.7488 527.6554 527.559 527.46 527.3579 527.2524 527.1432 527.0315 526.9202 526.8129 526.7137 526.6274 526.5588 526.51 526.4709 526.429 526.3817 526.3286 526.2703 526.2078 526.1401 526.0643 525.9777 525.8793 525.7717 525.657 525.5366 525.4131 525.2906 525.1744 525.071 524.98 524.8684 524.7076 524.506 524.2776 524.0381 523.8066 523.6075 523.4601 523.3381 523.2291 523.1316 523.0548 523.0052 522.9814 522.9769 522.9875 523.0146 523.0645 523.1396 523.2365 523.3485 523.4579 523.462 523.5951 523.7523 523.9027 524.0487 524.2094 524.4032 524.6512 524.9791 525.4008 525.9158 526.5219 527.2655 527.8752 528.087 528.7742 529.5359 530.0732 530.5468 531.0952 531.8412 532.5845 533.1146 533.5272 533.8755 534.1874 534.7699 535.2183 535.436 535.6464 535.8016 535.9863 536.1766 536.3408 536.5132 536.7747 537.1617 537.54 538.0229 538.3975 538.6719 539.0496 539.8055 540.9718 542.3647 543.8182 544.5008 544.7435 -9999 -9999 -9999 -9999 -9999 -9999 -9999 -9999 -9999 -9999 -9999 -9999 -9999 -9999 -9999 -9999 -9999 -9999 -9999 -9999 -9999 -9999 -9999 -9999 -9999 -9999 -9999 -9999 -9999 -9999 -9999 -9999 -9999 -9999 -9999 -9999 -9999 -9999 -9999 -9999 -9999 -9999 -9999 -9999 -9999 -9999 -9999 -9999 -9999 -9999 -9999 -9999 -9999 -9999 -9999 -9999 -9999 -9999 -9999 -9999 -9999 -9999 -9999 -9999 -9999 -9999 -9999 -9999 -9999 -9999 -9999 -9999 -9999 -9999 -9999 -9999 -9999 -9999 -9999 -9999 -9999 -9999 -9999 -9999 -9999 -9999 -9999 -9999 -9999 -9999 -9999 -9999 -9999 -9999 -9999 -9999 -9999 -9999 -9999 -9999 -9999 -9999 -9999 -9999 -9999 -9999 -9999 -9999 -9999 -9999 -9999 -9999 -9999 -9999 -9999 -9999 -9999 -9999 -9999 -9999 -9999 -9999 -9999 -9999 -9999 -9999 -9999 -9999 -9999 -9999 -9999 -9999 -9999 -9999 -9999 -9999 -9999 -9999 -9999 -9999 -9999 -9999 555.8337 555.2098 -9999 -9999 554.327 554.3448 553.8519 552.8298 551.0606 550.4581 549.0986 547.0504 544.6855 542.481 540.7438 539.4901 538.4996 537.912 538.0142 537.7878 537.1471 536.5411 536.1461 535.7122 535.3097 534.9528 534.5444 534.1249 533.7218 533.4592 533.1656 532.9661 532.6112 532.2664 532.028 531.9055 531.7991 531.6948 531.6057 531.5465 531.5397 531.6113 531.793 532.1292 532.7078 533.8603 534.4872 535.0583 535.6696 536.4025 537.173 537.7302 538.2368 538.7178 539.165 539.5389 539.9672 539.896 539.905 539.9656 540.0106 539.9777 539.8146 539.4931 538.9527 538.2985 537.7215 537.2681 537.1733 537.1605 537.1505 537.2442 537.7267 538.3896
534.7112 534.5698 534.4443 534.3359 534.245 534.1749 534.1298 534.0375 533.9346 533.8284 533.7219 533.6176 533.5168 533.4203 533.3267 533.2356 533.1465 533.0602 532.9773 532.899 532.8259 532.759 532.7003 532.6525 532.6185 532.6 532.5703 532.5396 532.5084 532.4771 532.4449 532.4121 532.3788 532.3453 532.3113 532.2765 532.2413 532.2056 532.1688 532.1307 532.0909 532.0494 532.006 531.9598 531.9108 531.8593 531.806 531.751 531.6941 531.6354 531.5753 531.5152 531.4557 531.3976 531.3413 531.2876 531.2368 531.1896 531.1468 531.1104 531.08 531.0466 531.0008 530.9439 530.8787 530.8065 530.728 530.6445 530.5581 530.4707 530.3834 530.2963 530.2094 530.1234 530.0389 529.9564 529.8757 529.7975 529.7239 529.6577 529.6027 529.56 529.5198 529.4655 529.3958 529.3137 529.2231 529.1265 529.024 528.9153 528.8009 528.6824 528.563 528.4458 528.334 528.2306 528.14 528.0695 528.0299 527.9638 527.8849 527.7961 527.701 527.6026 527.5023 527.4007 527.2976 527.1924 527.0847 526.9756 526.8679 526.7657 526.6736 526.5966 526.5406 526.5099 526.4625 526.4133 526.3623 526.3081 526.2507 526.1904 526.1252 526.0522 525.9672 525.869 525.7594 525.6415 525.5179 525.3907 525.2639 525.1443 525.0448 524.9794 524.8387 524.6603 524.4515 524.2214 523.9818 523.7513 523.5623 523.4585 523.2987 523.1541 523.0319 522.9377 522.875 522.84 522.8248 522.8245 522.8419 522.8838 522.9534 523.0471 523.1548 523.2573 523.3252 523.4599 523.6212 523.7809 523.9424 524.1315 524.3575 524.63 524.9786 525.4471 525.9757 526.5266 527.2679 527.9595 528.2091 528.8167 529.5439 530.0827 530.5551 531.094 531.8324 532.5851 533.1445 533.62 534.101 534.5841 535.2017 535.6207 535.6646 535.8145 535.9684 536.1598 536.3316 536.4412 536.5475 536.7745 537.1926 537.8003 538.4719 538.9464 539.2015 539.5036 540.3924 541.689 542.8629 543.9288 544.4694 -9999 -9999 -9999 -9999 -9999 -9999 -9999 -9999 -9999 -9999 -9999 -9999 -9999 -9999 -9999 -9999 -9999 -9999 -9999 -9999 -9999 -9999 -9999 -9999 -9999 -9999 -9999 -9999 -9999 -9999 -9999 -9999 -9999 -9999 -9999 -9999 -9999 -9999 -9999 -9999 -9999 -9999 -9999 -9999 -9999 -9999 -9999 -9999 -9999 -9999 -9999 -9999 -9999 -9999 -9999 -9999 -9999 -9999 -9999 -9999 -9999 -9999 -9999 -9999 -9999 -9999 -9999 -9999 -9999 -9999 -9999 -9999 -9999 -9999 -9999 -9999 -9999 -9999 -9999 -9999 -9999 -9999 -9999 -9999 -9999 -9999 -9999 -9999 -9999 -9999 -9999 -9999 -9999 -9999 -9999 -9999 -9999 -9999 -9999 -9999 -9999 -9999 -9999 -9999 -9999 -9999 -9999 -9999 -9999 -9999 -9999 -9999 -9999 -9999 -9999 -9999 -9999 -9999 -9999 -9999 -9999 -9999 -9999 -9999 -9999 -9999 -9999 -9999 -9999 -9999 -9999 -9999 -9999 -9999 -9999 -9999 -9999 -9999 -9999 555.9554 555.1168 554.5171 554.7478 554.6725 554.0802 553.4988 553.4075 553.7039 553.7101 553.1115 551.6415 549.7935 548.1718 546.2271 543.9457 541.6581 539.8437 538.5336 537.5993 537.073 536.8121 536.8471 536.7343 536.4311 535.7973 535.5463 535.13 534.7477 534.4854 534.1096 533.6563 533.2738 532.9444 532.637 532.5759 532.2845 531.9907 531.7808 531.6635 531.5895 531.5341 531.4908 531.47 531.493 531.5865 531.7803 532.1281 532.7403 533.961 534.6439 535.1552 535.683 536.4454 537.1847 537.68 538.0288 538.3602 538.7494 539.1445 539.4926 539.5184 539.6848 539.8535 539.9498 539.9374 539.7661 539.4203 538.6379 537.8008 537.1727 536.719 536.5237 536.437 536.3685 536.5284 537.1146 537.738
534.7024 534.5601 534.4318 534.3181 534.2175 534.1302 534.084 534.0085 533.9148 533.8127 533.7079 533.6035 533.5023 533.4053 533.3116 533.2203 533.1306 533.0431 532.9587 532.8789 532.8049 532.7378 532.6799 532.6337 532.6 532.5824 532.5559 532.525 532.4924 532.4591 532.4254 532.3911 532.3568 532.3225 532.288 532.2529 532.2177 532.1819 532.1451 532.107 532.0674 532.0261 531.9827 531.9368 531.8881 531.8367 531.7836 531.7289 531.6722 531.6136 531.5535 531.4929 531.4335 531.3757 531.3204 531.2679 531.2188 531.1733 531.1331 531.1008 531.08 531.037 530.9832 530.9208 530.8518 530.777 530.6968 530.6113 530.5225 530.4329 530.3446 530.2578 530.1716 530.0861 530.0013 529.9185 529.8381 529.7619 529.6923 529.6326 529.5873 529.56 529.5116 529.4514 529.3784 529.2932 529.1987 529.0979 528.9921 528.8811 528.7655 528.6469 528.528 528.4119 528.3019 528.2002 528.1086 528.0302 527.9894 527.9272 527.8473 527.7557 527.6571 527.5547 527.451 527.3469 527.2423 527.1368 527.03 526.9231 526.8187 526.7211 526.6348 526.5638 526.5101 526.4826 526.4412 526.3922 526.3405 526.2869 526.2315 526.174 526.1123 526.0421 525.9591 525.8611 525.75 525.6294 525.5024 525.3717 525.2391 525.1067 524.9805 524.9057 524.7748 524.5995 524.3927 524.1659 523.9279 523.6875 523.4625 523.3488 523.1995 523.0458 522.9094 522.8021 522.7284 522.6835 522.6577 522.6457 522.6511 522.6808 522.7389 522.8229 522.924 523.0308 523.1395 523.2867 523.4597 523.6332 523.8145 524.0529 524.3344 524.637 524.9837 525.5481 526.1286 526.5552 527.1714 527.7148 528.0725 528.7736 529.5381 530.0934 530.5667 531.0897 531.8171 532.5793 533.1602 533.6576 534.1566 534.8721 535.5779 535.9167 536.0275 536.1276 536.241 536.3856 536.4869 536.5126 536.5421 536.7329 537.1886 537.9255 538.7653 539.507 539.859 540.0756 541.3141 542.4175 543.3534 544.0612 544.528 -9999 -9999 -9999 -9999 -9999 -9999 -9999 -9999 -9999 -9999 -9999 -9999 -9999 -9999 -9999 -9999 -9999 -9999 -9999 -9999 -9999 -9999 -9999 -9999 -9999 -9999 -9999 -9999 -9999 -9999 -9999 -9999 -9999 -9999 -9999 -9999 -9999 -9999 -9999 -9999 -9999 -9999 -9999 -9999 -9999 -9999 -9999 -9999 -9999 -9999 -9999 -9999 -9999 -9999 -9999 -9999 -9999 -9999 -9999 -9999 -9999 -9999 -9999 -9999 -9999 -9999 -9999 -9999 -9999 -9999 -9999 -9999 -9999 -9999 -9999 -9999 -9999 -9999 -9999 -9999 -9999 -9999 -9999 -9999 -9999 -9999 -9999 -9999 -9999 -9999 -9999 -9999 -9999 -9999 -9999 -9999 -9999 -9999 -9999 -9999 -9999 -9999 -9999 -9999 -9999 -9999 -9999 -9999 -9999 -9999 -9999 -9999 -9999 -9999 -9999 -9999 -9999 -9999 -9999 -9999 -9999 -9999 -9999 -9999 -9999 -9999 -9999 -9999 -9999 -9999 -9999 -9999 -9999 -9999 -9999 -9999 -9999 555.449 555.5151 554.9099 554.0706 553.5334 553.313 552.9738 552.3073 551.8431 551.732 551.8167 551.6857 550.9475 549.2939 547.1052 544.9522 542.7874 540.6609 538.8505 537.6634 536.9304 536.4034 536.1592 536.0112 535.7949 535.703 535.554 535.0859 534.8487 534.5655 534.1822 534.0331 533.618 533.1747 532.8961 532.6021 532.3557 532.2191 531.9913 531.7502 531.5686 531.4656 531.4168 531.3964 531.394 531.4177 531.4896 531.6367 531.8855 532.2704 532.8399 534.0042 534.7145 535.207 535.6838 536.423 537.1348 537.5062 537.6771 537.8597 538.2319 538.6617 539.0417 539.2815 539.5096 539.7112 539.8016 539.7713 539.5058 539.0292 538.2264 537.3196 536.7304 536.2823 536.031 535.8995 535.6796 535.7592 536.3739 537.0307
534.6862 534.545 534.418 534.3065 534.2104 534.13 534.0634 533.9858 533.8951 533.7959 533.6926 533.5887 533.4877 533.3909 533.2976 533.2064 533.1166 533.0282 532.9426 532.8615 532.7863 532.7191 532.6625 532.6207 532.6 532.5717 532.541 532.5083 532.4744 532.4397 532.4047 532.3694 532.3341 532.2992 532.264 532.2286 532.1932 532.1576 532.1208 532.0828 532.0432 532.002 531.9586 531.9128 531.8644 531.8132 531.7601 531.7057 531.6495 531.5912 531.5311 531.4706 531.4111 531.3538 531.2994 531.2484 531.201 531.1573 531.1169 531.08 531.0577 531.0171 530.9615 530.8954 530.8224 530.7448 530.6627 530.5759 530.4855 530.394 530.3042 530.2168 530.1312 530.0464 529.9623 529.8799 529.8005 529.7266 529.6605 529.6046 529.5601 529.5354 529.4921 529.4327 529.3589 529.2721 529.175 529.0708 528.9619 528.8488 528.7323 528.6138 528.4958 528.382 528.2755 528.1799 528.0978 528.03 527.9705 527.8994 527.8147 527.7197 527.6177 527.5122 527.4055 527.2988 527.1923 527.0861 526.9796 526.8741 526.7728 526.6798 526.6007 526.542 526.5099 526.4663 526.419 526.3684 526.3167 526.2649 526.213 526.1595 526.1019 526.0353 525.9542 525.8567 525.7441 525.6208 525.4911 525.3589 525.2275 525.1005 524.9799 524.8635 524.7122 524.5291 524.3237 524.1058 523.8845 523.6676 523.4608 523.2791 523.0914 522.9153 522.7654 522.6489 522.5682 522.5162 522.481 522.4572 522.4518 522.4691 522.514 522.5881 522.6836 522.795 522.9232 523.0811 523.2633 523.4581 523.6569 523.9753 524.3571 524.7291 525.0416 525.7308 526.4388 526.7919 527.2028 527.6176 528.0428 528.7557 529.5373 530.1232 530.6047 531.0877 531.8051 532.5733 533.213 533.7663 534.2653 535.0873 535.6801 536.1187 536.3816 536.5587 536.6488 536.6975 536.6624 536.5839 536.5442 536.7032 537.1733 537.9585 538.8843 539.8204 540.6509 541.05 542.146 543.1819 544.0074 544.5713 544.8685 -9999 -9999 -9999 -9999 -9999 -9999 -9999 -9999 -9999 -9999 -9999 -9999 -9999 -9999 -9999 -9999 -9999 -9999 -9999 -9999 -9999 -9999 -9999 -9999 -9999 -9999 -9999 -9999 -9999 -9999 -9999 -9999 -9999 -9999 -9999 -9999 -9999 -9999 -9999 -9999 -9999 -9999 -9999 -9999 -9999 -9999 -9999 -9999 -9999 -9999 -9999 -9999 -9999 -9999 -9999 -9999 -9999 -9999 -9999 -9999 -9999 -9999 -9999 -9999 -9999 -9999 -9999 -9999 -9999 -9999 -9999 -9999 -9999 -9999 -9999 -9999 -9999 -9999 -9999 -9999 -9999 -9999 -9999 -9999 -9999 -9999 -9999 -9999 -9999 -9999 -9999 -9999 -9999 -9999 -9999 -9999 -9999 -9999 -9999 -9999 -9999 -9999 -9999 -9999 -9999 -9999 -9999 -9999 -9999 -9999 -9999 -9999 -9999 -9999 -9999 -9999 -9999 -9999 -9999 -9999 -9999 -9999 -9999 -9999 -9999 -9999 -9999 -9999 -9999 -9999 -9999 -9999 -9999 -9999 -9999 -9999 554.6855 554.3337 554.0576 553.3423 552.2448 551.3691 550.6978 550.1919 549.6431 549.1885 548.9761 548.8623 548.5804 547.7103 545.8869 543.4927 541.4362 539.5437 538.0234 536.946 536.3551 536.0158 535.692 535.6441 535.5899 535.2273 534.9313 534.6871 534.2463 534.119 533.9836 533.5335 533.3103 533.0259 532.6504 532.5793 532.3402 532.1213 531.951 531.7521 531.5496 531.3955 531.3065 531.2765 531.2769 531.3002 531.3664 531.4933 531.7108 532.0543 532.5619 533.1857 534.1043 534.7725 535.2513 535.6754 536.274 536.8057 537.134 537.1805 537.2465 537.6696 538.1519 538.5938 539.0298 539.4483 539.5012 539.5053 539.4708 539.1488 538.6486 537.9514 537.1898 536.515 535.9679 535.6644 535.5908 535.2756 535.2704 535.6766 536.2205
534.6608 534.5228 534.3998 534.2941 534.2055 534.13 534.0551 533.972 533.8797 533.7804 533.6774 533.5739 533.473 533.3766 533.2839 533.1933 533.1036 533.0148 532.9283 532.8461 532.7704 532.7032 532.6456 532.6 532.58 532.5544 532.5238 532.4904 532.4553 532.4194 532.3833 532.347 532.3109 532.2751 532.2395 532.2037 532.1682 532.1325 532.0959 532.0579 532.0184 531.9771 531.934 531.8882 531.8397 531.7888 531.7357 531.6815 531.6259 531.5682 531.5085 531.4482 531.3888 531.3318 531.2784 531.2292 531.1843 531.1444 531.11 531.08 531.0453 530.9977 530.9378 530.8678 530.791 530.7101 530.6259 530.5383 530.447 530.3542 530.2628 530.1743 530.0886 530.0045 529.9215 529.8405 529.7633 529.6927 529.6322 529.5864 529.56 529.5206 529.4716 529.4104 529.3361 529.2488 529.1504 529.0441 528.9326 528.8179 528.7008 528.5827 528.4662 528.3545 528.2515 528.1615 528.0886 528.03 527.9607 527.8792 527.7876 527.6881 527.5831 527.4747 527.3652 527.256 527.1475 527.0401 526.9337 526.8295 526.7307 526.6415 526.5669 526.5101 526.48 526.4388 526.3915 526.3412 526.2907 526.2419 526.195 526.1474 526.095 526.0322 525.9534 525.8561 525.7417 525.6149 525.4814 525.3464 525.2157 525.0953 524.9802 524.8286 524.6442 524.441 524.2305 524.0187 523.8136 523.6254 523.4547 523.1973 522.9595 522.7587 522.5993 522.4803 522.4008 522.3471 522.3047 522.2692 522.2563 522.264 522.2963 522.3633 522.4529 522.5649 522.7 522.8636 523.0519 523.2555 523.4764 523.8912 524.4108 524.9529 525.3018 525.8889 526.5073 526.8949 527.2483 527.6108 528.0399 528.7468 529.5427 530.1981 530.7311 531.1496 531.8601 532.5939 533.3553 534.0616 534.7108 535.5223 535.9768 536.407 536.8018 537.1604 537.2665 537.1764 536.9285 536.7488 536.6539 536.7798 537.1989 537.9835 538.8855 539.8628 540.9606 541.9155 543.0284 544.0026 544.7764 545.2552 -9999 -9999 -9999 -9999 -9999 -9999 -9999 -9999 -9999 -9999 -9999 -9999 -9999 -9999 -9999 -9999 -9999 -9999 -9999 -9999 -9999 -9999 -9999 -9999 -9999 -9999 -9999 -9999 -9999 -9999 -9999 -9999 -9999 -9999 -9999 -9999 -9999 -9999 -9999 -9999 -9999 -9999 -9999 -9999 -9999 -9999 -9999 -9999 -9999 -9999 -9999 -9999 -9999 -9999 -9999 -9999 -9999 -9999 -9999 -9999 -9999 -9999 -9999 -9999 -9999 -9999 -9999 -9999 -9999 -9999 -9999 -9999 -9999 -9999 -9999 -9999 -9999 -9999 -9999 -9999 -9999 -9999 -9999 -9999 -9999 -9999 -9999 -9999 -9999 -9999 -9999 -9999 -9999 -9999 -9999 -9999 -9999 -9999 -9999 -9999 -9999 -9999 -9999 -9999 -9999 -9999 -9999 -9999 -9999 -9999 -9999 -9999 -9999 -9999 -9999 -9999 -9999 -9999 -9999 -9999 -9999 -9999 -9999 -9999 -9999 -9999 -9999 -9999 -9999 -9999 -9999 -9999 -9999 -9999 -9999 -9999 554.1675 554.0063 553.2847 552.3389 551.0555 549.5404 548.1805 547.1432 546.6075 546.2905 545.9131 545.6223 545.351 545.0129 544.2021 542.4799 540.3473 538.6639 537.4106 536.4352 535.7765 535.6128 535.5636 535.3195 535.2078 535.0403 534.631 534.2034 533.9799 533.5103 533.3186 533.1378 532.7154 532.6187 532.5714 532.3425 532.2255 532.0527 531.8768 531.7158 531.5452 531.379 531.2576 531.1816 531.1662 531.1724 531.1971 531.2917 531.4592 531.7207 532.1031 532.6237 533.3082 534.1353 534.7749 535.2524 535.6461 536.0255 536.2919 536.4707 536.6232 536.7964 537.1848 537.6371 538.0087 538.4612 538.8156 538.9106 538.9091 538.8429 538.6039 538.2126 537.6707 537.1005 536.3642 535.7051 535.327 535.056 534.7428 534.7179 535.0031 535.52
534.6254 534.4916 534.3738 534.2748 534.1954 534.13 534.0521 533.9631 533.8672 533.7664 533.6627 533.559 533.4581 533.3619 533.2698 533.1801 533.0907 533.0017 532.9147 532.8322 532.7571 532.6923 532.6395 532.6 532.5708 532.5409 532.508 532.4727 532.4361 532.3989 532.3616 532.3241 532.2872 532.2507 532.2145 532.1785 532.1428 532.1069 532.0706 532.0325 531.9927 531.9514 531.9086 531.8629 531.8144 531.7634 531.7104 531.6564 531.6012 531.5443 531.4854 531.4256 531.3666 531.3101 531.2576 531.2097 531.167 531.1301 531.1008 531.08 531.0341 530.9772 530.9115 530.8378 530.7576 530.6737 530.5873 530.4984 530.4067 530.3134 530.2207 530.1309 530.0447 529.9609 529.8794 529.8007 529.7267 529.6602 529.604 529.56 529.536 529.4975 529.4465 529.3839 529.3093 529.2222 529.1235 529.0162 528.9034 528.7876 528.6702 528.5529 528.4379 528.3279 528.2266 528.1383 528.0704 528.0299 527.9501 527.8597 527.7625 527.6594 527.5518 527.441 527.329 527.2175 527.1071 526.9984 526.8921 526.7894 526.6935 526.6092 526.5446 526.5099 526.4608 526.4109 526.361 526.3113 526.2632 526.2186 526.1777 526.1371 526.0912 526.0333 525.957 525.8597 525.7428 525.6111 525.4707 525.328 525.1898 525.0685 524.978 524.775 524.5485 524.3193 524.0966 523.8798 523.6677 523.4603 523.2538 523.0045 522.7672 522.5664 522.412 522.2998 522.2341 522.1888 522.1437 522.0927 522.0804 522.082 522.1002 522.1669 522.2471 522.3547 522.4872 522.6547 522.8618 523.1193 523.4428 523.7797 524.3252 524.9324 525.3129 525.903 526.5099 526.9089 527.285 527.6548 528.0419 528.7384 529.5544 530.3191 531.0167 531.5076 532.129 532.7323 533.5602 534.2151 534.9383 535.6328 536.1964 536.7386 537.3076 537.9785 538.3464 538.0333 537.518 537.2778 537.0956 537.1635 537.4886 538.1686 538.9506 539.9127 541.4493 542.6061 543.7725 544.7002 545.486 545.9462 -9999 -9999 -9999 -9999 -9999 -9999 -9999 -9999 -9999 -9999 -9999 -9999 -9999 -9999 -9999 -9999 -9999 -9999 -9999 -9999 -9999 -9999 -9999 -9999 -9999 -9999 -9999 -9999 -9999 -9999 -9999 -9999 -9999 -9999 -9999 -9999 -9999 -9999 -9999 -9999 -9999 -9999 -9999 -9999 -9999 -9999 -9999 -9999 -9999 -9999 -9999 -9999 -9999 -9999 -9999 -9999 -9999 -9999 -9999 -9999 -9999 -9999 -9999 -9999 -9999 -9999 -9999 -9999 -9999 -9999 -9999 -9999 -9999 -9999 -9999 -9999 -9999 -9999 -9999 -9999 -9999 -9999 -9999 -9999 -9999 -9999 -9999 -9999 -9999 -9999 -9999 -9999 -9999 -9999 -9999 -9999 -9999 -9999 -9999 -9999 -9999 -9999 -9999 -9999 -9999 -9999 -9999 -9999 -9999 -9999 -9999 -9999 -9999 -9999 -9999 -9999 -9999 -9999 -9999 -9999 -9999 -9999 -9999 -9999 -9999 -9999 -9999 -9999 -9999 -9999 -9999 -9999 -9999 -9999 -9999 552.384 553.4908 553.0131 551.7708 550.0796 548.0241 546.1066 544.4025 543.2203 542.8514 542.8856 542.5796 542.2473 541.9502 541.7104 541.2053 539.9218 538.4078 537.1503 536.2545 535.6143 535.1675 534.9934 534.8913 534.7866 534.6901 534.4653 533.9629 533.4679 533.1544 532.7059 532.6094 532.5579 532.2849 532.1707 532.1239 532.0106 531.908 531.7772 531.6379 531.4988 531.3544 531.2239 531.1508 531.0803 531.0798 531.0798 531.0806 531.1901 531.3722 531.6449 532.0351 532.5677 533.1876 534.0109 534.6064 535.066 535.3887 535.6187 535.662 535.7337 536.0477 536.2938 536.6932 537.0984 537.2922 537.748 538.0172 538.0956 538.0965 538.0561 537.9318 537.6813 537.2186 536.7288 536.1244 535.5734 535.0308 534.5692 534.1705 534.1212 534.2374 534.6914
534.5802 534.4514 534.339 534.245 534.1738 534.1299 534.0466 533.9529 533.854 533.7515 533.6472 533.5434 533.4426 533.3464 533.2546 533.1653 533.0763 532.9872 532.9 532.8174 532.7434 532.6814 532.6339 532.6 532.5663 532.5309 532.494 532.4559 532.4173 532.3785 532.3398 532.3012 532.2633 532.2261 532.1892 532.1528 532.1167 532.0808 532.0443 532.0062 531.9664 531.9252 531.8822 531.8366 531.7881 531.7369 531.684 531.6301 531.5753 531.5191 531.4613 531.4025 531.3441 531.2883 531.2367 531.1899 531.1486 531.1123 531.08 531.0563 531.011 530.951 530.8814 530.8046 530.722 530.6358 530.5474 530.4573 530.3651 530.2715 530.1783 530.0876 530.0005 529.917 529.837 529.7612 529.6915 529.6315 529.5858 529.56 529.5222 529.4759 529.4199 529.3544 529.2787 529.192 529.094 528.9868 528.8735 528.7571 528.6399 528.5238 528.4108 528.303 528.2024 528.1105 528.0302 527.9883 527.9202 527.8337 527.7363 527.6318 527.5225 527.4099 527.2957 527.1819 527.0696 526.96 526.8541 526.7535 526.6608 526.5786 526.5101 526.476 526.429 526.377 526.3262 526.2783 526.2341 526.1948 526.1606 526.1279 526.0897 526.0378 525.9648 525.8676 525.7474 525.6093 525.4598 525.3046 525.1453 524.9815 524.8608 524.6514 524.402 524.1513 523.9169 523.6896 523.4595 523.2238 522.989 522.7502 522.5338 522.3509 522.2176 522.1147 522.0776 522.0538 522.0172 521.9408 521.9398 521.9398 521.9408 522.0195 522.0762 522.1743 522.2894 522.4475 522.649 522.9044 523.2003 523.5027 524.0424 524.5956 525.0573 525.7765 526.4542 526.826 527.3041 527.7675 528.0707 528.7462 529.5546 530.3483 531.0894 531.7721 532.5208 533.1899 534.01 534.6012 535.2207 535.7582 536.515 537.2451 538.098 538.9661 539.5413 539.3501 539.01 538.7302 538.2172 538.0122 538.0475 538.4492 539.1572 540.1558 541.6943 542.8893 543.9988 545.0181 545.9041 -9999 -9999 -9999 -9999 -9999 -9999 -9999 -9999 -9999 -9999 -9999 -9999 -9999 -9999 -9999 -9999 -9999 -9999 -9999 -9999 -9999 -9999 -9999 -9999 -9999 -9999 -9999 -9999 -9999 -9999 -9999 -9999 -9999 -9999 -9999 -9999 -9999 -9999 -9999 -9999 -9999 -9999 -9999 -9999 -9999 -9999 -9999 -9999 -9999 -9999 -9999 -9999 -9999 -9999 -9999 -9999 -9999 -9999 -9999 -9999 -9999 -9999 -9999 -9999 -9999 -9999 -9999 -9999 -9999 -9999 -9999 -9999 -9999 -9999 -9999 -9999 -9999 -9999 -9999 -9999 -9999 -9999 -9999 -9999 -9999 -9999 -9999 -9999 -9999 -9999 -9999 -9999 -9999 -9999 -9999 -9999 -9999 -9999 -9999 -9999 -9999 -9999 -9999 -9999 -9999 -9999 -9999 -9999 -9999 -9999 -9999 -9999 -9999 -9999 -9999 -9999 -9999 -9999 -9999 -9999 -9999 -9999 -9999 -9999 -9999 -9999 -9999 -9999 -9999 -9999 -9999 -9999 -9999 -9999 -9999 550.2827 551.6951 552.2184 551.3964 549.5851 547.0749 544.4484 542.4132 540.7892 539.8768 539.9077 540.3958 539.9377 539.5414 539.325 539.233 538.9876 538.1516 537.1401 536.2599 535.6299 535.1449 534.7704 534.4828 534.1845 534.0927 533.9774 533.7264 532.9675 532.6483 532.5397 532.2434 532.1161 532.0466 531.9039 531.8152 531.7689 531.7081 531.6359 531.5387 531.4289 531.3124 531.1892 531.0811 531.0793 531.013 530.9834 530.9727 530.9874 531.0799 531.2382 531.4741 531.7937 532.2009 532.68 533.4092 534.105 534.6037 534.8379 534.9335 534.9664 535.1064 535.5331 535.7209 536.1174 536.3929 536.6147 537.0623 537.1967 537.2087 537.2016 537.2004 537.1945 537.1252 536.7544 536.2424 535.6277 535.0336 534.58 534.1166 533.7621 533.6729 533.7811 534.0718
534.528 534.4055 534.2991 534.2074 534.1301 534.0903 534.0219 533.9341 533.8365 533.734 533.6296 533.5258 533.425 533.3289 533.2371 533.1477 533.0588 532.97 532.8827 532.8004 532.7271 532.6664 532.623 532.6 532.5613 532.5211 532.4806 532.4398 532.399 532.3584 532.3182 532.2784 532.2396 532.2014 532.1639 532.127 532.0903 532.0541 532.0175 531.9792 531.9392 531.8979 531.8551 531.8094 531.7607 531.7094 531.6564 531.6025 531.5481 531.4927 531.436 531.3785 531.3214 531.2666 531.2159 531.1707 531.1317 531.1007 531.08 531.0394 530.9861 530.9215 530.8482 530.7684 530.6841 530.5964 530.5068 530.4156 530.323 530.2292 530.1357 530.0444 529.957 529.8738 529.7957 529.7232 529.6583 529.6033 529.56 529.5374 529.5012 529.4521 529.3922 529.3232 529.246 529.1591 529.0619 528.9554 528.8424 528.7262 528.6097 528.4952 528.3851 528.2816 528.1868 528.1025 528.03 527.9691 527.8964 527.8092 527.7111 527.6054 527.4945 527.3802 527.264 527.1479 527.0339 526.9234 526.8185 526.7214 526.6355 526.5648 526.51 526.4579 526.3995 526.3411 526.2885 526.2429 526.2036 526.1705 526.1436 526.1193 526.0895 526.0444 525.9755 525.8789 525.7554 525.6104 525.4521 525.2899 525.1333 524.9802 524.7776 524.5138 524.2232 523.9424 523.6985 523.4589 523.2045 522.9473 522.6984 522.4727 522.2919 522.1354 522.0462 521.9413 521.9398 521.9401 521.9391 521.863 521.8344 521.8347 521.8634 521.9391 521.941 522.0333 522.1084 522.2481 522.4246 522.6783 523.0106 523.4229 523.8217 524.3557 524.9841 525.6335 526.1859 526.5792 527.2704 527.9517 528.2134 528.7967 529.5601 530.3439 531.0953 531.8413 532.6128 533.3688 534.1396 534.8471 535.5765 536.1765 537.0172 537.9053 538.9532 540.0101 540.8496 541.0258 541.1753 541.2355 540.5801 539.7059 539.1397 539.1493 539.7595 540.771 541.9803 543.0408 544.0297 545.0763 545.9918 -9999 -9999 -9999 -9999 -9999 -9999 -9999 -9999 -9999 -9999 -9999 -9999 -9999 -9999 -9999 -9999 -9999 -9999 -9999 -9999 -9999 -9999 -9999 -9999 -9999 -9999 -9999 -9999 -9999 -9999 -9999 -9999 -9999 -9999 -9999 -9999 -9999 -9999 -9999 -9999 -9999 -9999 -9999 -9999 -9999 -9999 -9999 -9999 -9999 -9999 -9999 -9999 -9999 -9999 -9999 -9999 -9999 -9999 -9999 -9999 -9999 -9999 -9999 -9999 -9999 -9999 -9999 -9999 -9999 -9999 -9999 -9999 -9999 -9999 -9999 -9999 -9999 -9999 -9999 -9999 -9999 -9999 -9999 -9999 -9999 -9999 -9999 -9999 -9999 -9999 -9999 -9999 -9999 -9999 -9999 -9999 -9999 -9999 -9999 -9999 -9999 -9999 -9999 -9999 -9999 -9999 -9999 -9999 -9999 -9999 -9999 -9999 -9999 -9999 -9999 -9999 -9999 -9999 -9999 -9999 -9999 -9999 -9999 -9999 -9999 -9999 -9999 -9999 -9999 -9999 -9999 -9999 -9999 -9999 549.6396 550.6626 551.2888 551.0741 549.4082 546.7679 543.8416 541.3806 539.4442 538.3904 538.0773 538.4006 538.149 537.7328 537.4714 537.4024 537.4908 537.6008 536.9272 536.2688 535.6627 535.2141 534.8317 534.4552 534.0331 533.4944 533.2041 532.8441 532.649 532.2756 532.0696 531.9777 531.8276 531.731 531.6685 531.5907 531.5319 531.4952 531.4609 531.4149 531.3466 531.2683 531.1755 531.08 530.9989 530.9677 530.9164 530.8795 530.8652 530.8834 530.9554 531.0803 531.2664 531.5103 531.8205 532.1989 532.7087 533.3777 533.882 533.9991 534.0206 534.0994 534.2592 534.7858 535.1996 535.5714 535.6576 535.7847 536.2198 536.3805 536.3978 536.3893 536.397 536.4206 536.3999 536.1609 535.6223 534.9217 534.2886 533.9998 533.5162 533.2386 533.1558 533.2259 533.3481
534.4722 534.359 534.2643 534.1884 534.13 534.0737 534.001 533.9132 533.8157 533.7131 533.6089 533.5052 533.4044 533.3082 533.2161 533.1263 533.0374 532.9487 532.8618 532.7805 532.7083 532.6475 532.6 532.5785 532.5463 532.5076 532.4659 532.4235 532.3809 532.3386 532.2969 532.2559 532.2158 532.1768 532.1383 532.1007 532.0636 532.027 531.9899 531.9513 531.9111 531.8696 531.8267 531.7811 531.7323 531.6807 531.6274 531.5735 531.5194 531.4648 531.4094 531.3535 531.2979 531.2445 531.1952 531.1512 531.1132 531.08 531.0564 531.0136 530.9563 530.8885 530.8123 530.7299 530.6439 530.5556 530.4655 530.3739 530.2809 530.187 530.0933 530.0017 529.9143 529.832 529.7562 529.688 529.6296 529.5851 529.56 529.5244 529.4814 529.4283 529.3646 529.2921 529.2123 529.1249 529.0283 528.9229 528.8105 528.6948 528.5791 528.4663 528.3594 528.2611 528.1736 528.0977 528.03 527.9604 527.8802 527.7887 527.688 527.5804 527.4678 527.3514 527.2329 527.1145 526.9984 526.887 526.7829 526.6888 526.6087 526.5476 526.5099 526.4402 526.3679 526.3015 526.2469 526.2045 526.1713 526.1454 526.1263 526.1102 526.089 526.0514 525.9878 525.8927 525.7662 525.6131 525.4414 525.2631 525.0992 524.9745 524.6896 524.3619 524.0251 523.705 523.4583 523.2008 522.9308 522.6606 522.4069 522.198 522.0792 521.9426 521.9382 521.8484 521.8127 521.7977 521.783 521.7375 521.7128 521.7162 521.7486 521.8066 521.8513 521.9384 521.942 522.0687 522.184 522.4065 522.7074 523.0714 523.4717 524.0717 524.9263 525.5349 526.0527 526.5218 527.1415 527.7055 528.0724 528.7589 529.5545 530.3325 531.0834 531.8082 532.6138 533.4052 534.1495 534.8866 535.6446 536.3738 537.2444 538.4517 539.7869 541.0927 542.281 543.1641 544.224 544.5566 543.6489 542.0938 540.8203 540.3488 540.7772 541.6703 542.5377 543.4041 544.245 545.304 -9999 -9999 -9999 -9999 -9999 -9999 -9999 -9999 -9999 -9999 -9999 -9999 -9999 -9999 -9999 -9999 -9999 -9999 -9999 -9999 -9999 -9999 -9999 -9999 -9999 -9999 -9999 -9999 -9999 -9999 -9999 -9999 -9999 -9999 -9999 -9999 -9999 -9999 -9999 -9999 -9999 -9999 -9999 -9999 -9999 -9999 -9999 -9999 -9999 -9999 -9999 -9999 -9999 -9999 -9999 -9999 -9999 -9999 -9999 -9999 -9999 -9999 -9999 -9999 -9999 -9999 -9999 -9999 -9999 -9999 -9999 -9999 -9999 -9999 -9999 -9999 -9999 -9999 -9999 -9999 -9999 -9999 -9999 -9999 -9999 -9999 -9999 -9999 -9999 -9999 -9999 -9999 -9999 -9999 -9999 -9999 -9999 -9999 -9999 -9999 -9999 -9999 -9999 -9999 -9999 -9999 -9999 -9999 -9999 -9999 -9999 -9999 -9999 -9999 -9999 -9999 -9999 -9999 -9999 -9999 -9999 -9999 -9999 -9999 -9999 -9999 -9999 -9999 -9999 -9999 -9999 -9999 -9999 -9999 549.0795 550.3581 550.8334 550.576 549.3467 546.9071 543.7742 541.1821 539.092 537.577 536.8085 536.725 537.0411 536.8663 536.5953 536.4289 536.4 536.438 536.3508 535.8613 535.5916 535.2014 534.8734 534.5068 534.0294 533.3475 532.7301 532.5379 532.2256 532.01 531.7922 531.6594 531.5876 531.5082 531.4448 531.3981 531.3544 531.3218 531.2977 531.277 531.2466 531.1959 531.1545 531.0801 531.0006 530.9274 530.8739 530.8205 530.7798 530.7631 530.7806 530.8402 530.9406 531.0801 531.2593 531.5044 531.7951 532.1558 532.5574 532.7208 532.7488 532.8265 533.168 533.4908 534.0868 534.5916 534.8477 534.9424 535.1879 535.5583 535.6425 535.6579 535.6615 535.6677 535.6823 535.6833 535.535 534.9192 534.1957 533.6484 533.2201 532.7139 532.5258 532.4401 532.5238 532.5768
534.416 534.3129 534.2294 534.1672 534.1299 534.0619 533.9816 533.8906 533.7917 533.6887 533.5842 533.4807 533.3801 533.2836 533.1908 533.1003 533.011 532.9227 532.8372 532.7584 532.6906 532.6375 532.6 532.5692 532.5338 532.4938 532.4508 532.4067 532.3625 532.3186 532.2755 532.2333 532.192 532.1519 532.1125 532.0741 532.0364 531.9991 531.9617 531.9227 531.8822 531.8405 531.7971 531.7515 531.7025 531.6506 531.597 531.543 531.4893 531.4357 531.3817 531.3274 531.2737 531.2222 531.1749 531.1338 531.1013 531.08 531.0396 530.9872 530.9242 530.8527 530.774 530.6899 530.6026 530.5137 530.4237 530.3325 530.2396 530.1456 530.0518 529.9601 529.873 529.7924 529.7194 529.6554 529.6019 529.56 529.5375 529.5034 529.4589 529.4034 529.3372 529.2617 529.1796 529.0909 528.9948 528.89 528.7784 528.663 528.5477 528.4363 528.332 528.2378 528.1565 528.0891 528.03 527.9552 527.8671 527.7698 527.6657 527.5558 527.441 527.3224 527.2014 527.0804 526.9623 526.85 526.7463 526.6541 526.5754 526.5101 526.4675 526.4 526.3243 526.2548 526.2003 526.1625 526.1368 526.1195 526.1086 526.1006 526.0875 526.0577 526.0002 525.9081 525.7795 525.6184 525.4295 525.2159 524.9839 524.8121 524.5251 524.184 523.8331 523.4764 523.2252 522.9518 522.668 522.3923 522.1412 521.9456 521.9362 521.8262 521.7769 521.7105 521.6654 521.636 521.6111 521.5812 521.5651 521.5704 521.5975 521.6431 521.6959 521.7671 521.8229 521.936 521.945 522.1371 522.3945 522.7201 523.1154 523.6814 524.7433 525.3705 525.955 526.5134 527.062 527.5659 528.0429 528.7625 529.5548 530.2899 531.0114 531.6602 532.5801 533.4009 534.1346 534.8344 535.6572 536.578 537.5836 539.1171 540.7798 542.4733 544.3245 546.2288 547.6837 548.0039 546.8868 545.017 543.3248 542.353 542.2274 542.6998 543.3744 544.2124 545.0754 -9999 -9999 -9999 -9999 -9999 -9999 -9999 -9999 -9999 -9999 -9999 -9999 -9999 -9999 -9999 -9999 -9999 -9999 -9999 -9999 -9999 -9999 -9999 -9999 -9999 -9999 -9999 -9999 -9999 -9999 -9999 -9999 -9999 -9999 -9999 -9999 -9999 -9999 -9999 -9999 -9999 -9999 -9999 -9999 -9999 -9999 -9999 -9999 -9999 -9999 -9999 -9999 -9999 -9999 -9999 -9999 -9999 -9999 -9999 -9999 -9999 -9999 -9999 -9999 -9999 -9999 -9999 -9999 -9999 -9999 -9999 -9999 -9999 -9999 -9999 -9999 -9999 -9999 -9999 -9999 -9999 -9999 -9999 -9999 -9999 -9999 -9999 -9999 -9999 -9999 -9999 -9999 -9999 -9999 -9999 -9999 -9999 -9999 -9999 -9999 -9999 -9999 -9999 -9999 -9999 -9999 -9999 -9999 -9999 -9999 -9999 -9999 -9999 -9999 -9999 -9999 -9999 -9999 -9999 -9999 -9999 -9999 -9999 -9999 -9999 -9999 -9999 -9999 -9999 -9999 -9999 -9999 -9999 -9999 546.8891 549.4803 550.5921 550.5332 549.5026 547.4085 544.5286 541.4724 539.2083 537.4868 536.3254 535.7081 535.6505 535.8221 536.0082 535.9775 535.9249 535.9164 535.8931 535.6673 535.319 535.0382 534.7278 534.4825 534.0454 533.3618 532.6697 532.2154 531.9969 531.7817 531.6161 531.4791 531.3918 531.342 531.298 531.2576 531.2206 531.1885 531.1759 531.1661 531.1553 531.134 531.0804 531.0797 531.0139 530.938 530.8639 530.7978 530.7375 530.6921 530.6731 530.6899 530.7464 530.8385 530.955 531.0829 531.2805 531.4707 531.6748 531.8707 531.9396 531.9807 532.1307 532.4935 532.7277 533.3535 533.9792 534.1434 534.2131 534.5502 534.7872 534.8793 535.0141 535.1051 535.1554 535.1657 535.0744 534.7583 534.1446 533.4976 533.0431 532.5544 532.0262 531.629 531.3304 531.5746 531.7172
534.3635 534.27 534.1936 534.1301 534.0955 534.0352 533.9558 533.8638 533.7637 533.6598 533.5549 533.4514 533.351 533.254 533.1603 533.069 532.9794 532.8917 532.8082 532.7327 532.6697 532.6244 532.6 532.5625 532.5223 532.4795 532.4348 532.3893 532.3435 532.2982 532.2536 532.2101 532.1676 532.1263 532.0864 532.0472 532.009 531.9711 531.9329 531.8934 531.8523 531.8101 531.7665 531.7206 531.6715 531.6194 531.5653 531.5111 531.4576 531.405 531.3527 531.3004 531.249 531.1997 531.1544 531.1146 531.08 531.056 531.0133 530.9565 530.8894 530.8143 530.7336 530.6486 530.5605 530.4714 530.3817 530.291 530.1987 530.1052 530.0114 529.9199 529.8337 529.7551 529.6856 529.6277 529.5845 529.56 529.524 529.483 529.435 529.3774 529.3094 529.2321 529.1479 529.0582 528.9618 528.8574 528.7462 528.6309 528.5157 528.4049 528.3022 528.2103 528.1319 528.0706 528.0299 527.9465 527.8509 527.7488 527.6418 527.5302 527.4136 527.2925 527.1689 527.0455 526.9252 526.8118 526.7091 526.621 526.5525 526.5099 526.4364 526.3547 526.2733 526.202 526.1494 526.1173 526.1006 526.093 526.0909 526.0908 526.0853 526.0629 526.012 525.9237 525.7952 525.6305 525.437 525.2205 524.9796 524.7023 524.3589 524.0052 523.7045 523.4406 523.0742 522.7345 522.4288 522.1606 521.9396 521.7813 521.7279 521.6532 521.5978 521.5447 521.5012 521.4662 521.4369 521.4127 521.401 521.4044 521.4221 521.4539 521.4983 521.5583 521.6263 521.7144 521.7778 521.9381 522.144 522.4705 522.9049 523.5006 524.3524 525.0636 525.8059 526.501 527.0123 527.5059 528.0461 528.7877 529.5482 530.1563 530.7192 531.3252 532.4916 533.3394 534.056 534.6845 535.6804 536.9448 538.2845 540.0562 542.039 544.2303 547.0091 549.452 550.9061 551.0564 549.8104 547.8616 545.9691 544.662 544.0322 544.0277 544.4995 545.4333 546.1443 -9999 -9999 -9999 -9999 -9999 -9999 -9999 -9999 -9999 -9999 -9999 -9999 -9999 -9999 -9999 -9999 -9999 -9999 -9999 -9999 -9999 -9999 -9999 -9999 -9999 -9999 -9999 -9999 -9999 -9999 -9999 -9999 -9999 -9999 -9999 -9999 -9999 -9999 -9999 -9999 -9999 -9999 -9999 -9999 -9999 -9999 -9999 -9999 -9999 -9999 -9999 -9999 -9999 -9999 -9999 -9999 -9999 -9999 -9999 -9999 -9999 -9999 -9999 -9999 -9999 -9999 -9999 -9999 -9999 -9999 -9999 -9999 -9999 -9999 -9999 -9999 -9999 -9999 -9999 -9999 -9999 -9999 -9999 -9999 -9999 -9999 -9999 -9999 -9999 -9999 -9999 -9999 -9999 -9999 -9999 -9999 -9999 -9999 -9999 -9999 -9999 -9999 -9999 -9999 -9999 -9999 -9999 -9999 -9999 -9999 -9999 -9999 -9999 -9999 -9999 -9999 -9999 -9999 -9999 -9999 -9999 -9999 -9999 -9999 -9999 -9999 -9999 -9999 -9999 -9999 -9999 -9999 -9999 -9999 546.879 549.3864 550.2459 549.6344 547.9248 545.3574 542.4604 539.9673 537.9165 536.4456 535.5743 535.1071 535.0744 535.2985 535.6129 535.6492 535.6486 535.6511 535.6247 535.3019 534.9374 534.5721 534.1891 533.983 533.3674 532.6801 532.1776 531.8453 531.6517 531.498 531.3804 531.2937 531.2393 531.2075 531.1821 531.1549 531.1202 531.0801 531.08 531.08 531.08 531.0798 531.0281 530.9965 530.9407 530.874 530.8029 530.7327 530.668 530.6187 530.5974 530.6144 530.6744 530.7768 530.9166 531.0785 531.1772 531.2449 531.3187 531.4037 531.4102 531.4357 531.5437 531.8341 532.1479 532.6478 533.2136 533.5345 533.7505 534.0781 534.146 534.1956 534.4773 534.6238 534.6899 534.6807 534.4828 533.979 533.3463 532.731 532.4236 531.8752 531.4623 531.0908 530.9133 531.0583 531.1046
534.3192 534.2379 534.1769 534.13 534.0791 534.0111 533.9276 533.8328 533.731 533.626 533.5205 533.4169 533.3162 533.2189 533.1243 533.0323 532.9426 532.8563 532.7758 532.704 532.6446 532.6 532.5784 532.5459 532.5062 532.4628 532.417 532.3701 532.3231 532.2765 532.2307 532.1859 532.1423 532.1002 532.0594 532.0197 531.9808 531.9423 531.9034 531.8633 531.8218 531.7788 531.7347 531.6887 531.6395 531.5871 531.5327 531.4781 531.425 531.3735 531.3229 531.2729 531.2242 531.1777 531.1359 531.1021 531.08 531.0388 530.9862 530.9235 530.8524 530.7744 530.6917 530.6058 530.518 530.4292 530.34 530.2498 530.1578 530.0649 529.9717 529.881 529.796 529.7198 529.6544 529.601 529.56 529.5378 529.5034 529.4603 529.4099 529.3506 529.2813 529.2028 529.1173 529.0265 528.9297 528.8253 528.7141 528.5986 528.4832 528.3727 528.2712 528.1807 528.1008 528.0302 527.9895 527.917 527.8245 527.7223 527.6146 527.5021 527.3842 527.261 527.1349 527.0089 526.8865 526.7723 526.6705 526.5833 526.5102 526.4609 526.385 526.2987 526.2149 526.1444 526.0954 526.0702 526.063 526.066 526.0735 526.0813 526.0828 526.0673 526.0226 525.9379 525.8085 525.6383 525.4387 525.2229 524.9807 524.6063 524.1737 523.7629 523.4581 523.164 522.8165 522.4813 522.1858 521.9402 521.7482 521.6123 521.5358 521.4696 521.4169 521.3726 521.3342 521.2996 521.2695 521.2468 521.235 521.2329 521.2388 521.2542 521.2842 521.3339 521.4047 521.498 521.6051 521.7606 521.9503 522.2992 522.761 523.3903 524.0554 524.8652 525.601 526.402 526.8945 527.4454 528.0542 528.8115 529.5467 530.0479 530.558 531.2373 532.45 533.1694 533.7263 534.3504 535.6148 537.1395 538.8524 540.8925 543.2931 546.4976 549.7668 552.2369 553.3486 553.5085 552.2543 550.3125 548.3209 546.7437 545.7697 545.3809 545.7322 -9999 -9999 -9999 -9999 -9999 -9999 -9999 -9999 -9999 -9999 -9999 -9999 -9999 -9999 -9999 -9999 -9999 -9999 -9999 -9999 -9999 -9999 -9999 -9999 -9999 -9999 -9999 -9999 -9999 -9999 -9999 -9999 -9999 -9999 -9999 -9999 -9999 -9999 -9999 -9999 -9999 -9999 -9999 -9999 -9999 -9999 -9999 -9999 -9999 -9999 -9999 -9999 -9999 -9999 -9999 -9999 -9999 -9999 -9999 -9999 -9999 -9999 -9999 -9999 -9999 -9999 -9999 -9999 -9999 -9999 -9999 -9999 -9999 -9999 -9999 -9999 -9999 -9999 -9999 -9999 -9999 -9999 -9999 -9999 -9999 -9999 -9999 -9999 -9999 -9999 -9999 -9999 -9999 -9999 -9999 -9999 -9999 -9999 -9999 -9999 -9999 -9999 -9999 -9999 -9999 -9999 -9999 -9999 -9999 -9999 -9999 -9999 -9999 -9999 -9999 -9999 -9999 -9999 -9999 -9999 -9999 -9999 -9999 -9999 -9999 -9999 -9999 -9999 -9999 -9999 -9999 -9999 -9999 -9999 -9999 543.5808 546.5597 548.6726 549.2214 548.0269 545.8022 543.3992 541.3415 539.1371 537.0969 535.7403 535.0386 534.7233 534.7156 534.9099 535.1555 535.2619 535.2962 535.2811 535.1607 534.8313 534.5103 534.1076 533.6652 533.2418 532.6688 532.199 531.8455 531.6028 531.4481 531.3358 531.2534 531.1969 531.1639 531.1464 531.1311 531.1108 531.08 531.0322 531.012 531.0051 531.0024 530.993 530.954 530.9128 530.8624 530.8052 530.7417 530.6741 530.6093 530.5581 530.5342 530.5482 530.6063 530.708 530.8435 530.9865 531.0792 531.0802 531.0819 531.1447 531.0831 531.0765 531.0938 531.3564 531.6915 532.1328 532.6107 532.9984 533.2232 533.5193 533.6677 533.8107 534.078 534.1309 534.14 534.0927 533.7836 532.9932 532.5418 532.0347 531.6266 531.1677 531.0519 530.8076 530.694 530.763 530.8615
534.2828 534.2102 534.1604 534.1299 534.0652 533.9865 533.8964 533.7976 533.6934 533.5869 533.4808 533.3768 533.2759 533.178 533.083 532.9905 532.9016 532.8177 532.7417 532.6764 532.6266 532.6 532.5664 532.5293 532.488 532.4435 532.3969 532.3489 532.3007 532.2531 532.2063 532.1606 532.1162 532.0734 532.0319 531.9916 531.9521 531.9128 531.8734 531.8327 531.7905 531.7469 531.7024 531.6561 531.6068 531.5542 531.4995 531.4449 531.3922 531.3415 531.2927 531.2454 531.1995 531.1559 531.1158 531.08 531.0553 531.0118 530.9546 530.8875 530.813 530.7329 530.6488 530.5623 530.4747 530.3868 530.2983 530.2085 530.117 530.0244 529.9321 529.8428 529.7601 529.6875 529.6276 529.584 529.56 529.5253 529.485 529.4384 529.3853 529.3239 529.2532 529.1736 529.0871 528.9951 528.8975 528.7928 528.6813 528.5653 528.4496 528.3397 528.2406 528.1556 528.0864 528.03 527.9696 527.8899 527.7953 527.6924 527.5842 527.4713 527.3522 527.2274 527.0989 526.9705 526.8464 526.7322 526.6337 526.5576 526.5098 526.4255 526.3318 526.2382 526.153 526.0847 526.0406 526.0225 526.0249 526.0388 526.0565 526.0724 526.0807 526.0717 526.0328 525.9507 525.8174 525.6323 525.4063 525.1694 524.9575 524.4829 523.9703 523.4924 523.1688 522.8443 522.5135 522.2058 521.9409 521.7304 521.5662 521.446 521.3643 521.3003 521.2502 521.2112 521.1781 521.1461 521.1169 521.0945 521.0806 521.0715 521.0646 521.0627 521.0758 521.115 521.1877 521.2987 521.4507 521.6605 521.9296 522.1657 522.5262 523.0337 523.5867 524.3764 525.1207 525.9541 526.6017 527.341 528.0485 528.7731 529.4901 529.9108 530.454 531.2117 532.3625 532.9498 533.4631 534.2358 535.613 537.2864 539.3277 541.7694 544.7594 548.4946 551.9709 554.3866 555.5566 555.5647 554.3264 552.4428 550.3849 548.5311 547.1509 546.2844 -9999 -9999 -9999 -9999 -9999 -9999 -9999 -9999 -9999 -9999 -9999 -9999 -9999 -9999 -9999 -9999 -9999 -9999 -9999 -9999 -9999 -9999 -9999 -9999 -9999 -9999 -9999 -9999 -9999 -9999 -9999 -9999 -9999 -9999 -9999 -9999 -9999 -9999 -9999 -9999 -9999 -9999 -9999 -9999 -9999 -9999 -9999 -9999 -9999 -9999 -9999 -9999 -9999 -9999 -9999 -9999 -9999 -9999 -9999 -9999 -9999 -9999 -9999 -9999 -9999 -9999 -9999 -9999 -9999 -9999 -9999 -9999 -9999 -9999 -9999 -9999 -9999 -9999 -9999 -9999 -9999 -9999 -9999 -9999 -9999 -9999 -9999 -9999 -9999 -9999 -9999 -9999 -9999 -9999 -9999 -9999 -9999 -9999 -9999 -9999 -9999 -9999 -9999 -9999 -9999 -9999 -9999 -9999 -9999 -9999 -9999 -9999 -9999 -9999 -9999 -9999 -9999 -9999 -9999 -9999 -9999 -9999 -9999 -9999 -9999 -9999 -9999 -9999 -9999 -9999 -9999 -9999 -9999 -9999 -9999 541.0338 543.5341 545.9993 547.4428 547.1622 545.3304 542.9866 541.5995 540.5564 538.6244 536.5104 535.341 534.747 534.488 534.4393 534.5476 534.6884 534.7668 534.7823 534.7418 534.5426 534.1057 533.8726 533.4662 533.0912 532.6387 532.2289 531.8936 531.6398 531.4613 531.3408 531.2541 531.1919 531.1516 531.131 531.1225 531.1074 531.08 531.032 530.9804 530.947 530.9297 530.9197 530.9037 530.8694 530.8271 530.781 530.7326 530.6796 530.6204 530.5601 530.5089 530.4818 530.489 530.5365 530.6244 530.7404 530.8563 530.9369 530.9685 531.0084 531.0775 530.9542 530.88 530.8912 531.0787 531.3563 531.7244 532.129 532.5347 532.6621 532.9969 533.1636 533.2723 533.4008 533.4329 533.3993 533.2197 532.7588 532.25 531.8712 531.4619 531.0916 530.8129 530.7183 530.6154 530.5878 530.6747 530.8259
534.2544 534.1843 534.1301 534.0964 534.0348 533.9535 533.8595 533.7573 533.6508 533.5428 533.436 533.3315 533.2303 533.132 533.0366 532.9445 532.8571 532.7767 532.7064 532.6479 532.6 532.5773 532.5463 532.5088 532.4667 532.4213 532.3737 532.325 532.2761 532.2276 532.1802 532.1339 532.0889 532.0455 532.0037 531.9629 531.9227 531.8828 531.8427 531.8014 531.7587 531.7147 531.6696 531.623 531.5739 531.5212 531.4664 531.4119 531.3594 531.3097 531.2628 531.2184 531.1761 531.1368 531.1029 531.08 531.0376 530.9838 530.9201 530.8486 530.7712 530.6895 530.6046 530.5179 530.4309 530.344 530.2563 530.1668 530.0756 529.9833 529.8921 529.8049 529.7256 529.6571 529.6016 529.56 529.5386 529.5065 529.4657 529.4175 529.3622 529.2986 529.2261 529.1449 529.0569 528.9633 528.8643 528.7587 528.6464 528.5297 528.4137 528.3044 528.2077 528.1277 528.0682 528.0299 527.9535 527.8633 527.7643 527.6599 527.5513 527.4379 527.318 527.1918 527.0612 526.9307 526.8053 526.6904 526.5915 526.5102 526.4554 526.3696 526.2707 526.174 526.0896 526.0253 525.9869 525.976 525.9872 526.0111 526.0388 526.0635 526.0789 526.0764 526.0436 525.9653 525.8289 525.6227 525.3401 524.9933 524.7069 524.2581 523.7869 523.4215 522.9573 522.5481 522.2165 521.9409 521.7195 521.5414 521.4006 521.2941 521.2153 521.1538 521.1063 521.0707 521.0413 521.0122 520.9843 520.9622 520.9463 520.9316 520.9134 520.8954 520.8907 520.917 520.9865 521.1058 521.2742 521.4869 521.7228 521.9401 522.2469 522.7514 523.3799 524.0297 524.8304 525.6275 526.4854 527.2557 527.9716 528.5353 529.1443 529.6274 530.3037 531.1205 532.0118 532.5983 533.1716 534.1613 535.6149 537.3274 539.5773 542.2135 545.4556 549.4216 553.0291 555.5178 556.661 556.762 -9999 -9999 552.2388 -9999 -9999 -9999 -9999 -9999 -9999 -9999 -9999 -9999 -9999 -9999 -9999 -9999 -9999 -9999 -9999 -9999 -9999 -9999 -9999 -9999 -9999 -9999 -9999 -9999 -9999 -9999 -9999 -9999 -9999 -9999 -9999 -9999 -9999 -9999 -9999 -9999 -9999 -9999 -9999 -9999 -9999 -9999 -9999 -9999 -9999 -9999 -9999 -9999 -9999 -9999 -9999 -9999 -9999 -9999 -9999 -9999 -9999 -9999 -9999 -9999 -9999 -9999 -9999 -9999 -9999 -9999 -9999 -9999 -9999 -9999 -9999 -9999 -9999 -9999 -9999 -9999 -9999 -9999 -9999 -9999 -9999 -9999 -9999 -9999 -9999 -9999 -9999 -9999 -9999 -9999 -9999 -9999 -9999 -9999 -9999 -9999 -9999 -9999 -9999 -9999 -9999 -9999 -9999 -9999 -9999 -9999 -9999 -9999 -9999 -9999 -9999 -9999 -9999 -9999 -9999 -9999 -9999 -9999 -9999 -9999 -9999 -9999 -9999 -9999 -9999 -9999 -9999 -9999 -9999 -9999 -9999 -9999 -9999 -9999 -9999 -9999 -9999 541.483 543.7167 545.3521 545.7461 544.6852 542.4092 540.4152 539.6504 539.0824 537.9885 536.1595 535.1343 534.5975 534.3158 534.1312 534.1025 534.1082 534.0906 534.0113 533.9593 533.7287 533.0004 532.7475 532.6368 532.5558 532.2418 531.942 531.6973 531.5139 531.3815 531.2867 531.2169 531.1646 531.1295 531.1111 531.1079 531.08 531.0292 530.9689 530.9127 530.8719 530.8472 530.8321 530.8141 530.7831 530.7427 530.7 530.6591 530.6171 530.5704 530.5196 530.4722 530.4417 530.4396 530.4712 530.5379 530.6293 530.7209 530.7902 530.8323 530.8649 530.8776 530.7936 530.7286 530.7421 530.8723 531.0823 531.3578 531.6075 531.9521 532.201 532.5235 532.587 532.5956 532.6104 532.6102 532.5634 532.3589 531.9406 531.6293 531.3944 531.084 530.8151 530.6324 530.5598 530.5313 530.5735 530.712 530.9033
534.2367 534.1744 534.13 534.077 534.0045 533.9165 533.8178 533.7123 533.6034 533.4941 533.3866 533.2819 533.1804 533.082 532.9867 532.8955 532.8103 532.7345 532.6727 532.6295 532.6 532.5636 532.5262 532.486 532.4424 532.3962 532.348 532.2986 532.249 532.2 532.1521 532.1054 532.0601 532.0165 531.9744 531.9333 531.8927 531.8521 531.8112 531.7695 531.7264 531.6821 531.6366 531.5898 531.5406 531.4884 531.434 531.3795 531.3275 531.2787 531.2336 531.1919 531.1532 531.1169 531.08 531.0542 531.0092 530.95 530.8814 530.8066 530.7271 530.644 530.5588 530.4726 530.3863 530.3001 530.213 530.1239 530.0328 529.9411 529.8513 529.767 529.6923 529.6304 529.5845 529.56 529.5267 529.4897 529.4473 529.3982 529.3416 529.2761 529.2014 529.1179 529.0273 528.9311 528.8296 528.722 528.6084 528.491 528.375 528.2666 528.1716 528.0931 528.0302 527.9902 527.9192 527.8292 527.7294 527.6245 527.5156 527.4019 527.2814 527.154 527.0221 526.8904 526.7648 526.652 526.5626 526.5097 526.4187 526.3154 526.2092 526.1102 526.0278 525.9683 525.936 525.9316 525.9502 525.9826 526.0194 526.0525 526.0752 526.0796 526.0541 525.9838 525.8541 525.6488 525.3555 524.9772 524.536 524.0168 523.5013 523.1154 522.6584 522.2335 521.9401 521.7128 521.5291 521.3788 521.257 521.162 521.0889 521.0312 520.9867 520.9537 520.9271 520.9 520.8729 520.8512 520.8351 520.8179 520.7928 520.7625 520.7418 520.7528 520.8127 520.9297 521.0997 521.3075 521.5251 521.7275 521.9623 522.4301 522.957 523.4974 524.2098 525.0851 526.1494 526.9404 527.6007 528.1402 528.8309 529.4926 530.1498 531.0298 531.7298 532.2506 532.8076 533.9657 535.449 537.0831 539.4481 542.0604 545.2502 549.218 552.8712 555.4054 556.6533 557.0774 -9999 -9999 -9999 -9999 -9999 -9999 -9999 -9999 -9999 -9999 -9999 -9999 -9999 -9999 -9999 -9999 -9999 -9999 -9999 -9999 -9999 -9999 -9999 -9999 -9999 -9999 -9999 -9999 -9999 -9999 -9999 -9999 -9999 -9999 -9999 -9999 -9999 -9999 -9999 -9999 -9999 -9999 -9999 -9999 -9999 -9999 -9999 -9999 -9999 -9999 -9999 -9999 -9999 -9999 -9999 -9999 -9999 -9999 -9999 -9999 -9999 -9999 -9999 -9999 -9999 -9999 -9999 -9999 -9999 -9999 -9999 -9999 -9999 -9999 -9999 -9999 -9999 -9999 -9999 -9999 -9999 -9999 -9999 -9999 -9999 -9999 -9999 -9999 -9999 -9999 -9999 -9999 -9999 -9999 -9999 -9999 -9999 -9999 -9999 -9999 -9999 -9999 -9999 -9999 -9999 -9999 -9999 -9999 -9999 -9999 -9999 -9999 -9999 -9999 -9999 -9999 -9999 -9999 -9999 -9999 -9999 -9999 -9999 -9999 -9999 -9999 -9999 -9999 -9999 -9999 -9999 -9999 -9999 -9999 -9999 -9999 -9999 -9999 -9999 -9999 540.2407 541.9968 543.865 544.6455 543.9514 542.4009 540.3133 538.8622 538.1335 537.5959 536.7919 535.6713 534.9008 534.4293 534.0878 533.6698 533.3966 533.2947 533.16 532.838 532.7454 532.634 532.2816 532.103 532.0549 532.0262 531.878 531.7006 531.5476 531.4241 531.3289 531.2542 531.1951 531.147 531.1088 531.0801 531.0799 531.0261 530.9574 530.8884 530.8286 530.7844 530.756 530.739 530.7231 530.6975 530.6618 530.6233 530.5883 530.5563 530.5236 530.4868 530.448 530.4171 530.4052 530.4192 530.4626 530.5286 530.5969 530.6502 530.6836 530.6975 530.6824 530.6257 530.5859 530.6082 530.712 530.8792 531.0695 531.113 531.41 531.6071 531.7716 531.8115 531.8069 531.7957 531.7629 531.6322 531.278 531.1135 531.0804 531.0638 530.8604 530.6786 530.5659 530.5259 530.5335 530.611 530.7998 531.0706
534.22 534.1622 534.1299 534.0577 533.9713 533.8751 533.7714 533.6628 533.5521 533.4418 533.3338 533.229 533.1276 533.0295 532.9351 532.8455 532.7629 532.691 532.6345 532.6 532.5731 532.5394 532.5016 532.4601 532.4155 532.3683 532.3194 532.2697 532.2197 532.1704 532.1223 532.0754 532.0299 531.9863 531.944 531.9027 531.8617 531.8207 531.7793 531.7372 531.694 531.6494 531.6038 531.5568 531.5077 531.4559 531.4022 531.3484 531.2969 531.2491 531.2053 531.1659 531.1321 531.1053 531.08 531.0346 530.9783 530.9122 530.8391 530.7613 530.6803 530.5967 530.5115 530.4258 530.3402 530.2549 530.1682 530.0793 529.9885 529.8973 529.8093 529.7286 529.6596 529.604 529.56 529.5387 529.5082 529.4714 529.4292 529.3802 529.3232 529.2566 529.1799 529.0936 528.9993 528.899 528.7935 528.6827 528.5671 528.4489 528.3333 528.2271 528.1368 528.0692 528.0299 527.9655 527.8849 527.792 527.6913 527.5864 527.4777 527.3636 527.2427 527.1145 526.9819 526.8503 526.7251 526.6105 526.5103 526.4532 526.3645 526.2579 526.149 526.0498 525.9697 525.915 525.8887 525.8899 525.9139 525.9525 525.9962 526.0361 526.0652 526.0754 526.0569 525.9962 525.8784 525.6844 525.3928 524.979 524.4154 523.8391 523.4086 522.8881 522.3972 521.962 521.7272 521.5362 521.3757 521.243 521.135 521.0494 520.9824 520.9294 520.8887 520.8585 520.8338 520.8081 520.7811 520.7594 520.7445 520.7288 520.7032 520.667 520.6348 520.6308 520.6775 520.7861 520.955 521.1696 521.4091 521.6606 521.9382 522.2524 522.6342 523.066 523.6046 524.4365 525.3508 526.3742 527.1636 527.9052 528.516 529.1197 529.7342 530.7182 531.4196 531.9923 532.6227 533.5239 534.7153 536.4609 538.7197 541.3456 544.44 548.1588 551.6947 554.1929 555.6001 556.5342 -9999 -9999 -9999 -9999 -9999 -9999 -9999 -9999 -9999 -9999 -9999 -9999 -9999 -9999 -9999 -9999 -9999 -9999 -9999 -9999 -9999 -9999 -9999 -9999 -9999 -9999 -9999 -9999 -9999 -9999 -9999 -9999 -9999 -9999 -9999 -9999 -9999 -9999 -9999 -9999 -9999 -9999 -9999 -9999 -9999 -9999 -9999 -9999 -9999 -9999 -9999 -9999 -9999 -9999 -9999 -9999 -9999 -9999 -9999 -9999 -9999 -9999 -9999 -9999 -9999 -9999 -9999 -9999 -9999 -9999 -9999 -9999 -9999 -9999 -9999 -9999 -9999 -9999 -9999 -9999 -9999 -9999 -9999 -9999 -9999 -9999 -9999 -9999 -9999 -9999 -9999 -9999 -9999 -9999 -9999 -9999 -9999 -9999 -9999 -9999 -9999 -9999 -9999 -9999 -9999 -9999 -9999 -9999 -9999 -9999 -9999 -9999 -9999 -9999 -9999 -9999 -9999 -9999 -9999 -9999 -9999 -9999 -9999 -9999 -9999 -9999 -9999 -9999 -9999 -9999 -9999 -9999 -9999 -9999 -9999 -9999 -9999 -9999 -9999 539.6868 540.7492 542.3518 543.7535 543.5125 542.0309 540.3506 539.0264 537.8489 537.0465 536.4366 535.7652 535.0928 534.5421 534.0913 533.5892 533.0724 532.669 532.6088 532.5683 532.3068 532.1497 532.0204 531.826 531.7056 531.6675 531.6514 531.5896 531.5048 531.4189 531.3473 531.2825 531.2234 531.1705 531.1237 531.08 531.0338 530.9982 530.9367 530.8636 530.7925 530.7322 530.6876 530.6587 530.6423 530.6306 530.6127 530.5848 530.5524 530.5233 530.4999 530.4796 530.4592 530.4341 530.4084 530.3906 530.3886 530.4094 530.4508 530.4963 530.5306 530.548 530.5442 530.5153 530.4713 530.4494 530.478 530.5632 530.6874 530.8157 530.8962 531.0701 531.0883 531.0967 531.0943 531.0902 531.0901 531.0899 531.047 530.7929 530.6718 530.6797 530.713 530.6603 530.6016 530.5789 530.5868 530.5999 530.653 530.7932 530.979
534.197 534.1301 534.088 534.0165 533.9268 533.8268 533.7203 533.6099 533.498 533.3871 533.279 533.1746 533.0739 532.9768 532.884 532.7972 532.7192 532.6526 532.6 532.5726 532.5455 532.5123 532.4741 532.4318 532.3862 532.3383 532.2888 532.2386 532.1885 532.1389 532.0908 532.0439 531.9985 531.9548 531.9127 531.8713 531.8301 531.7887 531.747 531.7047 531.6614 531.6167 531.571 531.5239 531.475 531.424 531.3713 531.3187 531.2679 531.221 531.178 531.1391 531.1055 531.08 531.0496 531.0012 530.94 530.8696 530.7932 530.7133 530.6312 530.5477 530.4629 530.3777 530.2927 530.2078 530.1216 530.0328 529.9422 529.8519 529.766 529.6896 529.6285 529.587 529.56 529.527 529.4918 529.4539 529.4122 529.3641 529.3073 529.24 529.1615 529.0722 528.9735 528.8678 528.7569 528.6417 528.5231 528.4039 528.2892 528.1855 528.0984 528.0302 527.9912 527.9279 527.8456 527.7513 527.6507 527.5461 527.4376 527.3232 527.2017 527.073 526.9409 526.8118 526.6927 526.5914 526.51 526.424 526.3202 526.2062 526.0942 525.995 525.9174 525.8669 525.8458 525.8514 525.8788 525.9202 525.9672 526.011 526.0432 526.0558 526.0403 525.9848 525.8739 525.688 525.4008 524.9692 524.2553 523.5387 523.0679 522.5941 522.2059 521.9269 521.6387 521.4213 521.2567 521.1293 521.0292 520.9512 520.8906 520.8431 520.8065 520.7794 520.7571 520.733 520.7059 520.6832 520.6696 520.6582 520.638 520.6045 520.5685 520.5533 520.5856 520.6818 520.8452 521.0664 521.3302 521.6238 521.9316 522.1238 522.4255 522.8324 523.387 524.0136 524.8476 525.7228 526.5399 527.3316 528.0891 528.7283 529.282 529.9449 530.9082 531.6439 532.4301 533.1798 534.2789 535.8786 537.9113 540.415 543.2899 546.5401 549.9235 552.4742 553.8163 555.4783 555.7855 -9999 -9999 -9999 -9999 -9999 -9999 -9999 -9999 -9999 -9999 -9999 -9999 -9999 -9999 -9999 -9999 -9999 -9999 -9999 -9999 -9999 -9999 -9999 -9999 -9999 -9999 -9999 -9999 -9999 -9999 -9999 -9999 -9999 -9999 -9999 -9999 -9999 -9999 -9999 -9999 -9999 -9999 -9999 -9999 -9999 -9999 -9999 -9999 -9999 -9999 -9999 -9999 -9999 -9999 -9999 -9999 -9999 -9999 -9999 -9999 -9999 -9999 -9999 -9999 -9999 -9999 -9999 -9999 -9999 -9999 -9999 -9999 -9999 -9999 -9999 -9999 -9999 -9999 -9999 -9999 -9999 -9999 -9999 -9999 -9999 -9999 -9999 -9999 -9999 -9999 -9999 -9999 -9999 -9999 -9999 -9999 -9999 -9999 -9999 -9999 -9999 -9999 -9999 -9999 -9999 -9999 -9999 -9999 -9999 -9999 546.8706 546.5219 546.0491 545.7374 545.058 -9999 -9999 543.7184 543.7562 544.1091 544.969 545.1603 -9999 -9999 -9999 -9999 -9999 -9999 -9999 -9999 -9999 -9999 -9999 -9999 -9999 -9999 -9999 -9999 540.2971 541.5807 542.6499 543.1738 542.0149 540.2169 539.0754 538.2747 537.1453 536.2889 535.6644 535.1179 534.5876 534.0987 533.5757 533.0615 532.6082 532.3125 532.2246 532.1684 532.009 531.8624 531.7301 531.5872 531.4844 531.4352 531.4142 531.3879 531.3528 531.3151 531.2743 531.2325 531.1846 531.1329 531.08 531.0205 530.9595 530.9014 530.833 530.7589 530.6887 530.6299 530.5869 530.5596 530.5455 530.5385 530.5289 530.511 530.4871 530.4651 530.4494 530.4399 530.4343 530.4264 530.4119 530.3951 530.3826 530.3842 530.4031 530.4271 530.4425 530.4429 530.4239 530.3851 530.3431 530.3286 530.3588 530.4311 530.5295 530.6299 530.7084 530.7821 530.7606 530.7108 530.6646 530.6356 530.6263 530.6254 530.5901 530.4652 530.3982 530.4202 530.4839 530.5339 530.5891 530.6705 530.7564 530.7662 530.7814 530.8739 531.0754
534.1779 534.1298 534.0558 533.9711 533.8762 533.7736 533.6656 533.5546 533.4424 533.3316 533.224 533.1204 533.0211 532.926 532.8359 532.7537 532.6829 532.6295 532.5999 532.561 532.5247 532.4871 532.4464 532.4023 532.3556 532.3067 532.2567 532.2062 532.1558 532.1062 532.058 532.0114 531.9662 531.9227 531.8807 531.8394 531.798 531.7563 531.7145 531.6722 531.629 531.5845 531.5388 531.4917 531.4429 531.3926 531.3412 531.2902 531.2411 531.1956 531.1541 531.1156 531.08 531.0532 531.0153 530.9622 530.8969 530.8231 530.7442 530.6627 530.5802 530.4969 530.4127 530.3284 530.2437 530.1589 530.0727 529.9844 529.8945 529.8058 529.7224 529.6492 529.5928 529.56 529.5361 529.5066 529.473 529.4364 529.3964 529.3501 529.2937 529.2257 529.1453 529.0527 528.9495 528.8378 528.7205 528.5997 528.4777 528.3575 528.2449 528.1467 528.0721 528.0299 527.9666 527.8911 527.8038 527.708 527.6073 527.5029 527.3944 527.2799 527.158 527.0292 526.8979 526.7709 526.6564 526.5657 526.5097 526.4017 526.2827 526.1611 526.046 525.9469 525.8715 525.8245 525.8071 525.8158 525.8445 525.8855 525.9316 525.9742 526.0042 526.0131 525.9928 525.9319 525.8126 525.6122 525.3023 524.8737 524.0607 523.3936 522.779 522.274 521.9423 521.7164 521.491 521.2983 521.1447 521.0249 520.9321 520.8613 520.8077 520.7664 520.7344 520.7107 520.6914 520.67 520.6437 520.6195 520.6056 520.5991 520.5879 520.5646 520.5338 520.5147 520.5341 520.6144 520.7641 520.9779 521.2388 521.5203 521.778 521.9475 522.2279 522.5637 522.9897 523.4888 524.205 525.0885 525.9596 526.7825 527.8044 528.4275 528.9487 529.5364 530.2798 531.0466 531.8685 532.8001 534.0773 535.5796 537.3472 539.5085 542.0262 544.8507 547.9803 550.811 552.9019 554.4467 554.8384 -9999 -9999 -9999 -9999 -9999 -9999 -9999 -9999 -9999 -9999 -9999 -9999 -9999 -9999 -9999 -9999 -9999 -9999 -9999 -9999 -9999 -9999 -9999 -9999 -9999 -9999 -9999 -9999 -9999 -9999 -9999 -9999 -9999 -9999 -9999 -9999 -9999 -9999 -9999 -9999 -9999 -9999 -9999 -9999 -9999 -9999 -9999 -9999 -9999 -9999 -9999 -9999 -9999 -9999 -9999 -9999 -9999 -9999 -9999 -9999 -9999 -9999 -9999 -9999 -9999 -9999 -9999 -9999 -9999 -9999 -9999 -9999 -9999 -9999 -9999 -9999 -9999 -9999 -9999 -9999 -9999 -9999 -9999 -9999 -9999 -9999 -9999 -9999 -9999 -9999 -9999 -9999 -9999 -9999 -9999 -9999 -9999 -9999 -9999 -9999 -9999 -9999 -9999 -9999 -9999 -9999 -9999 547.9922 547.6228 547.2474 546.9189 546.6196 546.2874 545.9136 544.9774 544.0782 543.8759 543.8177 543.9749 544.5641 546.1006 546.9937 546.1198 544.5524 -9999 -9999 -9999 -9999 -9999 -9999 -9999 -9999 -9999 -9999 -9999 -9999 -9999 540.067 540.9227 541.9568 542.4454 542.1232 540.5839 538.8821 538.0684 537.3214 536.3945 535.674 535.1582 534.6944 534.1728 533.6041 533.0547 532.6096 532.2997 532.1118 532.0379 531.9869 531.8842 531.7589 531.6257 531.4908 531.3826 531.3147 531.2797 531.2606 531.2462 531.2318 531.212 531.1794 531.1352 531.08 531.0148 530.9437 530.8713 530.8004 530.7272 530.6534 530.585 530.5284 530.4874 530.4627 530.4517 530.4495 530.4478 530.4398 530.426 530.4127 530.4049 530.4049 530.4117 530.4202 530.4214 530.4128 530.3978 530.3866 530.3871 530.3924 530.3909 530.3763 530.3442 530.2961 530.2504 530.2343 530.2614 530.3245 530.4088 530.4974 530.5677 530.6014 530.5649 530.4915 530.4172 530.3643 530.339 530.3326 530.3156 530.2667 530.2462 530.2872 530.3827 530.5057 530.6547 530.848 531.0667 531.0921 531.0844 531.1027 531.2817
534.1304 534.0736 534.0024 533.9167 533.8207 533.7175 533.6094 533.4987 533.3872 533.2772 533.1706 533.0686 532.9714 532.879 532.7926 532.7148 532.6494 532.6 532.5753 532.5413 532.5032 532.4624 532.4189 532.3728 532.3245 532.2745 532.2238 532.1727 532.1221 532.0725 532.0244 531.9779 531.9331 531.8899 531.848 531.8069 531.7655 531.7236 531.6818 531.6398 531.597 531.5529 531.5072 531.4601 531.4114 531.3618 531.3117 531.2625 531.2158 531.173 531.1349 531.1024 531.08 531.0361 530.9841 530.9224 530.8517 530.7743 530.6931 530.6106 530.5277 530.4446 530.3612 530.2772 530.1929 530.108 530.022 529.9346 529.8467 529.7613 529.6818 529.613 529.5601 529.5348 529.5116 529.484 529.4526 529.4187 529.3816 529.3378 529.2825 529.2134 529.1302 529.0341 528.9261 528.8085 528.6846 528.5577 528.4318 528.311 528.2003 528.105 528.0302 527.9894 527.9264 527.847 527.7571 527.6604 527.5599 527.4561 527.348 527.2334 527.1111 526.9828 526.8529 526.7278 526.6123 526.5103 526.4529 526.3574 526.241 526.1193 526.0038 525.9054 525.8319 525.7876 525.7727 525.7829 525.811 525.8489 525.8893 525.9248 525.946 525.9434 525.9081 525.8292 525.6864 525.4422 525.0184 524.4213 523.6017 523.0077 522.4431 521.9675 521.7161 521.5205 521.3353 521.1703 521.0332 520.9244 520.8397 520.7758 520.7295 520.695 520.6682 520.6476 520.6318 520.6147 520.5914 520.5665 520.5506 520.5465 520.5448 520.5358 520.5178 520.5029 520.5143 520.5773 520.7068 520.902 521.1483 521.4213 521.6913 521.9344 522.1035 522.3306 522.653 523.0766 523.6813 524.7071 525.5376 526.4039 527.2667 527.9781 528.5253 529.0444 529.6143 530.3499 531.299 532.5523 533.8973 535.2684 536.791 538.5842 540.7785 543.2764 545.8488 548.7941 551.412 553.2983 553.9634 553.6804 -9999 -9999 -9999 -9999 -9999 -9999 -9999 -9999 -9999 -9999 -9999 -9999 -9999 -9999 -9999 -9999 552.7628 -9999 -9999 -9999 -9999 -9999 -9999 -9999 -9999 -9999 -9999 -9999 -9999 -9999 -9999 -9999 -9999 -9999 -9999 -9999 -9999 -9999 -9999 -9999 -9999 -9999 -9999 -9999 -9999 -9999 -9999 -9999 -9999 -9999 -9999 -9999 -9999 -9999 -9999 -9999 -9999 -9999 -9999 -9999 -9999 -9999 -9999 -9999 -9999 -9999 -9999 -9999 -9999 -9999 -9999 -9999 -9999 -9999 -9999 -9999 -9999 -9999 -9999 -9999 -9999 -9999 -9999 -9999 -9999 -9999 -9999 -9999 -9999 -9999 -9999 -9999 -9999 -9999 -9999 -9999 -9999 -9999 -9999 -9999 -9999 -9999 -9999 -9999 547.7977 547.9991 547.9993 547.6199 547.1352 546.7374 546.4908 546.2527 545.8338 544.8766 544.0464 543.9763 544.0067 544.2025 544.9943 546.7922 547.7915 547.6865 546.6579 544.811 -9999 -9999 -9999 -9999 -9999 -9999 -9999 -9999 -9999 -9999 539.7599 540.0134 540.5052 541.2476 541.9692 541.9728 541.2839 539.6057 538.7833 537.7101 536.7373 535.8147 535.2519 534.8304 534.4449 533.9814 533.1963 532.6225 532.2985 532.1093 532.0089 531.9673 531.9324 531.8602 531.7501 531.6152 531.4716 531.3458 531.2574 531.207 531.184 531.1747 531.1711 531.1597 531.1288 531.08 531.0162 530.9415 530.8613 530.7806 530.7019 530.6256 530.5525 530.4861 530.4318 530.393 530.3708 530.3632 530.3656 530.371 530.3721 530.3682 530.3644 530.3654 530.374 530.3911 530.4131 530.4307 530.4357 530.4261 530.4103 530.3987 530.3896 530.3748 530.3481 530.3051 530.2484 530.1964 530.1741 530.1931 530.2469 530.3228 530.4072 530.4763 530.5 530.4581 530.3738 530.2849 530.219 530.1862 530.1808 530.184 530.1827 530.1999 530.2672 530.4001 530.5868 530.8076 531.0961 531.4603 531.6855 531.7194 531.7276 531.8097
534.1301 534.0425 533.9559 533.8635 533.7653 533.6617 533.554 533.4441 533.3339 533.2255 533.1207 533.0211 532.9268 532.8381 532.756 532.6838 532.6285 532.6 532.5625 532.5236 532.4824 532.4386 532.3923 532.3438 532.2936 532.2422 532.1904 532.1388 532.088 532.0383 531.9902 531.9441 531.8997 531.8569 531.8153 531.7743 531.733 531.6914 531.6497 531.6079 531.5656 531.5217 531.4763 531.4292 531.3807 531.3315 531.2826 531.2351 531.191 531.1514 531.1157 531.08 531.0541 531.0081 530.9492 530.8809 530.805 530.724 530.6406 530.557 530.4738 530.3909 530.3079 530.2241 530.1397 530.0548 529.9693 529.8837 529.7996 529.7196 529.6476 529.5905 529.56 529.524 529.4928 529.4628 529.4324 529.4014 529.3677 529.3268 529.2729 529.2026 529.1162 529.0154 528.9021 528.7786 528.6483 528.5156 528.3861 528.2657 528.1602 528.0766 528.0299 527.9622 527.8842 527.7971 527.704 527.6071 527.5076 527.4049 527.2975 527.1832 527.0612 526.9342 526.808 526.6909 526.5911 526.51 526.4263 526.3223 526.2039 526.082 525.9672 525.8696 525.7977 525.7554 525.7421 525.7524 525.7783 525.8111 525.8423 525.865 525.8704 525.848 525.7878 525.6804 525.5159 525.2775 524.8745 524.0947 523.3916 522.7449 522.2318 521.9232 521.6169 521.387 521.2023 521.05 520.9258 520.8279 520.752 520.6947 520.655 520.6275 520.606 520.5889 520.5765 520.5646 520.547 520.5238 520.5052 520.4996 520.5043 520.509 520.5078 520.5042 520.5143 520.5621 520.668 520.8371 521.0583 521.3088 521.5592 521.7794 521.9398 522.118 522.4056 522.8121 523.4004 524.142 524.933 525.7542 526.5591 527.3065 527.9791 528.5269 529.04 529.6908 530.8015 532.1497 533.359 534.5378 535.9272 537.5153 539.4883 541.8005 543.8215 546.6361 549.4888 551.7197 552.9005 553.1047 -9999 -9999 -9999 -9999 -9999 -9999 -9999 -9999 -9999 -9999 -9999 546.462 548.3876 550.001 551.0305 551.498 552.1232 553.0991 554.4552 556.3994 -9999 -9999 -9999 -9999 -9999 -9999 -9999 -9999 -9999 -9999 -9999 -9999 -9999 -9999 -9999 -9999 -9999 -9999 -9999 -9999 -9999 -9999 -9999 -9999 -9999 -9999 -9999 -9999 -9999 -9999 -9999 -9999 -9999 -9999 -9999 -9999 -9999 -9999 -9999 -9999 -9999 -9999 -9999 -9999 -9999 -9999 -9999 -9999 -9999 -9999 -9999 -9999 -9999 -9999 -9999 -9999 -9999 -9999 -9999 -9999 -9999 -9999 -9999 -9999 -9999 -9999 -9999 -9999 -9999 -9999 -9999 -9999 -9999 -9999 -9999 -9999 -9999 -9999 -9999 -9999 -9999 -9999 -9999 547.738 547.8237 548.0011 547.9872 547.3323 546.5309 545.8998 545.6334 545.4494 545.0092 544.4227 544.0123 544.1125 544.0112 543.8208 544.12 545.8062 547.5501 548.5898 548.7206 547.2631 544.9977 -9999 -9999 -9999 -9999 -9999 -9999 -9999 -9999 539.7844 540.0007 540.264 540.6403 541.1166 541.5198 541.4517 540.343 538.7614 537.9542 537.16 536.2977 535.5827 534.9852 534.5275 534.0911 533.4775 532.7158 532.3236 532.1066 531.9991 531.9584 531.947 531.9273 531.8694 531.7657 531.6268 531.4734 531.3315 531.2255 531.164 531.1375 531.1234 531.1243 531.1188 531.08 531.0222 530.9495 530.8669 530.7796 530.6929 530.6096 530.5312 530.459 530.3943 530.3419 530.3051 530.2852 530.2809 530.2878 530.2996 530.3088 530.3135 530.3185 530.3288 530.3463 530.3719 530.4047 530.4363 530.4564 530.4581 530.4453 530.4287 530.4109 530.3873 530.3526 530.3021 530.2382 530.1794 530.1492 530.1571 530.1987 530.2659 530.3486 530.421 530.4458 530.4023 530.3125 530.2187 530.1543 530.1301 530.1384 530.1628 530.1913 530.2338 530.3281 530.5107 530.7855 531.099 531.5416 532.0372 532.4776 532.5868 532.6406 532.668
534.1293 534.0156 533.9124 533.8127 533.7119 533.6082 533.5012 533.3926 533.2841 533.1779 533.0758 532.9794 532.889 532.8048 532.7271 532.6575 532.6 532.5748 532.5427 532.5048 532.4622 532.4159 532.3669 532.3159 532.2634 532.2103 532.1575 532.1052 532.054 532.0042 531.9562 531.9103 531.8663 531.824 531.7827 531.7419 531.7009 531.6595 531.6182 531.5768 531.5349 531.4917 531.4464 531.3994 531.351 531.3019 531.2537 531.2078 531.1661 531.1312 531.1046 531.08 531.0348 530.9781 530.9117 530.8374 530.7568 530.6725 530.5869 530.502 530.4182 530.3354 530.2526 530.1688 530.0842 529.9991 529.9147 529.832 529.7532 529.6805 529.6155 529.5601 529.5344 529.5026 529.4704 529.4399 529.4114 529.3837 529.3538 529.3157 529.2632 529.192 529.1017 528.9954 528.8762 528.7468 528.6105 528.4724 528.3394 528.2198 528.1183 528.0303 527.9839 527.9148 527.8299 527.7372 527.6418 527.5459 527.4486 527.3481 527.2423 527.1289 527.0078 526.8823 526.7597 526.6495 526.564 526.5098 526.4078 526.2928 526.171 526.0485 525.9342 525.8378 525.7672 525.7264 525.7142 525.724 525.7468 525.7731 525.793 525.799 525.783 525.7347 525.6404 525.4867 525.2608 524.9688 524.4263 523.6093 523.0072 522.4415 521.9669 521.7195 521.4717 521.2567 521.0801 520.9383 520.8252 520.7377 520.6711 520.621 520.5868 520.5652 520.5491 520.5355 520.526 520.5192 520.5084 520.4901 520.4705 520.4609 520.4664 520.4809 520.4954 520.5063 520.5212 520.5593 520.6426 520.7828 520.9747 521.1978 521.4254 521.6301 521.7933 521.9452 522.2075 522.5385 522.9764 523.5128 524.233 525.0947 525.9077 526.591 527.2922 527.9586 528.4722 529.0028 529.9805 531.363 532.7308 534.0051 535.2802 536.5688 538.136 540.177 542.2173 544.5521 547.4391 550.0145 551.7996 552.5924 552.5802 -9999 -9999 -9999 -9999 -9999 -9999 -9999 -9999 541.1288 543.2428 545.3895 547.4737 549.2241 550.1986 550.6236 551.3663 552.476 554.158 556.1092 557.7322 558.7111 -9999 -9999 -9999 -9999 -9999 -9999 -9999 -9999 -9999 -9999 -9999 -9999 -9999 -9999 -9999 -9999 -9999 -9999 -9999 -9999 -9999 -9999 -9999 -9999 -9999 -9999 -9999 -9999 -9999 -9999 -9999 -9999 -9999 -9999 -9999 -9999 -9999 -9999 -9999 -9999 -9999 -9999 -9999 -9999 -9999 -9999 -9999 -9999 -9999 -9999 -9999 -9999 -9999 -9999 -9999 -9999 -9999 -9999 -9999 -9999 -9999 -9999 -9999 -9999 -9999 -9999 -9999 -9999 -9999 -9999 -9999 -9999 -9999 -9999 -9999 -9999 -9999 -9999 -9999 -9999 548.1805 547.863 547.9995 548.0934 547.7138 546.5049 545.1608 544.0177 543.5316 543.4074 543.3683 543.3965 543.6248 543.9477 543.5555 542.7772 542.2675 543.8984 546.2366 548.4584 549.7731 549.5161 547.5448 544.9555 -9999 -9999 -9999 -9999 -9999 -9999 539.7692 539.9988 540.1549 540.3027 540.4221 540.5112 540.4984 540.1384 539.2391 538.0399 537.0602 536.3732 535.6945 535.1288 534.5982 534.1167 533.6149 533.069 532.572 532.1984 532.0024 531.9257 531.9139 531.9214 531.9119 531.8603 531.7584 531.6162 531.4573 531.3085 531.1936 531.1267 531.1052 531.08 531.08 531.0799 531.0287 530.9598 530.8797 530.7919 530.7003 530.6097 530.5239 530.4443 530.3726 530.3097 530.2583 530.2233 530.2056 530.2042 530.2154 530.2333 530.2502 530.2628 530.2751 530.2935 530.32 530.3539 530.395 530.4377 530.4718 530.4868 530.4821 530.4667 530.4454 530.4177 530.3801 530.3263 530.2582 530.1944 530.1564 530.152 530.178 530.2328 530.3115 530.3867 530.4147 530.3708 530.2775 530.185 530.1354 530.1379 530.1755 530.2245 530.2699 530.3198 530.4226 530.6498 531.0532 531.5342 532.0686 532.6311 533.1839 533.549 533.9218 534.0518
534.0449 533.9546 533.8593 533.7615 533.6611 533.558 533.4524 533.3453 533.239 533.1356 533.0368 532.9443 532.8588 532.7803 532.7097 532.6486 532.6 532.5646 532.5291 532.4893 532.4446 532.3956 532.3436 532.2896 532.2346 532.1796 532.1252 532.072 532.0204 531.9705 531.9226 531.8768 531.8334 531.7916 531.7506 531.71 531.6693 531.6284 531.5876 531.5467 531.5052 531.4624 531.4175 531.3705 531.3221 531.2734 531.2258 531.1807 531.1396 531.1051 531.08 531.0505 531.0028 530.9417 530.8706 530.7917 530.7073 530.6198 530.5319 530.4455 530.3611 530.278 530.195 530.1111 530.0261 529.9409 529.8575 529.7786 529.707 529.6451 529.5956 529.5599 529.5181 529.4789 529.4437 529.4135 529.3877 529.3641 529.3378 529.3022 529.2506 529.1781 529.0841 528.9724 528.8472 528.7123 528.5703 528.4265 528.2894 528.1729 528.0909 528.0298 527.9481 527.8591 527.7632 527.6649 527.5685 527.4749 527.3815 527.2851 527.1821 527.0709 526.9515 526.8281 526.7078 526.5993 526.5103 526.458 526.368 526.257 526.1372 526.016 525.9027 525.8076 525.7384 525.6989 525.6877 525.697 525.7164 525.7354 525.7433 525.7312 525.6914 525.616 525.4921 525.2999 524.9993 524.6681 524.137 523.459 522.7758 522.2502 521.9196 521.5981 521.3394 521.1326 520.967 520.8367 520.7347 520.6575 520.6003 520.5576 520.5287 520.5118 520.5001 520.4899 520.4828 520.4796 520.4753 520.4637 520.4463 520.4333 520.4352 520.4531 520.4783 520.5027 520.5256 520.5599 520.6255 520.7391 520.9022 521.1002 521.3125 521.5219 521.7245 521.9357 522.0939 522.3225 522.6438 523.0778 523.6925 524.7183 525.4379 526.0246 526.5837 527.2638 527.8769 528.3051 529.4143 530.8018 532.1727 533.3329 534.4484 535.6612 537.054 538.803 540.7852 542.6585 545.4185 548.2791 550.5815 551.9939 552.3949 552.0674 -9999 -9999 -9999 -9999 -9999 539.7863 539.5488 540.303 541.9988 543.9515 545.9385 547.6926 548.9691 549.5796 550.3077 551.5668 553.3843 555.3489 556.9504 558.0596 558.8739 -9999 -9999 -9999 -9999 -9999 -9999 -9999 -9999 -9999 -9999 -9999 -9999 -9999 -9999 -9999 -9999 -9999 -9999 -9999 -9999 -9999 -9999 -9999 -9999 -9999 -9999 -9999 -9999 -9999 -9999 -9999 -9999 -9999 -9999 -9999 -9999 -9999 -9999 -9999 -9999 -9999 -9999 -9999 -9999 -9999 -9999 -9999 -9999 -9999 -9999 -9999 -9999 -9999 -9999 -9999 -9999 -9999 -9999 -9999 -9999 -9999 -9999 -9999 -9999 -9999 -9999 -9999 -9999 -9999 -9999 -9999 -9999 -9999 -9999 -9999 -9999 -9999 -9999 549.144 548.094 547.9285 548.0017 547.8203 546.7141 544.9528 542.9885 541.4706 540.7943 540.7054 540.9798 541.6046 542.296 542.7759 541.915 540.9197 540.8852 542.0124 544.4875 547.3798 549.9064 550.7997 549.675 547.2125 544.4861 -9999 -9999 -9999 539.3434 539.5988 539.9873 540.0928 540.1494 540.16 539.9485 539.5789 539.1766 538.5943 537.9349 536.9075 535.9967 535.5699 535.1061 534.6296 534.124 533.6082 533.0957 532.6171 532.2679 532.0128 531.8769 531.8313 531.8368 531.8546 531.851 531.8029 531.7021 531.5601 531.4026 531.2568 531.1451 531.0801 531.0799 531.046 531.0256 531.0042 530.9537 530.8844 530.8032 530.7143 530.6216 530.5298 530.4429 530.363 530.292 530.2305 530.1803 530.1461 530.1304 530.1321 530.1475 530.1708 530.1955 530.2159 530.2347 530.2596 530.2942 530.3367 530.3852 530.4363 530.4815 530.5095 530.515 530.5048 530.4845 530.4559 530.4187 530.3664 530.2981 530.2322 530.1891 530.1738 530.1826 530.2201 530.2894 530.3636 530.3925 530.3475 530.252 530.1642 530.1385 530.1837 530.2676 530.3495 530.4028 530.435 530.5018 530.6987 531.1258 531.9319 532.613 533.3317 534.0743 534.7231 535.5017 535.8741
534.0092 533.9099 533.813 533.715 533.6149 533.5126 533.4082 533.303 533.1992 533.0989 533.0039 532.9159 532.8354 532.7629 532.699 532.6446 532.6 532.561 532.522 532.4791 532.431 532.3784 532.3229 532.2655 532.2075 532.1501 532.0941 532.0397 531.9874 531.9374 531.8896 531.8442 531.8011 531.7596 531.7189 531.6787 531.6385 531.5984 531.5581 531.5176 531.4766 531.4342 531.3895 531.3428 531.2946 531.2464 531.1997 531.1558 531.1158 531.08 531.0543 531.0181 530.9662 530.9013 530.8264 530.7439 530.6561 530.5657 530.4756 530.3876 530.3021 530.2184 530.1349 530.0504 529.965 529.8799 529.7976 529.7224 529.6578 529.6036 529.56 529.5259 529.4856 529.4453 529.4097 529.3813 529.3594 529.3403 529.3177 529.2839 529.2317 529.1567 529.0591 528.9426 528.8126 528.6733 528.527 528.3773 528.2316 528.1058 528.03 527.9623 527.8765 527.7797 527.6778 527.5769 527.4816 527.3925 527.3055 527.215 527.1168 527.0092 526.8934 526.7743 526.66 526.5649 526.5098 526.4288 526.3306 526.2191 526.1013 525.9823 525.8704 525.7765 525.7092 525.6714 525.6611 525.6703 525.6866 525.6983 525.6942 525.6638 525.5994 525.4971 525.3589 525.1925 524.9536 524.4748 523.9048 523.3108 522.4854 521.95 521.6539 521.399 521.1826 521.0046 520.8604 520.7457 520.657 520.5902 520.5421 520.5071 520.4834 520.4702 520.4618 520.4545 520.4492 520.4476 520.4474 520.4423 520.4305 520.4174 520.4148 520.4301 520.459 520.4915 520.5223 520.5573 520.6115 520.7034 520.8404 521.0149 521.21 521.4105 521.6067 521.7911 521.9401 522.1294 522.4031 522.8092 523.4116 524.1818 524.9147 525.4673 525.907 526.5144 527.1172 527.6277 528.646 529.8896 531.2029 532.4992 533.7416 534.806 535.9238 537.3787 539.172 541.0172 543.4413 546.3964 549.1695 551.2018 552.0505 552.0439 551.3949 549.9249 547.6867 545.0822 542.6061 540.7573 539.8962 539.9948 541.0209 542.409 543.9488 545.3309 546.6746 547.5659 548.2805 549.5615 551.5007 553.6816 555.5975 557.0162 558.087 559.0341 -9999 -9999 -9999 -9999 -9999 -9999 -9999 -9999 -9999 -9999 -9999 -9999 -9999 -9999 -9999 -9999 -9999 -9999 -9999 -9999 -9999 -9999 -9999 -9999 -9999 -9999 -9999 -9999 -9999 -9999 -9999 -9999 -9999 -9999 -9999 -9999 -9999 -9999 -9999 -9999 -9999 -9999 -9999 -9999 -9999 -9999 -9999 -9999 -9999 -9999 -9999 -9999 -9999 -9999 -9999 -9999 -9999 -9999 -9999 -9999 -9999 -9999 -9999 -9999 -9999 -9999 -9999 -9999 -9999 -9999 -9999 -9999 -9999 -9999 -9999 -9999 -9999 548.8985 548.0537 547.8771 547.8214 546.9709 545.2226 542.9908 541.0182 539.5768 538.8322 538.7233 539.0209 539.4357 539.8782 540.0558 539.6659 539.3414 539.6384 540.6808 542.7725 545.6675 548.7936 551.0266 550.6608 548.7902 546.3361 -9999 -9999 539.9073 539.5994 539.7046 539.9437 540.0004 540.0027 539.9277 539.3478 538.4773 537.6511 537.0634 536.5475 535.8029 535.1946 534.8212 534.5407 534.1213 533.6104 533.09 532.6097 532.2279 531.96 531.7892 531.7103 531.6972 531.7158 531.7375 531.7357 531.6903 531.5935 531.4569 531.309 531.177 531.08 531.024 531.0061 530.978 530.9502 530.9168 530.8657 530.7987 530.7198 530.6327 530.5415 530.4504 530.3641 530.285 530.2148 530.155 530.1063 530.0724 530.058 530.0627 530.0823 530.1109 530.1428 530.1717 530.1974 530.2274 530.2684 530.319 530.3754 530.4336 530.4873 530.5267 530.543 530.5394 530.5226 530.495 530.4592 530.4109 530.3467 530.2819 530.2371 530.2152 530.2095 530.2266 530.2795 530.347 530.3745 530.3273 530.2304 530.1489 530.151 530.249 530.3949 530.5225 530.5862 530.5878 530.5939 530.74 531.2059 532.317 533.0669 534.0156 535.1848 536.4951 537.7822 538.5729
533.9955 533.8812 533.7766 533.6753 533.5741 533.472 533.3688 533.2657 533.1646 533.0676 532.9766 532.8931 532.8179 532.7508 532.692 532.642 532.6 532.5614 532.5205 532.4741 532.4218 532.3646 532.3046 532.2432 532.1819 532.1218 532.0639 532.0084 531.9556 531.9053 531.8577 531.8126 531.7697 531.7285 531.6882 531.6483 531.6089 531.5695 531.5299 531.4899 531.449 531.4069 531.3625 531.316 531.2683 531.2209 531.1759 531.1353 531.1021 531.08 531.0386 530.9894 530.9296 530.8593 530.7802 530.694 530.603 530.5099 530.4174 530.3277 530.2408 530.1563 530.0722 529.9875 529.9022 529.8175 529.7364 529.6643 529.6073 529.56 529.521 529.4844 529.4435 529.4023 529.3674 529.3419 529.3244 529.3099 529.2906 529.2573 529.2027 529.1233 529.0206 528.9 528.7673 528.6267 528.4792 528.3275 528.1756 528.031 527.954 527.8734 527.7789 527.676 527.5712 527.4713 527.3806 527.2986 527.2201 527.1378 527.0461 526.9438 526.8333 526.72 526.6101 526.5103 526.4594 526.3833 526.2866 526.1766 526.061 525.9449 525.8351 525.7426 525.6774 525.642 525.6332 525.6423 525.6559 525.6606 525.645 525.5972 525.5059 525.3649 525.1783 524.979 524.6666 524.1602 523.5301 522.8527 522.044 521.649 521.4053 521.2044 521.0304 520.8837 520.7635 520.6674 520.5929 520.5373 520.4977 520.47 520.4513 520.4413 520.4354 520.4307 520.4266 520.4245 520.4253 520.4243 520.4203 520.4111 520.4064 520.4158 520.4415 520.4752 520.5104 520.5472 520.5959 520.672 520.787 520.9388 521.1146 521.2973 521.4739 521.6334 521.7739 521.9398 522.1717 522.5083 522.9759 523.5365 524.2264 524.8369 525.1307 525.7421 526.3527 526.7344 527.6328 528.8061 530.113 531.4487 532.7383 533.8802 534.8921 536.0211 537.5099 539.3754 541.7708 544.2984 547.1915 549.6776 551.2328 551.5399 551.0942 550.0045 548.3491 546.4491 544.3687 542.3399 540.743 540.0295 540.3926 541.0811 541.8098 542.2862 543.4225 544.3066 545.244 546.6356 548.7366 551.2294 553.6117 555.5217 556.9902 558.2773 559.7 -9999 -9999 -9999 -9999 -9999 -9999 -9999 -9999 -9999 -9999 -9999 -9999 -9999 -9999 -9999 -9999 -9999 -9999 -9999 -9999 -9999 -9999 -9999 -9999 -9999 -9999 -9999 -9999 -9999 -9999 -9999 -9999 -9999 -9999 -9999 -9999 -9999 -9999 -9999 -9999 -9999 -9999 -9999 -9999 -9999 -9999 -9999 -9999 -9999 -9999 -9999 -9999 -9999 -9999 -9999 -9999 -9999 -9999 -9999 -9999 -9999 -9999 -9999 -9999 -9999 -9999 -9999 -9999 -9999 -9999 -9999 -9999 -9999 -9999 -9999 -9999 548.4501 547.7449 547.2971 546.854 545.642 543.2684 541.1011 539.2741 538.0562 537.3273 537.1531 537.2451 537.4134 537.6033 537.7025 537.691 537.9633 538.52 539.5206 541.2317 543.6072 546.7468 549.6641 550.5627 549.1921 547.794 545.0065 -9999 540.5274 539.9786 539.8561 539.9623 539.9579 539.8693 539.6442 538.7161 537.5662 536.5707 535.8829 535.5485 535.0405 534.5681 534.192 534.0577 533.6152 533.1003 532.608 532.1979 531.8833 531.6719 531.5544 531.5166 531.53 531.562 531.5861 531.5831 531.5391 531.4481 531.322 531.1918 531.0801 531.0027 530.9534 530.925 530.8961 530.864 530.8246 530.7726 530.7075 530.6315 530.5473 530.4587 530.3701 530.2854 530.208 530.1395 530.0811 530.0345 530.0015 529.9874 529.9948 530.0187 530.0526 530.0906 530.128 530.1619 530.1971 530.2427 530.3002 530.3645 530.43 530.4908 530.54 530.5665 530.5709 530.5585 530.5325 530.4978 530.4534 530.395 530.3336 530.2894 530.2659 530.2516 530.2502 530.2821 530.3376 530.3618 530.3136 530.2152 530.14 530.1682 530.3208 530.5389 530.7277 530.8125 530.7814 530.7068 530.7505 531.1389 532.1627 533.0303 534.3283 536.2609 538.5863 540.8594 542.4048
533.9796 533.8539 533.7435 533.6398 533.5377 533.4358 533.3336 533.2325 533.1343 533.0409 532.9541 532.8754 532.8051 532.7428 532.688 532.6403 532.6 532.5657 532.5242 532.4738 532.416 532.3534 532.2882 532.2224 532.1575 532.0947 532.0349 531.9782 531.9246 531.8741 531.8268 531.7821 531.7396 531.6987 531.6588 531.6194 531.5806 531.5417 531.5029 531.4635 531.4229 531.3807 531.3364 531.2902 531.2432 531.197 531.1535 531.1145 531.08 531.0562 531.0135 530.9578 530.8912 530.8154 530.7319 530.6421 530.548 530.4521 530.3573 530.2654 530.1772 530.0916 530.0073 529.9233 529.8396 529.757 529.6775 529.6074 529.56 529.519 529.4803 529.4396 529.395 529.3516 529.3167 529.2941 529.2813 529.2708 529.2529 529.2183 529.1589 529.0724 528.9625 528.837 528.7036 528.5656 528.4205 528.2741 528.1395 528.0289 527.8942 527.7739 527.6595 527.5482 527.4426 527.3477 527.2655 527.194 527.1264 527.054 526.97 526.8735 526.7695 526.6672 526.5779 526.5098 526.4264 526.3369 526.2373 526.1282 526.0145 525.9015 525.7948 525.7045 525.6412 525.6088 525.6018 525.6108 525.6213 525.6195 525.5929 525.5308 525.4193 525.244 524.99 524.7424 524.3734 523.8807 523.3652 522.6277 521.9538 521.5377 521.267 521.0682 520.9109 520.7838 520.6823 520.603 520.5426 520.498 520.4668 520.4456 520.4313 520.4238 520.4196 520.4172 520.4146 520.41 520.41 520.41 520.4136 520.4107 520.4072 520.4109 520.4284 520.4561 520.4909 520.5294 520.5759 520.6416 520.7388 520.8707 521.0273 521.1914 521.3479 521.4875 521.6135 521.754 521.9409 522.2102 522.564 522.9736 523.4861 524.0446 524.4036 524.9688 525.5154 525.9126 526.6387 527.7209 529.0328 530.5204 531.7623 532.8162 533.8837 534.8974 536.0513 537.5883 539.5913 541.8469 544.6413 547.3779 549.3693 550.1784 550.102 549.4797 548.4073 547.0655 545.3668 543.8265 542.1023 540.6144 540.14 540.0009 539.7349 539.4772 540.0895 540.9574 542.0879 543.6008 545.6362 548.2868 551.0898 553.4764 555.487 557.1931 558.8152 560.6207 -9999 -9999 -9999 -9999 -9999 -9999 -9999 -9999 -9999 -9999 -9999 -9999 -9999 -9999 -9999 -9999 -9999 -9999 -9999 -9999 -9999 -9999 -9999 -9999 -9999 -9999 -9999 -9999 -9999 -9999 -9999 -9999 -9999 -9999 -9999 -9999 -9999 -9999 -9999 -9999 -9999 -9999 -9999 -9999 -9999 -9999 -9999 -9999 -9999 -9999 -9999 -9999 -9999 -9999 -9999 -9999 -9999 -9999 -9999 -9999 -9999 -9999 -9999 -9999 -9999 -9999 -9999 -9999 -9999 -9999 -9999 -9999 -9999 549.9295 548.7406 547.6047 546.6201 546.1388 545.5166 543.9814 541.8083 539.5857 537.879 536.9901 536.3707 536.132 536.1209 536.2078 536.3356 536.4818 536.6866 537.1226 537.7207 538.6813 540.1648 542.2357 544.8552 548.4098 550.9305 550.6896 549.3145 546.374 543.3836 541.4259 540.4546 540.0151 539.96 539.6744 539.2095 538.5322 537.623 536.5925 535.7216 535.1782 534.8667 534.4973 534.1197 533.7576 533.4879 533.0757 532.6096 532.1924 531.8459 531.5857 531.4177 531.3346 531.322 531.3527 531.3956 531.4249 531.4235 531.3818 531.2974 531.1836 531.0801 530.9971 530.9328 530.8856 530.85 530.8157 530.7782 530.734 530.6801 530.6155 530.5414 530.4597 530.3738 530.2877 530.2054 530.1304 530.0642 530.0078 529.9633 529.9324 529.9186 529.927 529.9552 529.995 530.039 530.0831 530.1252 530.1672 530.2169 530.2796 530.3516 530.425 530.493 530.5502 530.5868 530.5992 530.5929 530.5692 530.5344 530.4924 530.4391 530.3807 530.3373 530.3152 530.2993 530.2852 530.2952 530.3362 530.3575 530.3113 530.2134 530.1414 530.1882 530.3881 530.6796 530.9424 531.0658 531.0099 530.8373 530.7031 530.818 531.3745 532.5184 534.3216 537.0605 540.61 544.2512 546.7614
533.9182 533.811 533.7075 533.606 533.5045 533.403 533.3018 533.2025 533.1072 533.0176 532.9354 532.8617 532.7965 532.7391 532.6881 532.6418 532.6 532.5762 532.5333 532.4772 532.4128 532.3439 532.2731 532.2026 532.134 532.0685 532.0068 531.9487 531.8945 531.8441 531.797 531.7527 531.7107 531.6703 531.6307 531.5918 531.5536 531.5156 531.4775 531.4385 531.3981 531.3558 531.3115 531.2656 531.2194 531.1748 531.1344 531.1017 531.08 531.0396 530.9871 530.9236 530.8505 530.7693 530.6814 530.5878 530.4905 530.3921 530.2949 530.2011 530.1114 530.025 529.9412 529.8591 529.7794 529.7029 529.6292 529.5601 529.5211 529.4817 529.439 529.3917 529.3409 529.2936 529.2579 529.2374 529.2285 529.2208 529.2025 529.1635 529.0964 528.9995 528.8785 528.7452 528.6111 528.4788 528.3319 528.1775 528.0302 527.9007 527.7617 527.6302 527.5073 527.3932 527.2909 527.2054 527.1366 527.0794 527.0254 526.9644 526.8884 526.7957 526.6946 526.5961 526.5101 526.442 526.3629 526.2743 526.1765 526.0702 525.9593 525.8497 525.7473 525.6605 525.5999 525.5699 525.5649 525.5731 525.5793 525.5687 525.53 525.4548 525.3374 525.1757 524.9631 524.5643 524.0939 523.5251 522.9816 522.3557 521.9104 521.4871 521.1886 520.9785 520.8243 520.7075 520.6187 520.5522 520.504 520.4698 520.4464 520.4312 520.4208 520.4144 520.41 520.41 520.41 520.4045 520.4026 520.4043 520.41 520.41 520.41 520.41 520.4193 520.4346 520.4655 520.5046 520.5504 520.6096 520.6929 520.8075 520.9477 521.0959 521.2355 521.3588 521.4698 521.5894 521.7416 521.9434 522.2061 522.4362 522.7714 523.2977 523.5827 524.1648 524.7121 525.0697 525.7515 526.6754 527.8905 529.2891 530.6253 531.6863 532.7427 533.8454 534.8854 536.0531 537.5882 539.4971 541.8196 544.5276 546.756 547.9951 548.2615 547.9562 547.1208 545.7557 544.4252 544.0273 542.7845 541.1972 539.8818 539.1505 538.3666 537.7444 537.7333 538.2779 539.3779 540.8735 542.8055 545.2378 548.1479 550.9849 553.5677 555.9548 558.1273 560.2455 562.4357 -9999 -9999 -9999 -9999 -9999 -9999 -9999 -9999 -9999 -9999 -9999 -9999 -9999 -9999 -9999 -9999 -9999 -9999 -9999 -9999 -9999 -9999 -9999 -9999 -9999 -9999 -9999 -9999 -9999 -9999 -9999 -9999 -9999 -9999 -9999 -9999 -9999 -9999 -9999 -9999 -9999 -9999 -9999 -9999 -9999 -9999 -9999 -9999 -9999 -9999 -9999 -9999 -9999 -9999 -9999 -9999 -9999 -9999 -9999 -9999 -9999 -9999 -9999 -9999 -9999 -9999 -9999 -9999 -9999 -9999 551.8151 550.4038 548.8874 547.4637 546.3686 545.5883 544.9701 544.1304 542.689 540.6617 538.4557 537.0647 536.2803 535.8016 535.589 535.5569 535.6274 535.7552 535.9403 536.2095 536.6492 537.2402 538.1534 539.4756 541.3693 543.5009 547.1619 550.3742 551.3429 550.0961 547.1998 544.2306 542.0908 540.8573 540.2092 539.8672 539.059 538.0272 537.3328 536.5359 535.7301 535.1265 534.7126 534.4325 534.1186 533.7296 533.3516 533.0038 532.6039 532.2015 531.8433 531.5513 531.338 531.207 531.1508 531.1537 531.194 531.2438 531.2791 531.2843 531.2517 531.1808 531.0805 531.0109 530.9434 530.8827 530.8315 530.7872 530.7446 530.6998 530.6496 530.5919 530.526 530.452 530.3716 530.2876 530.2039 530.1241 530.0518 529.9885 529.9347 529.8921 529.8634 529.8511 529.8597 529.8905 529.9365 529.9872 530.0372 530.0864 530.1358 530.1903 530.2568 530.3351 530.4171 530.4929 530.5573 530.6033 530.6245 530.6251 530.606 530.5709 530.5291 530.4793 530.4224 530.377 530.3558 530.3423 530.3225 530.3138 530.3392 530.3625 530.324 530.2294 530.1563 530.2095 530.4401 530.7955 531.1378 531.3203 531.266 531.016 530.7194 530.5997 530.9071 531.9348 534.027 537.3992 542.0378 546.9273 550.415
533.8746 533.7736 533.6747 533.5752 533.4744 533.373 533.2724 533.1747 533.082 532.9962 532.9186 532.8502 532.7908 532.7394 532.6948 532.6559 532.6239 532.6 532.546 532.481 532.4094 532.3342 532.2581 532.183 532.1107 532.0426 531.979 531.9199 531.8654 531.8149 531.7682 531.7244 531.6829 531.6429 531.6039 531.5658 531.5283 531.4911 531.4537 531.4152 531.3749 531.3324 531.288 531.2422 531.1967 531.1536 531.1145 531.08 531.056 531.0131 530.9553 530.8858 530.8069 530.7208 530.6284 530.5313 530.431 530.3301 530.2308 530.1353 530.0443 529.9574 529.8741 529.795 529.7219 529.6573 529.6027 529.5599 529.5027 529.4496 529.3962 529.3395 529.2808 529.2284 529.1911 529.1719 529.1652 529.1587 529.1378 529.0914 529.0128 528.9011 528.7634 528.6159 528.4786 528.3601 528.2045 528.03 527.8603 527.709 527.5693 527.441 527.3219 527.2117 527.1163 527.0455 526.9948 526.9555 526.9177 526.87 526.8021 526.7097 526.6078 526.5101 526.4266 526.3541 526.2783 526.1947 526.1014 525.9999 525.8936 525.7882 525.691 525.6097 525.5526 525.5247 525.5205 525.5259 525.5247 525.5003 525.4418 525.3398 525.1891 524.9797 524.6936 524.2861 523.8467 523.3649 522.6649 522.0085 521.6747 521.3618 521.1035 520.9066 520.7598 520.6511 520.5712 520.5142 520.4752 520.45 520.4334 520.4228 520.4155 520.41 520.4039 520.401 520.399 520.3954 520.3932 520.3937 520.3969 520.3986 520.4006 520.4033 520.41 520.41 520.4368 520.4747 520.5198 520.5741 520.6469 520.7463 520.8722 521.0076 521.1337 521.2424 521.3399 521.4437 521.5755 521.7451 521.9286 521.9429 522.0262 522.4577 522.78 523.3078 523.6595 524.2124 524.9297 525.705 526.5801 527.7519 529.1278 530.3065 531.4603 532.6188 533.7701 534.8071 535.9321 537.351 539.0986 541.4094 543.4912 544.9051 545.4857 545.3329 544.4866 543.1246 542.0681 541.5078 540.8956 539.8036 538.4894 537.6282 536.9656 536.5202 536.4299 536.7683 537.4995 538.7377 540.3853 542.4509 544.9341 548.0062 551.3109 554.556 557.4606 560.0028 562.3306 -9999 -9999 -9999 -9999 -9999 -9999 -9999 -9999 -9999 -9999 -9999 -9999 -9999 -9999 -9999 -9999 -9999 -9999 -9999 -9999 -9999 -9999 -9999 -9999 -9999 -9999 -9999 -9999 -9999 -9999 -9999 -9999 -9999 -9999 -9999 -9999 -9999 -9999 -9999 -9999 -9999 -9999 -9999 -9999 -9999 -9999 -9999 -9999 -9999 -9999 -9999 -9999 -9999 -9999 -9999 -9999 -9999 -9999 -9999 -9999 -9999 -9999 -9999 -9999 -9999 -9999 -9999 -9999 552.3508 551.9409 551.0818 549.3727 547.5576 546.1421 545.1575 544.4169 543.6385 542.5598 541.0444 539.4204 537.7673 536.6147 535.9432 535.5867 535.4312 535.4071 535.4703 535.5956 535.7947 536.0917 536.5352 537.1518 537.8328 538.8608 540.3815 542.4631 546.0775 549.4879 551.2001 549.8238 547.0859 544.3226 542.2073 540.8223 539.9125 539.1722 538.0035 537.3049 536.4673 535.7253 535.1637 534.7371 534.392 534.1191 533.7568 533.3569 532.9682 532.5975 532.2167 531.8594 531.5521 531.3098 531.1403 531.0434 531.0113 531.0277 531.0731 531.1265 531.167 531.1817 531.1661 531.1278 531.0798 530.9977 530.9209 530.8527 530.7924 530.7377 530.6851 530.6311 530.5734 530.5104 530.4409 530.3654 530.2848 530.2017 530.1198 530.0424 529.9727 529.9125 529.8618 529.8212 529.7941 529.7837 529.793 529.8247 529.8754 529.934 529.991 530.0459 530.1018 530.162 530.2321 530.3148 530.4043 530.4889 530.5608 530.6153 530.6454 530.6538 530.6414 530.6083 530.5656 530.5175 530.4604 530.4091 530.3846 530.3746 530.3525 530.3298 530.3397 530.3692 530.3509 530.2652 530.1849 530.2277 530.4664 530.8645 531.2821 531.541 531.5248 531.2448 530.8426 530.5361 530.6046 531.374 533.3908 536.9419 542.0903 547.7761 551.9991
