ncols         245
nrows         48
xllcorner     724950
yllcorner     6059250
cellsize      50
NODATA_value  -9999
-9999 -9999 -9999 -9999 -9999 -9999 -9999 -9999 -9999 -9999 -9999 -9999 -9999 -9999 -9999 -9999 -9999 -9999 -9999 -9999 -9999 -9999 -9999 -9999 -9999 -9999 623.4625 622.2502 620.7195 618.3673 615.2568 611.7443 608.14 604.7345 601.7833 599.5885 598.1142 597.0477 596.3022 595.8395 595.6115 595.4963 595.3689 595.1406 594.8344 594.3916 593.884 593.3509 592.8094 592.6194 592.7881 593.1476 593.4792 593.6664 593.566 593.162 592.5137 591.8103 591.3734 591.0462 590.3791 589.2377 587.7195 586.1151 584.5393 583.2816 582.3841 581.8385 581.4196 580.9244 580.6262 580.1323 579.8373 579.6013 579.2695 579.0065 578.7794 578.5028 578.2021 577.8834 577.5541 577.2211 576.8819 576.5421 576.2091 575.8912 575.596 575.3268 575.0856 574.8732 574.6904 574.5381 574.4153 574.3185 574.2423 574.1802 574.1257 574.0767 574.0353 574.0041 573.9941 574.0269 574.1116 574.24 574.4228 574.6853 574.983 575.2529 575.5211 575.8375 576.1392 576.3615 576.4597 576.5189 576.6917 577.053 577.5274 577.962 578.2389 578.3528 578.4446 578.754 579.5813 581.236 584.0089 587.187 590.2397 592.4 593.381 593.5341 593.2505 592.9002 592.4398 592.1414 591.8618 591.745 591.8517 592.1169 592.5055 592.9803 593.5082 594.4524 596.1523 598.9553 602.7022 607.733 613.2196 618.0513 621.6951 624.2545 -9999 -9999 -9999 -9999 -9999 -9999 -9999 -9999 -9999 -9999 -9999 -9999 -9999 -9999 -9999 -9999 -9999 -9999 -9999 -9999 -9999 -9999 -9999 -9999 -9999 -9999 -9999 -9999 -9999 -9999 -9999 -9999 -9999 -9999 -9999 -9999 -9999 -9999 -9999 -9999 -9999 -9999 -9999 -9999 -9999 -9999 -9999 -9999 -9999 -9999 -9999 -9999 -9999 -9999 -9999 -9999 -9999 -9999 -9999 -9999 -9999 -9999 -9999 -9999 -9999 -9999 -9999 -9999 -9999 -9999 -9999 -9999 -9999 -9999 -9999 -9999 -9999 -9999 -9999 -9999 -9999 -9999 -9999 -9999 -9999 -9999 -9999 -9999 -9999 -9999 -9999 -9999 -9999 -9999 -9999
-9999 -9999 -9999 -9999 -9999 -9999 -9999 -9999 -9999 -9999 -9999 -9999 -9999 -9999 -9999 -9999 -9999 -9999 -9999 -9999 -9999 -9999 -9999 -9999 -9999 623.9745 622.3174 620.3925 617.9933 614.8357 610.9805 606.8333 602.8154 599.3229 596.551 594.6372 593.4771 592.6246 591.8277 591.311 591.0295 590.8239 590.5913 590.4072 590.2499 590.0294 589.7076 589.2752 588.6648 588.2223 588.0358 587.9982 588.1334 588.2944 588.2908 588.1542 587.8054 587.1539 586.8441 586.8189 586.4982 585.7894 584.6268 583.4314 582.35 581.5869 580.9998 580.7991 580.6577 580.1913 579.797 579.3619 579.0243 578.7444 578.4586 578.213 578.0007 577.7821 577.5477 577.2963 577.0341 576.7615 576.49 576.2146 575.9437 575.6833 575.4395 575.2162 575.015 574.8374 574.6843 574.5564 574.453 574.37 574.3022 574.2432 574.1866 574.1316 574.0814 574.0409 574.0195 574.04 574.1166 574.2416 574.4215 574.6818 574.9905 575.276 575.5526 575.8705 576.1796 576.3954 576.5011 576.5708 576.7477 577.1072 577.5852 578.0247 578.2868 578.3708 578.4346 578.7313 579.5778 581.3251 584.3548 588.1142 591.7275 594.2349 595.5551 595.7612 595.0494 594.1547 593.293 592.9022 592.4272 592.1546 592.169 592.3336 592.6502 593.0085 593.4913 594.1959 595.4455 597.6483 601.3412 606.4327 612.271 617.787 622.2202 625.3387 -9999 -9999 -9999 -9999 -9999 -9999 -9999 -9999 -9999 -9999 -9999 -9999 -9999 -9999 -9999 -9999 -9999 -9999 -9999 -9999 -9999 -9999 -9999 -9999 -9999 -9999 -9999 -9999 -9999 -9999 -9999 -9999 -9999 -9999 -9999 -9999 -9999 -9999 -9999 -9999 -9999 -9999 -9999 -9999 -9999 -9999 -9999 -9999 -9999 -9999 -9999 -9999 -9999 -9999 -9999 -9999 -9999 -9999 -9999 -9999 -9999 -9999 -9999 -9999 -9999 -9999 -9999 -9999 -9999 -9999 -9999 -9999 -9999 -9999 -9999 -9999 -9999 -9999 -9999 -9999 -9999 -9999 -9999 -9999 -9999 -9999 -9999 -9999 -9999 -9999 -9999 -9999 -9999 -9999 -9999
-9999 -9999 -9999 -9999 -9999 -9999 -9999 -9999 -9999 -9999 -9999 -9999 -9999 -9999 -9999 -9999 -9999 -9999 -9999 -9999 -9999 -9999 -9999 -9999 624.4502 623.1044 621.1343 618.452 615.054 610.9442 606.3706 601.9416 598.0778 594.9534 592.6594 591.1259 590.438 590.1545 589.2291 588.6237 588.2781 587.9308 587.4446 587.1761 587.0455 586.8957 586.643 586.395 586.0725 585.5426 585.1474 584.7919 584.8331 585.0874 585.247 585.6815 586.0125 585.175 584.6846 584.4232 584.1636 583.7388 582.694 581.7689 580.9978 580.6747 580.3502 580.1132 579.8874 579.4982 579.0934 578.6843 578.3304 578.0306 577.7617 577.5338 577.3411 577.1642 576.9865 576.7976 576.5956 576.386 576.1693 575.9574 575.7456 575.5393 575.3421 575.1573 574.9879 574.8362 574.7043 574.5936 574.5039 574.4323 574.3721 574.3175 574.2618 574.2034 574.1462 574.0974 574.0667 574.0746 574.14 574.2581 574.4312 574.6853 574.9987 575.295 575.575 575.8958 576.2167 576.4353 576.5563 576.6407 576.8209 577.1655 577.627 578.0646 578.3293 578.4045 578.4487 578.7277 579.5713 581.359 584.5255 588.6167 592.531 594.9789 596.9861 597.6232 596.6331 595.4167 594.3907 593.7026 593.0397 592.5987 592.5225 592.6332 592.9794 593.3357 593.7995 594.3016 595.1981 597.0357 600.5797 605.5117 611.4711 617.4098 622.3745 625.8592 -9999 -9999 -9999 -9999 -9999 -9999 -9999 -9999 -9999 -9999 -9999 -9999 -9999 -9999 -9999 -9999 -9999 -9999 -9999 -9999 -9999 -9999 -9999 -9999 -9999 -9999 -9999 -9999 -9999 -9999 -9999 -9999 -9999 -9999 -9999 -9999 -9999 -9999 -9999 -9999 -9999 -9999 -9999 -9999 -9999 -9999 -9999 -9999 -9999 -9999 -9999 -9999 -9999 -9999 -9999 -9999 -9999 -9999 -9999 -9999 -9999 -9999 -9999 -9999 -9999 -9999 -9999 -9999 -9999 -9999 -9999 -9999 -9999 -9999 -9999 -9999 -9999 -9999 -9999 -9999 -9999 -9999 -9999 -9999 -9999 -9999 -9999 -9999 -9999 -9999 -9999 -9999 -9999 -9999 -9999
-9999 -9999 -9999 -9999 -9999 -9999 -9999 -9999 -9999 -9999 -9999 -9999 -9999 -9999 -9999 -9999 -9999 -9999 -9999 -9999 -9999 -9999 625.2827 624.423 623.1151 621.351 619.3572 616.0386 611.6442 606.6837 601.7498 597.6803 594.5977 591.8938 589.9876 588.7766 588.2474 587.9127 587.1849 586.7658 586.5389 586.1904 585.5116 585.1645 585.0126 584.8115 584.3951 584.1566 583.9898 583.7849 583.6129 583.3752 583.575 584.0802 584.0436 584.2286 584.376 583.6619 583.0856 582.653 582.3623 581.9539 581.1739 580.6329 580.1031 579.8806 579.7595 579.5469 579.2685 578.8986 578.5054 578.1192 577.7708 577.4695 577.2103 576.9945 576.8188 576.6696 576.5322 576.3922 576.2427 576.0827 575.9189 575.7524 575.5923 575.4346 575.2794 575.1288 574.9858 574.8545 574.7384 574.6404 574.5613 574.4983 574.4459 574.3969 574.3445 574.2861 574.2255 574.1694 574.1305 574.127 574.1795 574.2877 574.451 574.6936 575.0065 575.3107 575.5886 575.9044 576.2356 576.4789 576.6127 576.7183 576.8976 577.2194 577.6493 578.0749 578.3506 578.4391 578.481 578.7308 579.5128 581.2122 584.2554 588.3344 592.5402 595.6575 597.9194 599.0479 597.9292 596.4636 595.4069 594.6777 593.9068 593.2413 593.0425 593.0696 593.3998 593.8181 594.3807 594.7739 595.449 597.069 600.4009 605.1315 611.029 617.0972 622.3337 626.0756 -9999 -9999 -9999 -9999 -9999 -9999 -9999 -9999 -9999 -9999 -9999 -9999 -9999 -9999 -9999 -9999 -9999 -9999 -9999 -9999 -9999 -9999 -9999 -9999 -9999 -9999 -9999 -9999 -9999 -9999 -9999 -9999 -9999 -9999 -9999 -9999 -9999 -9999 -9999 -9999 -9999 -9999 -9999 -9999 -9999 -9999 -9999 -9999 -9999 -9999 -9999 -9999 -9999 -9999 -9999 -9999 -9999 -9999 -9999 -9999 -9999 -9999 -9999 -9999 -9999 -9999 -9999 -9999 -9999 -9999 -9999 -9999 -9999 -9999 -9999 -9999 -9999 -9999 -9999 -9999 -9999 -9999 -9999 -9999 -9999 -9999 -9999 -9999 -9999 -9999 -9999 -9999 -9999 -9999 -9999
-9999 -9999 -9999 -9999 -9999 -9999 -9999 -9999 -9999 -9999 -9999 -9999 -9999 -9999 -9999 -9999 -9999 -9999 -9999 -9999 -9999 624.7065 623.9863 623.2432 621.3965 618.427 616.5234 612.702 607.5874 602.2357 597.616 594.4254 592.6029 590.0205 588.2018 587.0758 586.6177 586.2638 585.5529 585.1749 584.9806 584.676 584.1064 583.9193 583.8508 583.7017 583.2413 582.9026 582.6976 582.5854 582.5487 582.5328 582.7554 583.1403 583.0426 582.9937 582.8935 582.254 581.6399 581.1036 580.9035 580.6619 580.1088 579.6572 579.3007 579.1517 579.1169 579.0262 578.7579 578.406 578.0344 577.6753 577.3474 577.0596 576.8149 576.6118 576.4467 576.3119 576.1959 576.0864 575.9736 575.8536 575.7276 575.6014 575.4761 575.3553 575.236 575.1158 574.9965 574.8824 574.7791 574.691 574.6204 574.5654 574.5204 574.4787 574.432 574.3766 574.3156 574.2561 574.2092 574.1951 574.234 574.3301 574.4808 574.707 575.012 575.322 575.5977 575.9012 576.2368 576.4977 576.6558 576.7825 576.9613 577.2509 577.6458 578.0598 578.3573 578.4773 578.5283 578.7336 579.3853 580.8532 583.5084 587.3279 591.6379 595.1259 596.9296 598.0797 598.0217 597.187 596.2872 595.7828 595.0726 594.5138 594.1483 594.0298 594.0829 594.3074 594.7504 595.3117 595.9695 597.6083 600.719 605.2354 610.9739 617.0162 622.3889 626.3081 -9999 -9999 -9999 -9999 -9999 -9999 -9999 -9999 -9999 -9999 -9999 -9999 -9999 -9999 -9999 -9999 -9999 -9999 -9999 -9999 -9999 -9999 -9999 -9999 -9999 -9999 -9999 -9999 -9999 -9999 -9999 -9999 -9999 -9999 -9999 -9999 -9999 -9999 -9999 -9999 -9999 -9999 -9999 -9999 -9999 -9999 -9999 -9999 -9999 -9999 -9999 -9999 -9999 -9999 -9999 -9999 -9999 -9999 -9999 -9999 -9999 -9999 -9999 -9999 -9999 -9999 -9999 -9999 -9999 -9999 -9999 -9999 -9999 -9999 -9999 -9999 -9999 -9999 -9999 -9999 -9999 -9999 -9999 -9999 -9999 -9999 -9999 -9999 -9999 -9999 -9999 -9999 -9999 -9999 -9999
-9999 -9999 -9999 -9999 -9999 -9999 -9999 -9999 -9999 -9999 -9999 -9999 -9999 -9999 -9999 -9999 -9999 -9999 -9999 -9999 624.5249 623.4291 622.6642 622.1761 620.1732 616.8666 613.2424 608.4869 603.0754 598.0369 594.2003 591.5594 589.8285 588.0018 586.6884 585.6857 585.1054 584.7111 584.1315 583.9493 583.8937 583.8019 583.4947 583.3792 583.1812 582.9197 582.5111 582.155 581.9083 581.8029 581.82 581.9063 582.0685 582.2784 582.0266 581.8326 581.5793 581.0281 580.6834 580.1863 579.9122 579.6416 579.246 578.8918 578.6299 578.5311 578.5555 578.5598 578.3344 578.0093 577.6697 577.3481 577.0544 576.7927 576.5677 576.3795 576.223 576.093 575.9828 575.8849 575.7907 575.6949 575.5966 575.4967 575.3991 575.3033 575.2084 575.1121 575.0135 574.9151 574.823 574.7433 574.6799 574.6323 574.5954 574.5617 574.5231 574.4739 574.4155 574.3551 574.304 574.2792 574.304 574.3859 574.5217 574.7285 575.0165 575.3274 575.6019 575.8915 576.225 576.4999 576.6688 576.8024 576.9872 577.2591 577.6149 578.0212 578.3603 578.5339 578.6107 578.7637 579.2272 580.3364 582.4493 585.9623 590.0572 593.5696 595.3517 597.3189 597.7578 597.7354 597.1478 596.5997 596.1042 595.7808 595.2981 595.0892 594.8702 594.8187 595.0434 595.5433 596.368 598.2338 601.3198 605.7575 611.3151 617.17 622.4687 626.3798 -9999 -9999 -9999 -9999 -9999 -9999 -9999 -9999 -9999 -9999 -9999 -9999 -9999 -9999 -9999 -9999 -9999 -9999 -9999 -9999 -9999 -9999 -9999 -9999 -9999 -9999 -9999 -9999 -9999 -9999 -9999 -9999 -9999 -9999 -9999 -9999 -9999 -9999 -9999 -9999 -9999 -9999 -9999 -9999 -9999 -9999 -9999 -9999 -9999 -9999 -9999 -9999 -9999 -9999 -9999 -9999 -9999 -9999 -9999 -9999 -9999 -9999 -9999 -9999 -9999 -9999 -9999 -9999 -9999 -9999 -9999 -9999 -9999 -9999 -9999 -9999 -9999 -9999 -9999 -9999 -9999 -9999 -9999 -9999 -9999 -9999 -9999 -9999 -9999 -9999 -9999 -9999 -9999 -9999 -9999
-9999 -9999 -9999 -9999 -9999 -9999 -9999 -9999 -9999 -9999 -9999 -9999 -9999 -9999 -9999 -9999 -9999 -9999 -9999 624.7257 623.3359 622.1622 621.2017 619.8426 617.174 613.2237 608.5538 603.413 598.4897 594.4062 591.2778 589.0966 587.6519 586.5825 585.5095 584.6006 583.9963 583.793 583.5095 583.4656 583.3257 583.1951 583.0135 582.8893 582.6851 582.3934 582.0215 581.6786 581.4219 581.3016 581.2953 581.3271 581.4481 581.4935 581.0378 580.8579 580.7324 580.296 579.9437 579.5722 579.2837 578.9915 578.6566 578.3638 578.153 578.0691 578.1045 578.159 577.9888 577.6953 577.3979 577.1254 576.876 576.6492 576.4501 576.2784 576.1296 576.0001 575.8866 575.7859 575.694 575.6063 575.5212 575.4384 575.3579 575.2798 575.202 575.1218 575.0381 574.9527 574.8706 574.7983 574.7413 574.7002 574.6708 574.6461 574.6171 574.5767 574.5244 574.4662 574.4127 574.3806 574.3905 574.4565 574.5757 574.7607 575.0258 575.3281 575.6 575.8762 576.2037 576.4977 576.6668 576.7924 576.9714 577.235 577.567 577.9695 578.3649 578.6185 578.7533 578.8798 579.1764 579.9634 581.6394 584.6915 588.5245 592.3366 595.3743 597.6634 598.527 598.5974 597.8907 597.2461 596.8708 596.5274 596.1073 595.95 595.5961 595.4042 595.4999 596.059 597.1464 599.1281 602.2025 606.6969 611.9833 617.3939 622.2835 625.9839 -9999 -9999 -9999 -9999 -9999 -9999 -9999 -9999 -9999 -9999 -9999 -9999 -9999 -9999 -9999 -9999 -9999 -9999 -9999 -9999 -9999 -9999 -9999 -9999 -9999 -9999 -9999 -9999 -9999 -9999 -9999 -9999 -9999 -9999 -9999 -9999 -9999 -9999 -9999 -9999 -9999 -9999 -9999 -9999 -9999 -9999 -9999 -9999 -9999 -9999 -9999 -9999 -9999 -9999 -9999 -9999 -9999 -9999 -9999 -9999 -9999 -9999 -9999 -9999 -9999 -9999 -9999 -9999 -9999 -9999 -9999 -9999 -9999 -9999 -9999 -9999 -9999 -9999 -9999 -9999 -9999 -9999 -9999 -9999 -9999 -9999 -9999 -9999 -9999 -9999 -9999 -9999 -9999 -9999 -9999
-9999 -9999 -9999 -9999 -9999 -9999 -9999 -9999 -9999 -9999 -9999 -9999 -9999 -9999 -9999 -9999 -9999 -9999 -9999 623.843 622.1492 620.4446 618.6476 616.1195 612.5624 608.1093 603.4087 598.7219 594.6854 591.3879 588.9048 587.221 586.2786 585.7 584.7046 583.9141 583.4311 583.2018 583.0494 583.0277 582.8877 582.7407 582.5913 582.4592 582.2772 581.9865 581.6451 581.3249 581.0903 580.9966 580.9491 580.8239 580.8232 580.7881 580.4072 580.1958 580.0116 579.718 579.421 579.1456 578.9063 578.6457 578.3571 578.0995 577.9072 577.8036 577.7685 577.7655 577.6951 577.444 577.2083 576.9977 576.7993 576.6089 576.4376 576.2811 576.1378 576.0063 575.8855 575.7762 575.6763 575.5842 575.4995 575.4219 575.3506 575.2838 575.2179 575.1494 575.0764 575.0002 574.9257 574.8593 574.8071 574.7715 574.7489 574.733 574.7144 574.6846 574.6414 574.5887 574.5358 574.4979 574.4954 574.5433 574.645 574.8061 575.0438 575.3304 575.5963 575.8542 576.173 576.4932 576.6822 576.7854 576.9417 577.199 577.5241 577.9255 578.3749 578.7214 578.9462 579.094 579.2862 579.8274 581.1519 583.7146 587.1541 590.731 593.895 596.4272 598.2407 598.9448 598.2761 597.8284 597.4557 597.0869 596.7113 596.4246 596.1017 596.0391 596.1539 596.8594 598.1482 600.2792 603.4774 607.8923 612.7604 617.5236 621.7952 625.1619 -9999 -9999 -9999 -9999 -9999 -9999 -9999 -9999 -9999 -9999 -9999 -9999 -9999 -9999 -9999 -9999 -9999 -9999 -9999 -9999 -9999 -9999 -9999 -9999 -9999 -9999 -9999 -9999 -9999 -9999 -9999 -9999 -9999 -9999 -9999 -9999 -9999 -9999 -9999 -9999 -9999 -9999 -9999 -9999 -9999 -9999 -9999 -9999 -9999 -9999 -9999 -9999 -9999 -9999 -9999 -9999 -9999 -9999 -9999 -9999 -9999 -9999 -9999 -9999 -9999 -9999 -9999 -9999 -9999 -9999 -9999 -9999 -9999 -9999 -9999 -9999 -9999 -9999 -9999 -9999 -9999 -9999 -9999 -9999 -9999 -9999 -9999 -9999 -9999 -9999 -9999 -9999 -9999 -9999 -9999
-9999 -9999 -9999 -9999 -9999 -9999 -9999 -9999 -9999 -9999 -9999 -9999 -9999 -9999 -9999 -9999 -9999 -9999 624.3645 622.6985 620.7034 618.2466 615.2703 611.5281 607.2457 602.8983 598.7336 594.9458 591.6388 588.986 587.0707 585.8541 585.1371 584.6145 583.9391 583.511 583.1213 582.8484 582.6698 582.59 582.4882 582.3499 582.2085 582.0648 581.8821 581.6268 581.3218 581.0286 580.8149 580.8089 580.8018 580.587 580.4342 580.272 579.9971 579.769 579.556 579.297 579.0438 578.8331 578.6646 578.4745 578.2546 578.0455 577.8739 577.7606 577.632 577.5101 577.3849 577.2553 577.1196 576.975 576.8228 576.6638 576.5076 576.3571 576.2136 576.0779 575.9503 575.8313 575.7207 575.6185 575.526 575.4444 575.3739 575.312 575.2542 575.1948 575.1306 575.0619 574.993 574.9308 574.8818 574.8498 574.8327 574.8247 574.816 574.7979 574.7656 574.7213 574.6716 574.6311 574.6178 574.6486 574.7302 574.8667 575.0737 575.3372 575.5975 575.8352 576.1306 576.4683 576.7218 576.826 576.9443 577.1758 577.4999 577.9008 578.3852 578.8165 579.1409 579.3538 579.5013 579.8522 580.8257 582.7986 585.8746 589.0331 591.7801 594.2501 596.3583 597.8267 598.4291 598.036 597.6962 597.3939 597.1118 596.9255 596.7708 596.8126 597.0876 597.8496 599.2067 601.3779 604.58 608.9319 613.463 617.6073 621.1762 623.954 -9999 -9999 -9999 -9999 -9999 -9999 -9999 -9999 -9999 -9999 -9999 -9999 -9999 -9999 -9999 -9999 -9999 -9999 -9999 -9999 -9999 -9999 -9999 -9999 -9999 -9999 -9999 -9999 -9999 -9999 -9999 -9999 -9999 -9999 -9999 -9999 -9999 -9999 -9999 -9999 -9999 -9999 -9999 -9999 -9999 -9999 -9999 -9999 -9999 -9999 -9999 -9999 -9999 -9999 -9999 -9999 -9999 -9999 -9999 -9999 -9999 -9999 -9999 -9999 -9999 -9999 -9999 -9999 -9999 -9999 -9999 -9999 -9999 -9999 -9999 -9999 -9999 -9999 -9999 -9999 -9999 -9999 -9999 -9999 -9999 -9999 -9999 -9999 -9999 -9999 -9999 -9999 -9999 -9999 -9999
-9999 -9999 -9999 -9999 -9999 -9999 -9999 -9999 -9999 -9999 -9999 -9999 -9999 -9999 -9999 -9999 -9999 -9999 623.1077 621.3217 618.8901 615.6043 611.4178 606.737 602.2732 598.3999 595.2998 592.1121 589.3043 587.1718 585.7593 584.8922 584.3307 583.8567 583.4198 583.1449 582.8897 582.6104 582.3784 582.2397 582.1462 582.0162 581.8675 581.7134 581.5343 581.3177 581.0505 580.8099 580.6373 580.5779 580.5094 580.3229 580.1287 579.9233 579.6873 579.4727 579.2852 579.0724 578.8595 578.6824 578.5477 578.4144 578.2686 578.1158 577.9746 577.8584 577.7248 577.5864 577.453 577.3324 577.2124 577.084 576.9449 576.7955 576.6409 576.4865 576.3361 576.1922 576.0555 575.9265 575.8051 575.6919 575.5891 575.4994 575.4241 575.3617 575.3076 575.2552 575.1993 575.1378 575.0745 575.0154 574.9684 574.9385 574.9253 574.9236 574.9242 574.9172 574.8968 574.8623 574.8188 574.778 574.757 574.7716 574.833 574.9445 575.1187 575.3521 575.6022 575.8298 576.0897 576.4212 576.7271 576.9121 577.0192 577.2043 577.5074 577.9026 578.3832 578.8625 579.2656 579.5669 579.7347 579.9529 580.5679 581.9165 584.6263 587.4537 589.9489 592.129 594.0519 595.7109 596.6099 597.1346 597.3444 597.36 597.2964 597.3011 597.3907 597.5717 597.9777 598.7722 600.1037 602.2054 605.3363 609.6108 613.9197 617.5911 620.4457 -9999 -9999 -9999 -9999 -9999 -9999 -9999 -9999 -9999 -9999 -9999 -9999 -9999 -9999 -9999 -9999 -9999 -9999 -9999 -9999 -9999 -9999 -9999 -9999 -9999 -9999 -9999 -9999 -9999 -9999 -9999 -9999 -9999 -9999 -9999 -9999 -9999 -9999 -9999 -9999 -9999 -9999 -9999 -9999 -9999 -9999 -9999 -9999 -9999 -9999 -9999 -9999 -9999 -9999 -9999 -9999 -9999 -9999 -9999 -9999 -9999 -9999 -9999 -9999 -9999 -9999 -9999 -9999 -9999 -9999 -9999 -9999 -9999 -9999 -9999 -9999 -9999 -9999 -9999 -9999 -9999 -9999 -9999 -9999 -9999 -9999 -9999 -9999 -9999 -9999 -9999 -9999 -9999 -9999 -9999 -9999
-9999 -9999 -9999 -9999 -9999 -9999 -9999 -9999 -9999 -9999 -9999 -9999 -9999 -9999 -9999 -9999 -9999 622.7259 621.7161 619.7626 616.8234 612.6295 607.4476 602.3326 598.0516 595.1299 592.9287 589.9811 587.5353 585.897 584.8696 584.2603 583.8228 583.3461 583.0043 582.8261 582.6896 582.4186 582.1481 581.956 581.8391 581.7363 581.5743 581.4079 581.2261 581.0297 580.8107 580.6209 580.4763 580.3758 580.2639 580.0939 579.8978 579.689 579.4844 579.3086 579.1417 578.989 578.8484 578.7168 578.5954 578.4942 578.3942 578.2904 578.1931 578.1008 577.9854 577.855 577.7196 577.5856 577.4491 577.3053 577.1521 576.9895 576.8213 576.6528 576.4883 576.3309 576.1823 576.0423 575.9103 575.787 575.6745 575.5762 575.4946 575.429 575.3756 575.3279 575.2791 575.2253 575.1681 575.113 575.0679 575.0392 575.0284 575.0314 575.04 575.0435 575.0348 575.0113 574.9753 574.9371 574.9108 574.9116 574.953 575.0403 575.181 575.3805 575.6096 575.8359 576.0685 576.3665 576.691 576.9536 577.1255 577.3011 577.564 577.9407 578.3812 578.8509 579.2816 579.6607 579.9166 580.1407 580.5569 581.3751 583.6284 586.1987 588.4592 590.3308 592.1078 593.806 595.2736 596.1193 596.738 597.084 597.2688 597.4836 597.7925 598.1713 598.6857 599.4826 600.6959 602.5669 605.4725 609.6571 613.8286 617.2544 619.7102 -9999 -9999 -9999 -9999 -9999 -9999 -9999 -9999 -9999 -9999 -9999 -9999 -9999 -9999 -9999 -9999 -9999 -9999 -9999 -9999 -9999 -9999 -9999 -9999 -9999 -9999 -9999 -9999 -9999 -9999 -9999 -9999 -9999 -9999 -9999 -9999 -9999 -9999 -9999 -9999 -9999 -9999 -9999 -9999 -9999 -9999 -9999 -9999 -9999 -9999 -9999 -9999 -9999 -9999 -9999 -9999 -9999 -9999 -9999 -9999 -9999 -9999 -9999 -9999 -9999 -9999 -9999 -9999 -9999 -9999 -9999 -9999 -9999 -9999 -9999 -9999 -9999 -9999 -9999 -9999 -9999 -9999 -9999 -9999 -9999 -9999 -9999 -9999 -9999 -9999 -9999 -9999 -9999 -9999 -9999 -9999
-9999 -9999 -9999 -9999 -9999 -9999 -9999 -9999 -9999 -9999 -9999 -9999 -9999 -9999 -9999 -9999 -9999 621.1386 620.0467 617.8175 614.4678 609.6021 603.8235 598.5483 594.7928 592.8447 590.4463 588.0098 586.2054 585.0038 584.2684 583.8354 583.3999 582.9567 582.6497 582.5071 582.3995 582.1882 581.9459 581.7367 581.593 581.4814 581.3325 581.1611 580.9778 580.8097 580.6347 580.4769 580.3474 580.2315 580.0966 579.9368 579.761 579.571 579.3934 579.2489 579.1284 579.0182 578.9546 578.8948 578.7935 578.7006 578.6207 578.5479 578.4806 578.4139 578.3252 578.209 578.0728 577.924 577.7642 577.5941 577.4146 577.2269 577.0349 576.8439 576.6592 576.4841 576.3197 576.1667 576.024 575.8912 575.7701 575.6643 575.5767 575.5079 575.4546 575.4105 575.3682 575.3221 575.2717 575.2216 575.1792 575.1519 575.1426 575.1488 575.1638 575.1769 575.1793 575.1671 575.14 575.1057 575.0771 575.0666 575.0887 575.1531 575.2626 575.4257 575.6265 575.8434 576.069 576.3326 576.6336 576.9327 577.1827 577.403 577.6649 578.0084 578.4113 578.8224 579.2177 579.6144 579.9689 580.3135 580.749 581.1147 582.8981 585.1568 587.291 589.0013 590.5432 592.2595 593.8012 594.9908 595.9626 596.6132 597.0264 597.4161 597.94 598.4969 599.1271 599.9236 600.9612 602.4291 604.9337 609.0229 613.0961 616.3853 618.6927 -9999 -9999 -9999 -9999 -9999 -9999 -9999 -9999 -9999 -9999 -9999 -9999 -9999 -9999 -9999 -9999 -9999 -9999 -9999 -9999 -9999 -9999 -9999 -9999 -9999 -9999 -9999 -9999 -9999 -9999 -9999 -9999 -9999 -9999 -9999 -9999 -9999 -9999 -9999 -9999 -9999 -9999 -9999 -9999 -9999 -9999 -9999 -9999 -9999 -9999 -9999 -9999 -9999 -9999 -9999 -9999 -9999 -9999 -9999 -9999 -9999 -9999 -9999 -9999 -9999 -9999 -9999 -9999 -9999 -9999 -9999 -9999 -9999 -9999 -9999 -9999 -9999 -9999 -9999 -9999 -9999 -9999 -9999 -9999 -9999 -9999 -9999 -9999 -9999 -9999 -9999 -9999 -9999 -9999 -9999 -9999
-9999 -9999 -9999 -9999 -9999 -9999 -9999 -9999 -9999 -9999 -9999 -9999 -9999 -9999 -9999 -9999 619.4509 619.4802 618.1747 615.53 611.8762 606.6048 600.6353 595.5362 592.0878 590.1008 588.16 586.5239 585.2657 584.4156 583.8829 583.5083 583.1177 582.7246 582.4158 582.2637 582.1495 581.9724 581.7858 581.5966 581.4396 581.3157 581.1828 581.002 580.8117 580.6709 580.5258 580.3894 580.269 580.1462 580.0107 579.8616 579.7048 579.5554 579.4226 579.3047 579.2241 579.169 579.1504 579.1375 579.0663 578.9932 578.9317 578.8796 578.829 578.7723 578.6936 578.5848 578.4467 578.2843 578.1025 577.9058 577.6981 577.4829 577.2645 577.0483 576.8401 576.6442 576.4624 576.2946 576.14 575.998 575.8692 575.7567 575.6641 575.5926 575.5397 575.4996 575.4642 575.4264 575.3839 575.3398 575.3011 575.2755 575.2676 575.2762 575.2961 575.3171 575.3297 575.3282 575.3107 575.2815 575.2521 575.2336 575.2384 575.2808 575.3624 575.488 575.6592 575.8528 576.0746 576.3214 576.5978 576.8782 577.1714 577.4542 577.7567 578.0925 578.4708 578.8336 579.1618 579.4835 579.8297 580.185 580.4688 580.9261 582.4371 584.4234 586.5644 588.0882 589.3765 590.7192 592.3066 593.7007 594.9287 595.9223 596.5674 597.0883 597.8279 598.5401 599.2502 600.0356 600.9122 601.9 603.8939 607.8817 611.8972 615.0972 617.5461 619.0714 -9999 -9999 -9999 -9999 -9999 -9999 614.45 612.9073 611.5363 -9999 -9999 -9999 -9999 -9999 -9999 -9999 -9999 -9999 -9999 -9999 -9999 -9999 -9999 -9999 -9999 -9999 -9999 -9999 -9999 -9999 -9999 -9999 -9999 -9999 -9999 -9999 -9999 -9999 -9999 -9999 -9999 -9999 -9999 -9999 -9999 -9999 -9999 -9999 -9999 -9999 -9999 -9999 -9999 -9999 -9999 -9999 -9999 -9999 -9999 -9999 -9999 -9999 -9999 -9999 -9999 -9999 -9999 -9999 -9999 -9999 -9999 -9999 -9999 -9999 -9999 -9999 -9999 -9999 -9999 -9999 -9999 -9999 -9999 -9999 -9999 -9999 -9999 -9999 -9999 -9999 -9999 -9999 -9999 -9999 -9999
-9999 -9999 -9999 -9999 -9999 -9999 -9999 -9999 -9999 -9999 -9999 -9999 -9999 -9999 -9999 -9999 618.2295 617.977 616.3868 612.9542 609.23 603.7976 597.9838 593.2857 590.3048 588.3419 586.8631 585.6682 584.7328 584.1201 583.8284 583.3943 582.9919 582.6335 582.349 582.165 582.0248 581.8568 581.7129 581.5579 581.3993 581.2598 581.1184 580.9653 580.8087 580.6467 580.5007 580.3723 580.2552 580.14 580.011 579.8713 579.7336 579.6102 579.5253 579.4586 579.4158 579.3975 579.4031 579.4103 579.3734 579.3302 579.2928 579.2604 579.2252 579.1738 579.0931 578.9759 578.8231 578.641 578.4354 578.2123 577.9773 577.7352 577.4917 577.2517 577.0209 576.8044 576.6048 576.4225 576.2562 576.1047 575.9687 575.8504 575.7534 575.6797 575.6277 575.5919 575.564 575.5358 575.5028 575.4666 575.4329 575.4097 575.4031 575.4135 575.4369 575.4642 575.4854 575.4937 575.4853 575.4619 575.4329 575.4091 575.3998 575.4202 575.4775 575.5692 575.7034 575.8773 576.0772 576.3155 576.5762 576.8435 577.1268 577.4455 577.7892 578.1465 578.5276 578.9005 579.1851 579.3964 579.6211 579.8917 580.2232 580.8551 582.2567 584.098 586.1347 587.4653 588.5313 589.5714 590.7635 592.2892 593.7114 594.9373 595.9236 596.6925 597.5256 598.3048 598.9755 599.5982 600.2654 601.2059 603.1162 606.7321 610.5508 613.5544 616.2706 618.04 -9999 -9999 -9999 617.6204 616.0512 614.3578 612.9532 611.6866 610.4361 609.8998 609.7175 609.7701 -9999 -9999 -9999 -9999 -9999 -9999 -9999 -9999 -9999 -9999 -9999 -9999 -9999 -9999 -9999 -9999 -9999 -9999 -9999 -9999 -9999 -9999 -9999 -9999 -9999 -9999 -9999 -9999 -9999 -9999 -9999 -9999 -9999 -9999 -9999 -9999 -9999 -9999 -9999 -9999 -9999 -9999 -9999 -9999 -9999 -9999 -9999 -9999 -9999 -9999 -9999 -9999 -9999 -9999 -9999 -9999 -9999 -9999 -9999 -9999 -9999 -9999 -9999 -9999 -9999 -9999 -9999 -9999 -9999 -9999 -9999 -9999 -9999 -9999 -9999 -9999 -9999 -9999 -9999 -9999 -9999 -9999 -9999
-9999 -9999 -9999 -9999 -9999 -9999 -9999 -9999 -9999 -9999 -9999 -9999 -9999 -9999 -9999 -9999 617.8623 617.2067 615.3293 611.8644 607.1733 601.3303 595.8513 591.7874 589.334 587.4178 586.238 585.3165 584.5079 583.8781 583.5951 583.2644 582.9347 582.6378 582.3896 582.2156 582.0518 581.8918 581.759 581.631 581.4778 581.3327 581.1865 581.015 580.8122 580.6636 580.5251 580.4225 580.3195 580.2189 580.0978 579.9634 579.8469 579.764 579.7217 579.7029 579.6907 579.6904 579.7041 579.7164 579.7068 579.6915 579.6802 579.6686 579.6478 579.6021 579.5122 579.3775 579.2017 578.992 578.7563 578.5031 578.239 577.9706 577.7027 577.4411 577.1907 576.9564 576.741 576.5456 576.3689 576.2096 576.0675 575.9443 575.8438 575.7683 575.7171 575.6856 575.6656 575.6478 575.6261 575.5996 575.573 575.5537 575.5488 575.5605 575.5861 575.6182 575.6462 575.6627 575.6627 575.6453 575.6173 575.5892 575.5695 575.5693 575.6029 575.6672 575.7648 575.9062 576.0922 576.3102 576.5558 576.8115 577.0888 577.4189 577.79 578.1783 578.5589 578.9429 579.2539 579.4309 579.5393 579.7372 580.1061 580.8477 582.2227 583.8954 585.6276 586.9711 587.9583 588.7946 589.6978 590.8346 592.4271 593.8123 594.9871 596.011 596.9667 597.8615 598.5345 599.0373 599.5845 600.4918 602.3015 605.3922 609.2578 612.7047 615.5333 617.3307 -9999 -9999 617.7188 616.1216 614.1528 612.4388 611.4097 610.6165 610.0499 609.9971 609.9943 610.0195 610.573 -9999 -9999 -9999 -9999 -9999 -9999 -9999 -9999 -9999 -9999 -9999 -9999 -9999 -9999 -9999 -9999 -9999 -9999 -9999 -9999 -9999 -9999 -9999 -9999 -9999 -9999 -9999 -9999 -9999 -9999 -9999 -9999 -9999 -9999 -9999 -9999 -9999 -9999 -9999 -9999 -9999 -9999 -9999 -9999 -9999 -9999 -9999 -9999 -9999 -9999 -9999 -9999 -9999 -9999 -9999 -9999 -9999 -9999 -9999 -9999 -9999 -9999 -9999 -9999 -9999 -9999 -9999 -9999 -9999 -9999 -9999 -9999 -9999 -9999 -9999 -9999 -9999 -9999 -9999 -9999 -9999 -9999
-9999 -9999 -9999 -9999 -9999 -9999 -9999 -9999 -9999 -9999 -9999 -9999 -9999 -9999 -9999 -9999 617.8345 616.6752 614.3783 610.441 605.0404 599.1221 594.1053 590.7902 589.0242 587.2062 586.1696 585.329 584.5612 583.8654 583.5342 583.2305 582.9533 582.7042 582.4837 582.2983 582.1432 582.0096 581.8947 581.7772 581.6506 581.5216 581.3875 581.2218 581.0065 580.809 580.6328 580.5618 580.4468 580.3496 580.2473 580.1199 580.0209 579.979 579.9893 580.0251 580.0363 580.0392 580.0487 580.0593 580.0626 580.0659 580.0721 580.0795 580.075 580.0364 579.9308 579.7708 579.5659 579.3242 579.0554 578.7694 578.475 578.1794 577.8885 577.6072 577.3401 577.0916 576.864 576.6583 576.4738 576.309 576.163 576.037 575.9344 575.8578 575.8077 575.7803 575.7679 575.761 575.7516 575.7369 575.7195 575.7059 575.7039 575.7169 575.744 575.7792 575.8125 575.8354 575.8425 575.8306 575.804 575.7722 575.7444 575.7269 575.7361 575.7769 575.8438 575.949 576.106 576.3129 576.5434 576.7853 577.0458 577.3752 577.7759 578.2015 578.5851 578.9393 579.271 579.4913 579.6127 579.7413 580.1047 580.8682 582.2751 583.8306 585.3874 586.7982 587.6942 588.3875 589.1023 589.9986 591.2473 592.7267 594.0092 595.2014 596.2637 597.2958 598.0441 598.5206 598.9883 599.7921 601.358 604.0152 607.9029 611.7432 614.9078 616.9248 617.8286 617.8015 616.4854 614.2867 611.8131 609.951 609.1653 609.0364 609.1679 609.6398 610.1227 610.7052 611.7811 613.3167 -9999 -9999 -9999 -9999 -9999 -9999 -9999 -9999 -9999 -9999 -9999 -9999 -9999 -9999 -9999 -9999 -9999 -9999 -9999 -9999 -9999 -9999 -9999 -9999 -9999 -9999 -9999 -9999 -9999 -9999 -9999 -9999 -9999 -9999 -9999 -9999 -9999 -9999 -9999 -9999 -9999 -9999 -9999 -9999 -9999 -9999 -9999 -9999 -9999 -9999 -9999 -9999 -9999 -9999 -9999 -9999 -9999 -9999 -9999 -9999 -9999 -9999 -9999 -9999 -9999 -9999 -9999 -9999 -9999 -9999 -9999 -9999 -9999 -9999 -9999 -9999 -9999 -9999 -9999 -9999 -9999
-9999 -9999 -9999 -9999 -9999 -9999 -9999 -9999 -9999 -9999 -9999 -9999 -9999 -9999 -9999 617.8981 617.1707 615.6243 612.845 608.5367 602.9121 597.102 592.4941 589.7472 588.2289 586.9639 586.0911 585.341 584.6159 583.9259 583.5788 583.3008 583.0453 582.8175 582.6129 582.4401 582.3051 582.1972 582.1016 581.9837 581.8886 581.7969 581.6902 581.5457 581.3103 581.0566 580.8228 580.8014 580.6293 580.5458 580.4783 580.3267 580.2314 580.2248 580.2917 580.4027 580.425 580.424 580.4249 580.4307 580.4359 580.4435 580.4545 580.4672 580.4752 580.4508 580.3199 580.1322 579.8969 579.6219 579.3185 578.999 578.6744 578.3531 578.0413 577.7435 577.4634 577.2042 576.9683 576.7561 576.5669 576.3993 576.2523 576.1261 576.0234 575.9473 575.899 575.8757 575.8707 575.8746 575.8782 575.8766 575.8702 575.8646 575.8668 575.8817 575.91 575.9472 575.9842 576.0121 576.0243 576.0171 575.9919 575.9568 575.9213 575.8911 575.8762 575.8939 575.9374 576.0099 576.1302 576.312 576.5355 576.7712 577.0212 577.3256 577.728 578.189 578.6267 578.9645 579.2548 579.5173 579.7039 579.8818 580.1963 580.8743 582.2299 583.8187 585.3912 586.7878 587.6057 588.261 588.9005 589.6233 590.4781 591.887 593.2191 594.5837 595.8235 596.7388 597.55 598.096 598.5641 599.2858 600.6066 602.8651 606.6935 610.8738 614.4211 616.5805 617.3363 616.7681 614.851 611.9101 608.8279 606.665 605.9429 606.3312 607.3013 608.4631 609.5358 610.6847 612.1891 613.8608 -9999 -9999 -9999 -9999 -9999 -9999 -9999 -9999 -9999 -9999 -9999 -9999 -9999 -9999 -9999 -9999 -9999 -9999 -9999 -9999 -9999 -9999 -9999 -9999 -9999 -9999 -9999 -9999 -9999 -9999 -9999 -9999 -9999 -9999 -9999 -9999 -9999 -9999 -9999 -9999 -9999 -9999 -9999 -9999 -9999 -9999 -9999 -9999 -9999 -9999 -9999 -9999 -9999 -9999 -9999 -9999 -9999 -9999 -9999 -9999 -9999 -9999 -9999 -9999 -9999 -9999 -9999 -9999 -9999 -9999 -9999 -9999 -9999 -9999 -9999 -9999 -9999 -9999 -9999 -9999 -9999
-9999 -9999 -9999 -9999 -9999 -9999 -9999 -9999 -9999 -9999 -9999 -9999 -9999 -9999 -9999 617.2695 616.0475 614.0449 610.8424 606.3242 600.8168 595.4452 591.3092 588.9312 587.6852 586.8648 586.1282 585.49 584.9075 584.3985 583.8762 583.5302 583.2469 583.0092 582.8198 582.6527 582.5275 582.4325 582.3271 582.2331 582.1676 582.118 582.0486 581.9186 581.7141 581.4736 581.2401 581.0765 580.8317 580.8112 580.7958 580.5701 580.4768 580.4871 580.5848 580.7963 580.811 580.8102 580.8101 580.8102 580.8102 580.8101 580.8102 580.8104 580.8112 580.8043 580.6331 580.4308 580.1732 579.8679 579.5316 579.1807 578.8287 578.4852 578.1567 577.847 577.5585 577.2933 577.0529 576.8376 576.6471 576.4795 576.3336 576.2096 576.1094 576.0358 575.9905 575.9718 575.9741 575.9884 576.005 576.0175 576.0239 576.0281 576.0364 576.0543 576.0838 576.1221 576.1614 576.1926 576.2089 576.205 576.181 576.1431 576.0996 576.059 576.0249 576.0165 576.0408 576.0891 576.1738 576.3182 576.5253 576.7611 577.0123 577.3011 577.6761 578.1323 578.6192 579.0178 579.3095 579.5605 579.8083 580.067 580.4113 580.9738 582.2609 583.8258 585.4039 586.7914 587.5945 588.3214 589.0541 589.8646 590.7963 591.8364 592.9852 594.2081 595.3137 596.2027 597.0918 597.7618 598.347 599.1293 600.3986 602.5131 605.873 610.186 613.9721 616.1921 616.6748 615.5145 612.8574 609.2363 605.6617 603.3362 602.5957 603.1246 604.3101 605.7892 607.5499 609.4825 611.5869 613.5417 614.6229 614.7397 614.0081 612.817 610.9792 608.7668 607.1771 -9999 -9999 -9999 -9999 -9999 -9999 -9999 -9999 -9999 -9999 -9999 -9999 -9999 -9999 -9999 -9999 -9999 -9999 -9999 -9999 -9999 -9999 -9999 -9999 -9999 -9999 -9999 -9999 -9999 -9999 -9999 -9999 -9999 -9999 -9999 -9999 -9999 -9999 -9999 -9999 -9999 -9999 -9999 -9999 -9999 -9999 -9999 -9999 -9999 -9999 -9999 -9999 -9999 -9999 -9999 -9999 -9999 -9999 -9999 -9999 -9999 -9999 -9999 -9999 -9999 -9999 -9999 -9999 -9999 -9999 -9999 -9999 -9999 -9999
-9999 -9999 -9999 -9999 -9999 -9999 -9999 -9999 -9999 -9999 -9999 -9999 -9999 -9999 -9999 616.9091 614.9244 612.2974 608.767 604.1815 598.9772 594.2042 590.5889 588.4694 587.4212 586.8671 586.2548 585.7083 585.2056 584.7324 584.2501 583.858 583.5292 583.2682 583.0938 582.9296 582.8043 582.7025 582.6016 582.533 582.5023 582.4852 582.4507 582.3622 582.2079 582.0042 581.7827 581.5933 581.3623 581.2415 581.1039 580.8451 580.8099 580.8079 580.828 581.0381 581.1348 581.1737 581.1873 581.1851 581.1726 581.1532 581.1281 581.0944 581.0447 580.9692 580.812 580.6456 580.3776 580.0455 579.6796 579.3014 578.9274 578.5684 578.2305 577.9159 577.6256 577.3602 577.1199 576.9052 576.7158 576.5505 576.4083 576.2886 576.1929 576.1237 576.0826 576.0692 576.0786 576.1028 576.1323 576.1591 576.1794 576.1953 576.2114 576.2336 576.2649 576.3037 576.3441 576.3774 576.3962 576.3945 576.3709 576.3304 576.2802 576.2286 576.1811 576.1481 576.1498 576.1813 576.2404 576.3452 576.5203 576.7511 577.0093 577.2966 577.6439 578.0796 578.5496 579.0221 579.3851 579.6759 579.968 580.3108 580.7581 581.3284 582.4227 583.8472 585.3823 586.792 587.7081 588.509 589.3035 590.0997 591.1099 592.1188 593.1329 594.2519 595.2394 596.108 596.9372 597.6425 598.3353 599.2474 600.5161 602.3562 605.1776 609.499 613.3895 615.6529 615.809 614.0663 610.9818 607.0034 603.3549 601.428 600.8055 601.1974 602.0852 602.9395 604.8593 607.1879 609.7283 612.0358 613.5129 613.603 612.4093 610.6622 608.4613 606.2636 605.0569 606.1228 608.9684 -9999 -9999 -9999 -9999 -9999 -9999 -9999 -9999 -9999 -9999 -9999 -9999 -9999 -9999 -9999 -9999 -9999 -9999 -9999 -9999 -9999 -9999 -9999 -9999 -9999 -9999 -9999 -9999 -9999 -9999 -9999 -9999 -9999 -9999 -9999 -9999 -9999 -9999 -9999 -9999 -9999 -9999 -9999 -9999 -9999 -9999 -9999 -9999 -9999 -9999 -9999 -9999 -9999 -9999 -9999 -9999 -9999 -9999 -9999 -9999 -9999 -9999 -9999 -9999 -9999 -9999 -9999 -9999 -9999 -9999 -9999 -9999
-9999 -9999 -9999 -9999 -9999 -9999 -9999 -9999 -9999 -9999 -9999 -9999 -9999 -9999 -9999 617.0109 614.2489 611.1134 607.3054 602.6447 597.7286 593.4222 590.2515 588.3278 587.37 586.911 586.4949 586.0162 585.5538 585.0969 584.6379 584.2188 583.8567 583.5665 583.4323 583.2519 583.1285 583.0244 582.9419 582.8964 582.8904 582.9011 582.8979 582.855 582.7583 582.5943 582.3621 582.1642 581.9822 581.8453 581.6968 581.5083 581.4057 581.3413 581.3287 581.4246 581.4996 581.5389 581.5503 581.5373 581.5045 581.4576 581.3992 581.3234 581.2135 581.0899 580.9619 580.8063 580.5039 580.1421 579.7498 579.35 578.9614 578.5959 578.259 577.9497 577.6663 577.4073 577.1726 576.9625 576.7773 576.6163 576.4794 576.3657 576.2761 576.2128 576.1774 576.1695 576.1859 576.2196 576.2612 576.3021 576.337 576.3655 576.3912 576.419 576.4527 576.4921 576.5327 576.567 576.587 576.5864 576.5623 576.519 576.4635 576.4013 576.342 576.2914 576.267 576.2803 576.3228 576.4001 576.5349 576.7459 577.0061 577.3019 577.6354 578.0303 578.4954 578.9544 579.3992 579.7797 580.134 580.5017 580.8618 581.5546 582.5627 583.8507 585.3337 586.7792 587.8698 588.8461 589.8232 590.7678 591.8157 592.8432 593.8578 594.9418 595.8903 596.5177 597.0766 597.7181 598.4789 599.5416 600.8627 602.3445 604.4121 608.701 612.6019 614.6984 614.5785 612.5013 609.3524 605.4661 602.0803 600.553 599.9448 600.1249 600.7421 600.7358 602.2866 604.5241 607.123 609.6392 611.3325 611.4634 610.062 607.9658 605.7709 604.0912 603.6887 605.1108 608.3153 612.1224 -9999 -9999 -9999 -9999 -9999 -9999 -9999 -9999 -9999 -9999 -9999 -9999 -9999 -9999 -9999 -9999 -9999 -9999 -9999 -9999 -9999 -9999 -9999 -9999 -9999 -9999 -9999 -9999 -9999 -9999 -9999 -9999 -9999 -9999 -9999 -9999 -9999 -9999 -9999 -9999 -9999 -9999 -9999 -9999 -9999 -9999 -9999 -9999 -9999 -9999 -9999 -9999 -9999 -9999 -9999 -9999 -9999 -9999 -9999 -9999 -9999 -9999 -9999 -9999 -9999 -9999 -9999 -9999 -9999 -9999 -9999
-9999 -9999 -9999 -9999 -9999 -9999 -9999 -9999 -9999 -9999 -9999 -9999 -9999 -9999 -9999 617.5148 614.4563 610.9973 606.9091 602.1011 597.2236 593.1262 590.1494 588.4371 587.5638 587.1604 586.8888 586.4597 585.9894 585.5239 585.0607 584.6174 584.2155 583.8866 583.8337 583.5841 583.4734 583.4058 583.3628 583.3413 583.3442 583.361 583.3739 583.3685 583.3283 583.2109 582.9315 582.757 582.6388 582.5475 582.4443 582.3038 582.1367 581.9784 581.8817 581.8785 581.8988 581.9058 581.8932 581.8546 581.7917 581.7096 581.6153 581.5046 581.3413 581.1915 581.0276 580.8114 580.5171 580.1466 579.7365 579.3208 578.9257 578.5652 578.2415 577.9497 577.6838 577.4396 577.2162 577.0146 576.8362 576.6818 576.5514 576.4448 576.3625 576.3062 576.2772 576.2758 576.2992 576.3414 576.3939 576.4481 576.4974 576.5394 576.5757 576.6103 576.6472 576.6874 576.7277 576.7616 576.7817 576.7813 576.756 576.7094 576.6486 576.5784 576.506 576.4432 576.3979 576.3868 576.4125 576.4727 576.5786 576.7546 577.0057 577.3033 577.6366 578.0062 578.4254 578.8946 579.3506 579.8072 580.275 580.7783 581.1948 581.8602 582.7639 583.9052 585.3706 586.863 588.2035 589.4075 590.5294 591.7065 592.8175 593.77 594.7925 595.9039 596.7233 597.21 597.533 597.9304 598.5934 599.6849 601.1795 602.4904 603.9541 607.9383 611.712 613.762 613.3906 610.7859 607.9002 604.4197 601.7592 600.3752 599.4625 599.2059 599.3242 599.1231 600.2274 601.9944 604.2216 606.641 608.4067 608.6295 607.1734 604.9814 603.0367 602.0879 602.5596 604.4903 607.8275 611.6496 614.5296 -9999 -9999 -9999 -9999 -9999 -9999 -9999 -9999 -9999 -9999 -9999 -9999 -9999 -9999 -9999 -9999 -9999 -9999 -9999 -9999 -9999 -9999 -9999 -9999 -9999 -9999 -9999 -9999 -9999 -9999 -9999 -9999 -9999 -9999 -9999 -9999 -9999 -9999 -9999 -9999 -9999 -9999 -9999 -9999 -9999 -9999 -9999 -9999 -9999 -9999 -9999 -9999 -9999 -9999 -9999 -9999 -9999 -9999 -9999 -9999 -9999 -9999 -9999 -9999 -9999 -9999 -9999 -9999 -9999 -9999
-9999 -9999 -9999 -9999 -9999 -9999 -9999 -9999 -9999 -9999 -9999 -9999 -9999 -9999 -9999 618.4221 615.4009 611.7308 607.3074 602.2138 597.1891 593.1029 590.2167 588.6379 587.8743 587.4923 587.2226 586.8998 586.4684 585.9983 585.528 585.0876 584.7015 584.3766 584.1696 583.8943 583.86 583.8587 583.8582 583.8576 583.8589 583.8606 583.8615 583.8627 583.8622 583.809 583.4286 583.3212 583.2802 583.2521 583.212 583.1158 582.8751 582.6116 582.4178 582.335 582.2947 582.2552 582.2034 582.1252 582.0224 581.8953 581.7568 581.6058 581.4313 581.2573 581.0626 580.8111 580.4872 580.0846 579.6464 579.2141 578.8193 578.4769 578.1818 577.9215 577.6843 577.4633 577.257 577.0675 576.8981 576.7513 576.6285 576.53 576.456 576.4076 576.3859 576.391 576.4211 576.4711 576.5334 576.5997 576.6624 576.7177 576.7653 576.8079 576.849 576.8903 576.9297 576.9622 576.9812 576.9799 576.953 576.9025 576.8358 576.7584 576.6752 576.5986 576.5408 576.507 576.509 576.5514 576.6392 576.7859 577.0089 577.2982 577.6305 577.9871 578.3757 578.8071 579.2768 579.7548 580.2611 580.8148 581.436 582.2014 583.1205 584.1964 585.7461 587.3477 589.0282 590.5775 592.0732 593.1927 594.1822 595.0892 596.0627 597.1505 597.9713 598.3345 598.3695 598.3855 598.6847 599.3558 600.3578 601.5569 603.4991 607.2588 610.8943 612.8361 612.5345 610.2392 606.9189 603.7263 601.3204 599.8193 598.8188 598.266 598.0567 598.0214 598.727 599.7708 601.3429 603.3646 604.9491 605.3084 603.9676 602.0206 600.5286 600.3524 601.5902 603.955 607.3584 611.0781 613.9349 -9999 -9999 -9999 -9999 -9999 -9999 -9999 -9999 -9999 -9999 -9999 -9999 -9999 -9999 -9999 -9999 -9999 -9999 -9999 -9999 -9999 -9999 -9999 -9999 -9999 -9999 -9999 -9999 -9999 -9999 -9999 -9999 -9999 -9999 -9999 -9999 -9999 -9999 -9999 -9999 -9999 -9999 -9999 -9999 -9999 -9999 -9999 -9999 -9999 -9999 -9999 -9999 -9999 -9999 -9999 -9999 -9999 -9999 -9999 -9999 -9999 -9999 -9999 -9999 -9999 -9999 -9999 -9999 -9999 -9999
-9999 -9999 -9999 -9999 -9999 -9999 -9999 -9999 -9999 -9999 -9999 -9999 -9999 -9999 -9999 619.2507 616.3661 612.5334 607.767 602.381 597.2285 593.1335 590.3194 588.9471 588.2949 587.8978 587.5664 587.2417 586.8997 586.4808 586.0188 585.6034 585.2668 584.9681 584.7399 584.5309 584.4451 584.4131 584.405 584.4043 584.4055 584.3931 584.3634 584.3239 584.2664 584.1415 583.8781 583.8525 583.8559 583.8588 583.8597 583.8186 583.496 583.1497 582.9022 582.7519 582.6531 582.5608 582.462 582.3345 582.187 582.0106 581.8295 581.6465 581.4595 581.2738 581.0696 580.8124 580.4274 579.9622 579.4819 579.0299 578.6427 578.3358 578.0881 577.8751 577.6777 577.4869 577.3018 577.127 576.9681 576.8301 576.7156 576.6256 576.5604 576.5205 576.5066 576.5187 576.5553 576.6122 576.6829 576.7593 576.834 576.9018 576.9607 577.012 577.0581 577.101 577.1395 577.1696 577.1864 577.1831 577.1539 577.0996 577.0264 576.9418 576.8495 576.7594 576.6864 576.6398 576.6188 576.6351 576.7031 576.8289 577.0207 577.2836 577.6012 577.9563 578.3278 578.7312 579.1807 579.6722 580.2072 580.828 581.6506 582.5931 583.6799 584.9723 586.6702 588.5582 590.5496 592.4662 594.004 595.249 596.1837 597.0872 598.0968 599.0786 599.8683 600.1193 599.829 599.4106 599.2585 599.3589 599.715 600.6506 602.7161 606.3424 609.9437 611.9824 611.7171 609.3792 605.8152 602.8472 600.6406 599.1364 598.0916 597.4065 597.0508 597.0273 597.452 598.1425 599.1465 600.347 601.4339 601.9506 601.0153 599.9177 599.1345 599.3375 600.7045 603.2762 606.7386 610.4539 613.5892 615.4323 -9999 -9999 -9999 -9999 -9999 -9999 -9999 -9999 -9999 -9999 -9999 -9999 -9999 -9999 -9999 -9999 -9999 -9999 -9999 -9999 -9999 -9999 -9999 -9999 -9999 -9999 -9999 -9999 -9999 -9999 -9999 -9999 -9999 -9999 -9999 -9999 -9999 -9999 -9999 -9999 -9999 -9999 -9999 -9999 -9999 -9999 -9999 -9999 -9999 -9999 -9999 -9999 -9999 -9999 -9999 -9999 -9999 -9999 -9999 -9999 -9999 -9999 -9999 -9999 -9999 -9999 -9999 -9999 -9999
-9999 -9999 -9999 -9999 -9999 -9999 -9999 -9999 -9999 -9999 -9999 -9999 -9999 -9999 621.4675 619.6317 616.7872 612.7891 607.775 602.2579 597.1047 593.0828 590.3995 589.3075 588.7722 588.312 587.8827 587.5089 587.1924 586.892 586.4874 586.1432 585.8522 585.6177 585.4413 585.2776 585.1306 585.0375 584.9962 584.9841 584.9775 584.9441 584.8661 584.7625 584.644 584.4982 584.3344 584.2916 584.2856 584.2728 584.2296 584.1161 583.8566 583.5184 583.2751 583.0898 582.9436 582.7983 582.6488 582.4619 582.2625 582.0498 581.8356 581.6249 581.4205 581.2251 581.0138 580.7917 580.3032 579.7585 579.238 578.7687 578.3986 578.1524 577.9739 577.8236 577.6754 577.5193 577.3575 577.1986 577.0513 576.9225 576.8168 576.7358 576.6797 576.6486 576.6428 576.662 576.7046 576.7675 576.8447 576.9294 577.0142 577.0931 577.163 577.2231 577.275 577.32 577.3578 577.3853 577.3986 577.3922 577.36 577.3011 577.2218 577.1293 577.0289 576.9264 576.8381 576.7756 576.7407 576.7327 576.769 576.8707 577.0364 577.2639 577.5519 577.8888 578.2621 578.6593 579.0984 579.5953 580.1616 580.8436 581.7986 582.8554 584.0219 585.7103 587.734 590.1031 592.5933 594.804 596.4438 597.8525 599.0648 600.2264 601.4659 602.123 602.6249 602.7873 602.1538 601.3045 600.7627 600.3604 600.1124 600.6391 602.6695 605.7378 608.9027 610.9911 610.5981 607.9579 604.3906 601.7102 599.7879 598.4222 597.4213 596.7061 596.2744 596.2014 596.4833 596.963 597.6034 598.3567 599.0889 599.5165 599.2416 598.6946 598.308 598.592 599.847 602.4346 605.7662 609.3871 612.7637 615.2208 -9999 -9999 -9999 -9999 -9999 -9999 -9999 -9999 -9999 -9999 -9999 -9999 -9999 -9999 -9999 -9999 -9999 -9999 -9999 -9999 -9999 -9999 -9999 -9999 -9999 -9999 -9999 -9999 -9999 -9999 -9999 -9999 -9999 -9999 -9999 -9999 -9999 -9999 -9999 -9999 -9999 -9999 -9999 -9999 -9999 -9999 -9999 -9999 -9999 -9999 -9999 -9999 -9999 -9999 -9999 -9999 -9999 -9999 -9999 -9999 -9999 -9999 -9999 -9999 -9999 -9999 -9999 -9999 -9999
-9999 -9999 -9999 -9999 -9999 -9999 -9999 -9999 -9999 -9999 -9999 -9999 -9999 -9999 621.8348 619.735 616.6484 612.3892 607.2102 601.7347 596.7762 592.9323 590.4155 589.6216 589.1431 588.5903 588.0971 587.6956 587.4009 587.1871 586.9333 586.8253 586.4713 586.2861 586.1893 586.0687 585.8352 585.6769 585.6072 585.5887 585.5791 585.5223 585.3755 585.1924 585.0123 584.851 584.7228 584.6632 584.6262 584.5668 584.4565 584.2759 584.0743 583.8467 583.5614 583.3369 583.1473 582.9419 582.7297 582.5036 582.2694 582.0294 581.788 581.5493 581.3207 581.1095 580.8237 580.5213 580.0151 579.4432 578.9181 578.4408 578.0958 577.9473 577.8578 577.7825 577.6882 577.5676 577.4289 577.2859 577.1508 577.0325 576.9363 576.8646 576.8179 576.7959 576.7981 576.824 576.8721 576.9398 577.0222 577.1129 577.2053 577.2933 577.3728 577.4416 577.4995 577.5474 577.5851 577.6098 577.6187 577.6083 577.5726 577.5088 577.4228 577.3223 577.2133 577.1011 576.9962 576.9164 576.8671 576.843 576.8503 576.9124 577.0453 577.241 577.4915 577.7976 578.1583 578.566 579.0201 579.5355 580.1291 580.8278 581.7229 582.8081 584.2115 586.3834 588.9164 591.7141 594.774 597.4566 599.5904 601.4006 603.0369 604.6093 606.1029 607.0873 607.0561 606.5316 605.5612 604.2725 603.489 602.926 602.421 602.5396 603.7218 605.5875 607.6049 609.0649 608.4056 605.7929 602.4904 600.3505 598.8733 597.7758 596.8953 596.2073 595.746 595.5889 595.7654 596.137 596.5807 597.0751 597.6096 598.1012 598.3547 598.1799 597.9561 598.1693 599.2056 601.3879 604.4043 607.8303 611.222 613.9809 615.4764 -9999 -9999 -9999 -9999 -9999 -9999 -9999 -9999 -9999 -9999 -9999 -9999 -9999 -9999 -9999 -9999 -9999 -9999 -9999 -9999 -9999 -9999 -9999 -9999 -9999 -9999 -9999 -9999 618.1828 618.5845 618.3895 617.6833 616.3657 -9999 -9999 -9999 -9999 -9999 -9999 -9999 -9999 -9999 -9999 -9999 -9999 -9999 -9999 -9999 -9999 -9999 -9999 -9999 -9999 -9999 -9999 -9999 -9999 -9999 -9999 -9999 -9999 -9999 -9999 -9999 -9999 -9999 -9999 -9999
-9999 -9999 -9999 -9999 -9999 -9999 -9999 -9999 -9999 -9999 -9999 -9999 -9999 -9999 623.0708 620.1974 616.4894 611.8249 606.4928 601.1146 596.4511 592.8053 590.2992 589.3295 588.8939 588.5427 588.1777 587.8621 587.6748 587.5724 587.4282 587.2584 586.959 586.9005 586.8917 586.8268 586.4747 586.2947 586.2303 586.2217 586.2203 586.1489 585.8966 585.6105 585.3633 585.1803 585.0615 584.9918 584.9252 584.8194 584.6554 584.4323 584.1705 583.8691 583.6775 583.4663 583.2365 582.9921 582.742 582.484 582.227 581.9683 581.7064 581.4419 581.1902 581.0229 580.7795 580.263 579.6641 579.0764 578.5618 578.0838 577.7692 577.7589 577.76 577.7632 577.7205 577.6321 577.5151 577.3889 577.2679 577.1621 577.0771 577.0159 576.9789 576.9657 576.9756 577.0076 577.0603 577.1315 577.217 577.3115 577.4092 577.504 577.5911 577.6675 577.7315 577.7828 577.821 577.8437 577.8481 577.8326 577.7925 577.7241 577.6307 577.5224 577.4045 577.2822 577.1646 577.0645 576.9972 576.959 576.9465 576.9704 577.0555 577.2097 577.4249 577.698 578.0338 578.4403 578.9158 579.4655 580.0963 580.8094 581.5853 582.6533 584.2016 586.5783 589.4575 592.9213 596.8318 600.5427 603.729 606.323 608.4175 610.1592 611.6099 612.3882 612.3309 611.2151 609.9308 608.5838 607.4745 606.6064 605.9238 605.3258 605.1532 605.5622 606.1947 606.6121 605.5484 603.2223 600.6277 599.0071 597.9883 597.2397 596.5598 595.9424 595.4907 595.2482 595.3151 595.601 595.972 596.3696 596.8289 597.4941 598.2722 598.241 597.9639 597.9538 598.5828 600.0958 602.672 605.8296 609.1472 612.02 613.8166 613.9771 -9999 -9999 -9999 -9999 -9999 -9999 -9999 -9999 612.0281 614.1324 -9999 -9999 -9999 -9999 -9999 -9999 -9999 -9999 -9999 616.993 616.9811 617.156 617.2769 617.265 617.233 617.252 617.3443 617.4571 617.5485 616.9249 615.9493 614.7512 613.3351 611.7215 610.6743 -9999 -9999 -9999 -9999 -9999 -9999 -9999 -9999 -9999 -9999 -9999 -9999 -9999 -9999 -9999 -9999 -9999 -9999 -9999 -9999 -9999 -9999 -9999 -9999 -9999 -9999 -9999 -9999 -9999 -9999 -9999 -9999
-9999 -9999 -9999 -9999 -9999 -9999 -9999 -9999 -9999 -9999 -9999 -9999 -9999 -9999 625.4092 621.6777 617.1071 611.8164 606.227 600.8934 596.4598 593.0235 590.5036 589.2794 588.7372 588.4949 588.2888 588.1118 588.061 588.1176 588.0938 587.9398 587.6969 587.5461 587.4122 587.2447 586.9679 586.9285 586.9174 586.9216 586.9257 586.8475 586.4288 586.0144 585.6948 585.4895 585.3781 585.3071 585.2164 585.0652 584.8546 584.6002 584.3241 584.053 583.854 583.56 583.2639 582.9739 582.6936 582.4194 582.1488 581.8807 581.6079 581.3243 581.04 580.8024 580.4098 579.8312 579.2017 578.6234 578.1404 577.764 577.585 577.6086 577.6843 577.7599 577.76 577.7031 577.6093 577.5039 577.402 577.3127 577.2418 577.1926 577.1659 577.1613 577.1781 577.2152 577.2712 577.3442 577.4308 577.5265 577.6264 577.7252 577.8178 577.9003 577.97 578.025 578.0644 578.0862 578.0869 578.0658 578.0206 577.9475 577.8475 577.7303 577.6041 577.4717 577.3414 577.2253 577.1359 577.0802 577.0501 577.0482 577.0857 577.186 577.3551 577.5919 577.9014 578.2921 578.7717 579.3417 579.9981 580.7256 581.347 582.386 583.9808 586.3405 589.4312 593.5668 598.5896 603.6374 608.1674 611.7671 614.3535 616.0286 616.9564 617.0941 616.7142 615.743 614.1695 612.7703 611.6384 610.5607 609.467 608.0004 606.5132 605.4985 604.6973 603.9073 602.5263 600.686 599.0355 597.9025 597.2358 596.813 596.3671 595.8752 595.4594 595.2247 595.1792 595.395 595.7643 596.2015 596.7056 597.6616 598.861 598.6529 598.1714 597.9034 598.1472 599.121 600.9686 603.673 606.8282 609.7057 611.8102 612.5747 611.7997 -9999 -9999 -9999 -9999 -9999 605.85 607.7866 609.8943 612.0469 614.1644 616.1366 617.7617 618.7989 619.2773 619.2841 618.8069 617.9767 617.1145 616.5797 616.1302 615.9708 615.9265 615.9096 615.9111 615.9319 615.9579 615.9187 615.6194 614.6705 613.373 612.0784 610.5908 608.9858 608.0083 608.5208 610.0361 611.696 613.0253 613.2993 612.8273 -9999 -9999 -9999 -9999 -9999 -9999 -9999 -9999 -9999 -9999 -9999 -9999 -9999 -9999 -9999 -9999 -9999 -9999 -9999 -9999 -9999 -9999 -9999 -9999 -9999 -9999
-9999 -9999 -9999 -9999 -9999 -9999 -9999 -9999 -9999 -9999 -9999 -9999 -9999 -9999 628.2463 623.8998 618.5884 612.6782 606.733 601.303 596.9912 593.7968 591.3014 589.71 588.9017 588.6781 588.576 588.5461 588.6891 588.9675 589.096 588.9887 588.7382 588.452 588.1354 587.9045 587.7828 587.8463 587.8046 587.7827 587.7411 587.5289 586.9672 586.4285 586.0306 585.801 585.7012 585.6324 585.5152 585.307 585.0427 584.7521 584.4515 584.152 583.8619 583.5483 583.2194 582.8966 582.5912 582.3052 582.0334 581.7673 581.4934 581.1908 580.8281 580.4701 579.9568 579.3221 578.6847 578.1587 577.7642 577.5301 577.4542 577.5125 577.6213 577.7221 577.7599 577.7599 577.7021 577.6281 577.5531 577.4861 577.4329 577.3973 577.3813 577.385 577.4077 577.4484 577.506 577.5787 577.664 577.7584 577.8577 577.9573 578.0524 578.139 578.2134 578.2723 578.3138 578.3357 578.3344 578.3082 578.2576 578.1796 578.0736 577.9481 577.8125 577.6713 577.5287 577.3967 577.2888 577.2113 577.1637 577.1382 577.144 577.191 577.3025 577.4918 577.7644 578.1305 578.5941 579.1467 579.7555 580.3647 580.9357 581.9875 583.5153 585.6421 588.8148 593.4818 599.4334 605.8039 611.6433 616.3323 619.5223 621.1348 621.345 620.3952 619.9689 618.9305 617.6012 616.0302 614.7725 613.3784 612.2385 610.2842 607.8107 605.4208 603.279 601.5541 600.3158 599.0056 597.8812 597.1023 596.6652 596.4949 596.2713 595.9425 595.611 595.3878 595.3494 595.5267 595.9595 596.6161 597.4025 598.0745 599.0503 598.8992 598.3569 597.9363 597.9 598.4509 599.6847 601.7075 604.4547 607.1371 609.5512 611.0022 610.7451 609.5666 -9999 -9999 -9999 603.4652 604.2774 605.791 607.5805 609.578 611.7429 613.923 615.8463 617.2278 617.8862 618.0495 617.8302 617.1327 616.1953 615.5573 614.6713 614.02 613.6783 613.5538 613.5357 613.5445 613.51 613.3218 612.7549 611.5374 609.9968 608.585 607.1636 605.8277 605.0156 605.4058 606.7726 608.4228 609.8877 610.725 611.1007 611.6529 612.6992 614.2858 -9999 -9999 -9999 -9999 -9999 -9999 -9999 -9999 -9999 -9999 -9999 -9999 -9999 -9999 -9999 -9999 -9999 -9999 -9999 -9999 -9999 -9999 -9999
-9999 -9999 -9999 -9999 -9999 -9999 -9999 -9999 -9999 -9999 -9999 -9999 -9999 -9999 630.8897 626.2443 620.5168 614.2123 607.9448 602.3339 598.0093 594.9804 592.2398 590.1648 589.2218 589.0527 588.9364 589.1025 589.6274 590.3409 590.6937 590.6238 590.3037 589.8271 589.231 588.8764 588.7685 588.8606 588.8065 588.7878 588.7485 588.4967 587.7853 586.9883 586.4374 586.1488 586.0532 585.9702 585.8093 585.5197 585.194 584.8622 584.5341 584.2054 583.8615 583.5 583.1277 582.7705 582.4421 582.1443 581.8712 581.6122 581.3546 581.0853 580.7707 580.1962 579.5338 578.8315 578.1888 577.761 577.499 577.3785 577.3794 577.4705 577.5961 577.7136 577.7601 577.7994 577.7954 577.7661 577.7264 577.6868 577.6541 577.6334 577.6281 577.6389 577.666 577.7084 577.765 577.8347 577.916 578.0062 578.1019 578.1993 578.2941 578.3823 578.4598 578.5223 578.5665 578.5895 578.588 578.5587 578.503 578.4203 578.3092 578.1758 578.0314 577.8804 577.7278 577.5811 577.4536 577.3569 577.2894 577.2456 577.2225 577.2321 577.2883 577.4189 577.6432 577.9735 578.417 578.9591 579.5636 580.181 580.8104 581.6475 582.8761 584.7659 587.9685 592.8033 599.1568 606.3102 613.0723 618.6668 622.4836 624.356 624.5054 623.3922 622.3762 621.1746 619.7982 618.3301 616.8969 615.5945 614.1177 611.852 608.6453 605.1628 602.1669 600.5815 599.1447 597.968 597.1232 596.5795 596.2925 596.2479 596.1915 596.0452 595.8551 595.6803 595.6384 595.8115 596.3152 597.2713 598.588 599.7083 599.8522 599.3094 598.5776 598.0345 597.8237 598.0757 598.7839 600.004 601.9683 604.3433 606.9138 608.927 609.47 609.1161 607.1152 -9999 603.3047 602.6735 602.9525 603.8007 604.9907 606.6148 608.6524 610.8872 612.9177 614.4178 615.3146 615.711 615.7745 615.4584 614.771 613.6034 612.2166 611.0897 610.388 610.1019 610.0294 610.0165 609.9353 609.6653 609.018 607.7902 606.2562 604.8453 603.5942 602.694 602.1563 602.275 603.2164 604.6754 606.2054 607.5021 608.6113 609.8918 611.4302 613.1886 615.4475 -9999 -9999 -9999 -9999 -9999 -9999 -9999 -9999 -9999 -9999 -9999 -9999 -9999 -9999 -9999 -9999 -9999 -9999 -9999 -9999 -9999 -9999
-9999 -9999 -9999 -9999 -9999 -9999 -9999 -9999 -9999 -9999 -9999 -9999 -9999 -9999 632.9046 628.1771 622.3275 615.9075 609.4999 603.717 599.1134 595.6501 592.7583 590.5721 589.601 589.4518 589.3403 589.7847 590.9258 592.5681 593.3575 593.2985 592.7398 591.8326 590.8514 590.3046 590.0236 589.9828 589.9733 589.9908 589.9774 589.7149 588.8356 587.8116 586.9705 586.5449 586.4324 586.272 585.9932 585.6469 585.2781 584.9111 584.559 584.2198 583.8627 583.433 582.9969 582.5981 582.2462 581.936 581.6558 581.3895 581.1167 580.8091 580.41 579.8224 579.1387 578.4308 577.7963 577.5017 577.3573 577.3217 577.3748 577.4883 577.6136 577.7593 577.8245 577.8859 577.9236 577.9365 577.9327 577.9209 577.9089 577.9031 577.9073 577.9238 577.9531 577.9946 578.0475 578.1113 578.1854 578.2683 578.3573 578.4493 578.5409 578.6281 578.7067 578.7719 578.8192 578.8447 578.8444 578.8146 578.7554 578.6688 578.5538 578.4138 578.2604 578.1005 577.9377 577.7786 577.6331 577.5143 577.4282 577.3672 577.3251 577.3015 577.315 577.3912 577.5594 577.8451 578.2634 578.8055 579.4376 580.1138 580.7927 581.4148 582.3801 584.0645 587.0255 591.5803 597.7842 605.003 612.0178 617.9453 621.8328 623.7737 625.1115 624.2123 623.4152 622.453 621.22 619.8066 618.2391 616.8903 615.3317 612.8714 609.3224 605.2859 602.0542 599.9833 598.4537 597.3418 596.6386 596.2389 596.0506 596.0463 596.0501 596.05 596.0497 595.959 595.9202 596.0272 596.4249 597.5618 599.4891 601.2551 601.1186 599.7984 598.7662 598.1393 597.8735 597.9965 598.3683 598.9518 599.978 601.7943 604.2665 606.6393 608.1038 607.779 606.1179 604.194 602.7411 601.9078 601.6757 601.8323 602.3541 603.4291 605.089 607.1 609.0216 610.4837 611.4818 612.0461 612.3657 612.4218 611.8248 610.4047 608.6257 607.2442 606.3608 605.9648 605.8469 605.8439 605.7818 605.5316 604.9756 603.9763 602.7391 601.5553 600.6163 600.1216 599.8637 599.678 600.0721 601.1409 602.6008 604.1893 605.8501 607.6603 609.6306 611.7451 614.1379 616.8549 -9999 -9999 -9999 -9999 -9999 -9999 -9999 -9999 -9999 -9999 -9999 -9999 -9999 -9999 -9999 -9999 -9999 -9999 -9999 -9999 -9999
-9999 -9999 -9999 -9999 -9999 -9999 -9999 -9999 -9999 -9999 -9999 -9999 -9999 -9999 -9999 629.3558 623.5589 617.246 610.924 605.0925 600.1647 596.3569 593.4374 591.3601 590.1609 589.9109 589.7916 590.616 592.5626 594.7563 596.1611 596.5281 595.913 594.6699 593.416 592.5664 591.8875 591.653 591.6025 591.5824 591.4971 591.0956 590.021 588.757 587.6514 586.9579 586.792 586.4453 586.0889 585.7034 585.3002 584.8944 584.505 584.153 583.8348 583.3201 582.8164 582.3757 582.0027 581.6832 581.3943 581.112 580.8094 580.4572 580.0198 579.4646 578.8455 578.2408 577.754 577.4791 577.3754 577.3749 577.4492 577.5724 577.6427 577.7609 577.9022 578.0194 578.1025 578.1541 578.1818 578.1947 578.2012 578.208 578.2202 578.24 578.2686 578.3057 578.3514 578.4059 578.4694 578.5415 578.6207 578.7045 578.79 578.8739 578.9515 579.0181 579.0684 579.0969 579.0996 579.0718 579.012 578.9227 578.8052 578.6611 578.4996 578.3311 578.1589 577.9885 577.8271 577.6871 577.5786 577.4996 577.4421 577.3975 577.376 577.407 577.5236 577.7596 578.1414 578.6689 579.3131 580.027 580.7396 581.1865 581.9514 583.3904 585.945 589.9928 595.6271 602.3531 609.0669 614.9064 618.832 620.2714 622.5277 623.0192 623.0926 622.8284 622.0999 -9999 -9999 617.6235 615.9382 613.5288 610.0699 605.8856 602.2664 599.8231 598.1763 597.0831 596.4212 596.0507 595.822 595.7606 595.7845 595.8687 595.9799 596.0497 596.0499 596.0482 596.1 596.983 599.0298 600.7965 601.4439 599.8779 598.696 598.1235 597.9594 598.123 598.4189 598.6625 599.1061 600.1452 602.1135 604.1472 605.7298 605.7759 604.6143 603.1926 601.8716 600.8485 600.2314 600.0994 600.2182 600.6845 601.7187 603.1725 604.6707 605.8669 606.7806 607.3439 607.7502 607.9782 607.6443 606.3362 604.6308 603.6 602.8156 602.2534 602.087 602.1755 602.3833 602.3445 601.9753 601.2606 600.3713 599.5441 598.9446 598.6574 598.6181 598.1183 598.1986 598.7875 599.8558 601.3696 603.2904 605.2661 607.6198 610.2134 612.9929 615.9607 -9999 -9999 -9999 -9999 -9999 -9999 -9999 -9999 -9999 -9999 -9999 -9999 -9999 -9999 -9999 -9999 -9999 -9999 -9999 -9999 -9999
-9999 -9999 -9999 -9999 -9999 -9999 -9999 -9999 -9999 -9999 -9999 -9999 -9999 -9999 -9999 629.7426 624.1284 618.0895 612.0326 606.3132 601.2795 597.3578 594.5458 592.5693 591.1725 590.4313 590.5027 591.8929 594.2518 596.8129 598.9355 600.1328 599.817 598.3414 596.5527 595.0629 594.2571 594.0329 593.9403 593.7465 593.448 592.832 591.3511 589.7125 588.3091 587.3752 586.9023 586.5267 586.1453 585.7332 585.2955 584.8384 584.3664 583.8867 583.5551 583.0831 582.5731 582.1079 581.718 581.3968 581.1047 580.8091 580.4818 580.1091 579.6757 579.1761 578.6486 578.1533 577.7628 577.5661 577.5131 577.5244 577.5941 577.7555 577.764 577.9136 578.0879 578.2389 578.3527 578.4307 578.4803 578.511 578.5313 578.5476 578.5648 578.5853 578.6099 578.6388 578.673 578.7141 578.7634 578.8215 578.8881 578.9613 579.0385 579.1166 579.1914 579.2579 579.3105 579.3428 579.3495 579.3259 579.2684 579.1788 579.0608 578.915 578.7479 578.5708 578.3907 578.2104 578.0352 577.8752 577.744 577.6418 577.5665 577.5071 577.4642 577.4612 577.5333 577.72 578.0525 578.5356 579.1373 579.7944 580.4078 580.8582 581.528 582.6981 584.7726 588.1736 592.9424 598.7926 604.9446 610.5782 614.8547 617.2609 619.1699 620.4506 621.5982 622.3513 622.4421 621.7411 -9999 618.2967 616.4503 614.1674 610.9674 606.7775 602.6637 599.9855 598.2267 597.1019 596.4274 596.0389 595.6671 595.4699 595.4655 595.567 595.7156 595.8308 595.8496 595.7957 595.7925 596.278 597.4003 598.9293 599.8366 599.3699 598.2423 597.9177 597.9771 598.2812 598.7123 598.9247 599.1444 599.8801 601.2777 602.1033 603.2743 603.7266 603.2448 602.1704 600.9474 600.0509 599.5671 599.3787 599.2938 599.2268 599.5399 600.1133 600.9293 601.784 602.2735 602.6542 603.0141 603.3207 603.3296 602.4568 601.5822 600.8887 600.3069 599.8915 599.775 599.8928 600.1014 600.1569 599.9495 599.4845 598.9095 598.434 598.179 598.2189 598.5496 598.9625 599.0045 599.0638 599.1466 599.9921 601.6252 603.1325 605.7848 609.0166 612.4166 615.6856 618.7266 -9999 -9999 -9999 -9999 -9999 -9999 -9999 -9999 -9999 -9999 -9999 -9999 -9999 -9999 -9999 -9999 -9999 -9999 -9999 -9999
-9999 -9999 -9999 -9999 -9999 -9999 -9999 -9999 -9999 -9999 -9999 -9999 -9999 -9999 -9999 629.3472 624.0236 618.3481 612.6921 607.3151 602.4822 598.6454 595.9059 594.0263 592.7715 592.1692 592.2233 593.6907 596.2502 599.1176 601.621 603.2419 603.5235 602.2149 600.1934 598.4896 597.7012 597.5831 597.4069 596.8149 595.9394 594.5695 592.5927 590.438 588.8148 587.6741 586.9562 586.6257 586.2295 585.785 585.3159 584.8295 584.338 583.8568 583.4019 582.8826 582.3365 581.8314 581.4119 581.0961 580.8088 580.5071 580.1772 579.8118 579.4099 578.9804 578.5541 578.1791 577.9003 577.7612 577.7575 577.7581 577.7676 577.9384 578.0527 578.2167 578.396 578.556 578.6805 578.769 578.8284 578.8679 578.8955 578.9174 578.937 578.9556 578.973 578.9894 579.0072 579.0302 579.0614 579.1027 579.1544 579.215 579.2822 579.353 579.4235 579.4885 579.5425 579.5786 579.5902 579.5723 579.5203 579.4335 579.3162 579.1716 579.0023 578.8184 578.6302 578.4419 578.2553 578.0789 577.9259 577.7971 577.6976 577.6222 577.5675 577.5452 577.5847 577.7263 578.0039 578.4252 578.9617 579.5647 580.1714 580.7439 581.213 582.1112 583.8309 586.58 590.3175 595.0064 600.2719 605.3871 609.6417 612.4172 614.5412 616.6194 618.9398 621.0354 622.1707 622.1583 -9999 619.0486 617.1832 614.9404 611.9302 607.8402 603.5593 600.566 598.5909 597.3318 596.5444 596.0316 595.5082 595.1926 595.1301 595.2263 595.3896 595.5319 595.5829 595.542 595.4932 595.6688 596.1759 596.9396 597.7919 597.9758 597.6542 597.6323 597.8965 598.3306 598.9135 599.26 599.394 599.7856 600.5466 600.8164 601.214 601.9288 602.127 601.4204 600.2629 599.7186 599.483 599.4373 599.4065 599.0693 598.6157 598.6337 598.8843 599.2951 599.5912 599.8556 600.1554 600.4344 600.4978 600.1019 599.618 599.1656 598.7563 598.4729 598.4081 598.526 598.7078 598.7997 598.7104 598.431 598.0892 597.8787 597.8623 598.056 598.4469 598.9412 599.1824 599.3862 599.7579 600.7377 602.015 601.765 604.4215 608.1643 612.0822 615.6786 618.882 -9999 -9999 -9999 -9999 -9999 -9999 -9999 -9999 -9999 -9999 -9999 -9999 -9999 -9999 -9999 -9999 -9999 -9999 -9999 -9999
-9999 -9999 -9999 -9999 -9999 -9999 -9999 -9999 -9999 -9999 -9999 -9999 -9999 -9999 -9999 -9999 623.2473 617.9696 612.7592 607.8614 603.4412 599.8152 597.2757 595.5828 594.4093 593.873 594.1173 595.8843 598.6334 601.6986 604.434 606.3916 606.7897 605.5708 603.8083 602.2975 601.6503 601.5609 601.2669 600.2709 598.7025 596.551 593.9819 591.3021 589.3721 588.052 587.2596 586.8756 586.3743 585.8725 585.3688 584.86 584.353 583.8562 583.325 582.7454 582.1459 581.5815 581.1056 580.805 580.5254 580.241 579.9308 579.5936 579.2406 578.8877 578.5602 578.3021 578.1272 578.0501 578.0597 578.092 578.1523 578.3002 578.4527 578.6245 578.8003 578.9563 579.0762 579.1603 579.2174 579.2566 579.2854 579.3088 579.3287 579.3441 579.3521 579.3512 579.3469 579.3466 579.356 579.3781 579.4132 579.4602 579.5165 579.5791 579.6442 579.7067 579.7611 579.8007 579.8179 579.8067 579.7621 579.6815 579.5676 579.4257 579.2581 579.0708 578.8754 578.6791 578.4833 578.2944 578.1234 577.9692 577.8384 577.7417 577.6774 577.6467 577.6666 577.7732 577.999 578.3528 578.8127 579.335 579.8654 580.3546 580.7963 581.5065 582.9507 585.1799 588.1051 591.6243 595.7343 600.0052 603.8258 606.6942 609.2205 612.1395 615.5487 618.8928 621.357 622.2759 621.7368 619.9493 617.9819 615.626 613.0076 609.0514 604.6174 601.4384 599.2364 597.7479 596.7377 596.0134 595.3208 594.897 594.7898 594.8787 595.0642 595.2504 595.3569 595.3597 595.3081 595.3024 595.4597 595.8119 596.3053 596.7963 597.0317 597.3121 597.7518 598.2891 598.883 599.3585 599.4901 599.6149 599.9196 599.9578 600.1469 600.6575 601.2307 600.429 599.9697 599.762 599.7191 599.8137 599.9209 599.1957 598.16 598.0638 597.9756 598.1123 598.2304 598.347 598.5678 598.7957 598.8859 598.7444 598.493 598.2065 597.918 597.7074 597.6635 597.7632 597.9122 598.014 598.0064 597.8604 597.6675 597.6105 597.7349 597.965 598.3101 598.7421 599.1799 599.597 600.1898 600.9938 601.178 601.4149 603.5769 607.4905 611.7542 615.6261 618.9709 -9999 -9999 -9999 -9999 -9999 -9999 -9999 -9999 -9999 -9999 -9999 -9999 -9999 -9999 -9999 -9999 -9999 -9999 -9999 -9999
-9999 -9999 -9999 -9999 -9999 -9999 -9999 -9999 -9999 -9999 -9999 -9999 -9999 -9999 -9999 -9999 621.8852 616.9686 612.1842 607.8176 604.0032 600.8506 598.6557 597.1817 596.2596 595.9355 596.4229 598.2955 601.2245 604.5362 607.5872 609.5963 609.709 608.3819 606.7404 605.5327 604.9995 604.831 604.4197 603.2423 601.1743 598.4065 595.3322 592.3456 589.9646 588.3945 587.4491 586.9037 586.4413 585.9545 585.4396 584.9092 584.3778 583.8542 583.2909 582.6749 582.0259 581.4001 580.8333 580.5394 580.2952 580.0446 579.7688 579.4731 579.1799 578.908 578.6696 578.5184 578.4304 578.4083 578.4453 578.5157 578.6191 578.7679 578.9286 579.0974 579.2656 579.4135 579.5186 579.5869 579.6315 579.6628 579.6879 579.7098 579.7288 579.7407 579.7382 579.7148 579.6819 579.6534 579.6382 579.6396 579.658 579.6913 579.7367 579.791 579.8503 579.9097 579.964 580.0064 580.0292 580.0253 579.9893 579.9178 579.8107 579.6731 579.5095 579.323 579.1233 578.9196 578.715 578.516 578.3312 578.1561 577.9926 577.8676 577.7889 577.7524 577.7631 577.8471 578.0334 578.3293 578.72 579.1667 579.6232 580.0392 580.4163 580.9592 582.2142 584.0511 586.4333 589.1315 592.117 595.3533 598.467 601.2871 604.3118 607.8929 612.1428 616.5157 620.0242 621.902 621.8678 -9999 618.8057 616.9606 614.3836 610.6221 606.2737 602.7362 600.2268 598.4008 597.0339 595.9938 595.1224 594.6125 594.4641 594.5419 594.7518 594.9968 595.1807 595.2508 595.2257 595.1705 595.163 595.3086 595.6553 596.1228 596.6361 597.1212 597.6936 598.3343 598.8462 599.261 599.3699 599.3427 599.387 599.2792 599.259 599.4048 599.9344 599.8018 599.9145 599.9531 599.9693 600.0027 600.09 599.7383 598.517 598.0189 597.9253 597.8395 597.7598 597.6851 597.8235 597.9823 598.0723 598.0374 597.9178 597.7426 597.5277 597.3407 597.2828 597.3542 597.4689 597.5637 597.6099 597.5629 597.455 597.4647 597.66 597.9061 598.1821 598.5314 599.0521 599.5267 600.0893 600.5078 600.5806 600.9458 602.7006 606.732 611.2576 615.3577 618.8069 621.7032 -9999 -9999 -9999 -9999 -9999 -9999 -9999 -9999 -9999 -9999 -9999 -9999 -9999 -9999 -9999 -9999 -9999 -9999 -9999
-9999 -9999 -9999 -9999 -9999 -9999 -9999 -9999 -9999 -9999 -9999 -9999 -9999 -9999 -9999 -9999 -9999 615.5856 611.1257 607.3329 604.3605 602.0886 600.3916 599.179 598.5226 598.2626 598.7779 600.5825 603.6751 607.264 610.5168 612.4844 612.3292 610.7847 609.0282 607.8446 607.192 606.8763 606.3728 605.2983 602.9555 599.7183 596.2415 592.9875 590.3503 588.6713 587.6093 586.9418 586.5651 586.0883 585.5538 584.9895 584.4154 583.8529 583.3094 582.6836 582.0028 581.3477 580.8038 580.4461 580.1882 579.9496 579.7057 579.4573 579.2352 579.0599 578.9205 578.8385 578.8069 578.8243 578.8884 578.9902 579.1249 579.2832 579.4379 579.5933 579.7524 579.8969 579.9799 580.0235 580.0494 580.0686 580.0864 580.1044 580.1217 580.132 580.1207 580.0675 579.999 579.9388 579.8979 579.8795 579.8821 579.9028 579.9382 579.9849 580.0386 580.0948 580.1486 580.1934 580.2214 580.2251 580.1984 580.1376 580.0405 579.9098 579.7516 579.5695 579.3688 579.1594 578.9465 578.7384 578.5429 578.3525 578.16 578.0006 577.8976 577.8494 577.8535 577.9277 578.0928 578.3526 578.6958 579.0958 579.5143 579.9249 580.3154 580.8223 581.8014 583.2802 585.213 587.42 589.736 592.1261 594.5576 597.2115 600.3716 604.4986 609.3087 614.3967 618.6068 621.0612 621.3201 -9999 619.1963 617.7247 615.4507 612.201 608.2047 604.3199 601.5753 599.3465 597.4933 596.0187 594.9573 594.3656 594.1841 594.2264 594.4467 594.7503 595.0236 595.1766 595.2015 595.1466 595.0933 595.1451 595.4334 595.9755 596.4266 597.0933 597.8335 598.6148 599.1929 599.2876 599.2203 599.0408 598.9412 598.8029 598.7183 598.7954 599.0829 599.2088 599.8657 600.101 600.1523 600.1237 600.0092 599.6636 598.1362 598.3169 598.1863 597.9139 597.6689 597.5245 597.5699 597.6354 597.6895 597.6871 597.6337 597.5294 597.3647 597.1808 597.0903 597.1252 597.2041 597.2771 597.3542 597.3896 597.3322 597.3453 597.5719 597.8386 598.0885 598.4086 598.8457 599.2539 599.7135 600.0173 600.2067 600.6449 602.2211 606.0316 610.5812 614.8324 618.3273 621.1893 -9999 -9999 -9999 -9999 -9999 -9999 -9999 -9999 -9999 -9999 -9999 -9999 -9999 -9999 -9999 -9999 -9999 -9999 -9999
-9999 -9999 -9999 -9999 -9999 -9999 -9999 -9999 -9999 -9999 -9999 -9999 -9999 -9999 -9999 -9999 -9999 -9999 610.1605 607.0776 605.127 603.8337 602.7764 601.7839 601.0807 600.7177 600.9174 602.3812 605.4855 609.2668 612.6477 614.6202 614.7175 613.1512 611.3055 609.9637 609.086 608.6592 608.144 606.9644 604.4089 600.8301 597.0164 593.5574 590.7996 589.0696 587.9342 587.2397 586.855 586.3033 585.7399 585.1433 584.5232 583.9037 583.4424 582.8038 582.0822 581.3798 580.8033 580.4494 580.1905 579.9449 579.7274 579.5329 579.4021 579.3246 579.2676 579.2374 579.2402 579.2797 579.3588 579.4784 579.6354 579.8079 579.9415 580.0669 580.2133 580.3733 580.4256 580.4408 580.4482 580.4554 580.4644 580.4756 580.4884 580.4982 580.4854 580.3905 580.2808 580.1892 580.1257 580.0905 580.0802 580.0905 580.1174 580.1573 580.2061 580.2594 580.3127 580.3594 580.3925 580.4041 580.3868 580.337 580.2522 580.1315 579.9807 579.8042 579.6067 579.3945 579.1748 578.957 578.752 578.551 578.3366 578.1404 578.0013 577.9283 577.9209 577.9942 578.1571 578.4038 578.7198 579.0898 579.4855 579.9217 580.3481 580.8194 581.558 582.7209 584.2947 586.2452 588.1261 590.0367 592.0638 594.4678 597.6754 601.9604 607.1127 612.5851 617.0634 619.5919 620.468 -9999 619.2637 618.001 616.1277 613.6502 610.2592 606.5521 603.4309 600.6533 598.1877 596.1824 594.9037 594.2029 593.9537 593.9395 594.1485 594.4951 594.8508 595.093 595.1749 595.1387 595.0599 595.0394 595.1927 595.5833 596.1238 597.0986 598.1438 599.2773 599.9512 599.8309 599.2927 598.8123 598.5343 598.4406 598.3438 598.3864 598.5859 598.8132 599.2598 599.96 600.1559 600.1434 600.0173 599.6168 598.2128 599.0346 598.5903 598.105 597.7318 597.5072 597.4492 597.4633 597.4866 597.4836 597.457 597.3966 597.2744 597.0985 596.9788 596.9801 597.027 597.0654 597.145 597.2518 597.241 597.2241 597.4319 597.7358 597.9894 598.2604 598.6071 598.9469 599.3418 599.6597 600.0046 600.5658 602.0872 605.3027 609.7374 614.1434 617.7935 620.5491 -9999 -9999 -9999 -9999 -9999 -9999 -9999 -9999 -9999 -9999 -9999 -9999 -9999 -9999 -9999 -9999 -9999 -9999 -9999
-9999 -9999 -9999 -9999 -9999 -9999 -9999 -9999 -9999 -9999 -9999 -9999 -9999 -9999 -9999 -9999 -9999 -9999 -9999 607.6741 606.5632 606.1095 605.6302 604.8549 604.0468 603.3192 602.8865 603.7955 606.404 610.0341 613.459 615.3732 616.6055 615.5583 613.9183 612.6411 611.6057 610.9482 610.0359 608.4142 605.6642 601.8583 597.8898 594.34 591.5553 589.6845 588.3888 587.5399 586.9495 586.4951 585.9963 585.4147 584.811 584.2428 583.7776 583.056 582.2912 581.5367 580.8618 580.5576 580.2846 579.9792 579.7717 579.6631 579.6483 579.6863 579.6976 579.7003 579.7178 579.7603 579.8345 579.9504 580.1183 580.3185 580.4069 580.4756 580.5878 580.7968 580.8115 580.8104 580.8101 580.81 580.81 580.81 580.8102 580.811 580.8052 580.6525 580.5068 580.3933 580.3149 580.2688 580.2494 580.2518 580.2719 580.3058 580.3502 580.401 580.454 580.5028 580.5405 580.5598 580.5527 580.5141 580.4418 580.334 580.1927 580.0236 579.8312 579.6205 579.3966 579.1689 578.9528 578.7429 578.517 578.2867 578.1031 577.9904 577.9619 578.0352 578.2085 578.4519 578.741 579.0654 579.3963 579.7916 580.2407 580.7639 581.3184 582.3018 583.6782 585.2626 587.0004 588.7128 590.5533 592.8404 595.9128 600.0409 605.3582 610.9886 615.4344 617.5773 619.5857 -9999 -9999 617.9946 616.5079 614.8608 612.106 608.8911 605.4809 602.1917 599.1164 596.5836 595.0532 594.1761 593.7737 593.6968 593.8738 594.2357 594.6531 594.9731 595.113 595.0955 595.0019 594.9296 595.0043 595.3571 596.0851 597.3883 598.7235 600.4329 601.2867 600.6485 599.6835 598.7938 598.2383 598.0342 598.0353 598.1022 598.3226 598.6501 599.1133 599.7349 599.9957 599.9957 599.9035 599.5785 598.8285 598.5721 598.4731 598.1587 597.8002 597.5325 597.4044 597.3755 597.3535 597.329 597.3032 597.2632 597.1754 597.0245 596.8932 596.8736 596.8988 596.899 596.9526 597.1121 597.171 597.1262 597.2667 597.5928 597.8762 598.131 598.4324 598.709 598.9437 599.2634 599.7246 600.3403 601.6472 604.3305 608.7196 613.4254 617.4395 620.3284 -9999 -9999 -9999 -9999 -9999 -9999 -9999 -9999 -9999 -9999 -9999 -9999 -9999 -9999 -9999 -9999 -9999 -9999 -9999
-9999 -9999 -9999 -9999 -9999 -9999 -9999 -9999 -9999 -9999 -9999 -9999 -9999 -9999 -9999 -9999 -9999 -9999 -9999 -9999 608.8076 608.8522 608.5416 607.5854 606.2918 605.0966 603.956 604.1779 606.2505 609.6794 613.4357 616.3343 617.8439 -9999 -9999 -9999 614.3154 613.4458 612.0601 609.9244 606.804 602.7944 598.7222 595.1209 592.3295 590.3227 588.9971 588.066 587.395 586.8938 586.3747 585.7957 585.1759 584.5486 583.9214 583.3314 582.663 581.986 581.3319 580.8297 580.4199 580.0771 579.8979 579.8749 579.9801 580.1586 580.2137 580.2245 580.238 580.265 580.3099 580.387 580.5314 580.7886 580.8115 580.8094 580.8217 581.013 581.0975 581.1271 581.1339 581.13 581.1204 581.1057 581.0835 581.0466 580.974 580.8112 580.6674 580.5508 580.4673 580.4158 580.3905 580.3866 580.4006 580.4292 580.4696 580.5181 580.5709 580.6221 580.6646 580.6912 580.6942 580.6671 580.6075 580.5135 580.3845 580.2243 580.0381 579.8312 579.6071 579.3719 579.1428 578.923 578.6907 578.4404 578.2134 578.0504 577.9879 578.0522 578.2322 578.4501 578.6807 578.8989 579.1768 579.533 579.9504 580.4125 580.9189 581.8532 583.0695 584.4258 586.1792 587.7931 589.6134 591.6717 594.5737 598.5355 603.7624 609.5219 614.3839 617.5231 619.3313 619.3372 -9999 617.707 616.681 615.3831 613.0722 610.5106 607.3167 603.6971 600.1674 597.2561 595.4515 594.3474 593.7531 593.5458 593.6549 593.9993 594.4405 594.8175 595.0109 595.0145 594.9175 594.8207 594.8765 595.2776 596.2542 598.1274 600.0773 602.3804 603.1434 601.6782 600.1826 598.9529 598.1354 597.7874 597.8067 597.9076 598.1805 598.5629 599.0269 599.5246 599.6667 599.7474 599.8748 599.9414 599.8844 599.2629 598.857 598.4178 597.9619 597.6015 597.3864 597.2926 597.2307 597.1874 597.1519 597.1155 597.0507 596.9351 596.8142 596.791 596.813 596.7838 596.7914 596.9715 597.1286 597.0948 597.1425 597.4369 597.7358 597.9583 598.2476 598.5498 598.7541 598.9789 599.4496 600.0496 601.1001 603.2724 607.6185 612.653 617.1996 620.4477 622.2309 -9999 -9999 -9999 -9999 -9999 -9999 -9999 -9999 -9999 -9999 -9999 -9999 -9999 -9999 -9999 -9999 -9999 -9999
-9999 -9999 -9999 -9999 -9999 -9999 -9999 -9999 -9999 -9999 -9999 -9999 -9999 -9999 -9999 -9999 -9999 -9999 -9999 -9999 -9999 611.5496 610.9937 609.4789 607.4892 605.648 604.1733 604.2784 606.0254 609.3557 613.2667 616.6862 -9999 -9999 -9999 -9999 616.8644 615.9196 614.1617 611.5152 607.9174 603.6412 599.6259 596.1227 593.3809 591.3928 589.956 588.8794 588.0647 587.441 586.8877 586.2948 585.6655 585.023 584.4008 583.8381 583.2426 582.7039 582.0865 581.4727 580.8483 580.3845 580.205 580.2263 580.4132 580.7714 580.8257 580.8183 580.8121 580.8101 580.8091 580.8085 580.8335 581.0593 581.1511 581.1769 581.2033 581.3116 581.3888 581.425 581.4326 581.4226 581.401 581.3687 581.321 581.2481 581.1355 580.9717 580.8104 580.684 580.594 580.5378 580.5068 580.4966 580.5043 580.5275 580.5637 580.6099 580.6624 580.7156 580.7631 580.7969 580.81 580.7952 580.7484 580.6683 580.5531 580.4039 580.2252 580.0229 579.8014 579.5629 579.3209 579.089 578.8499 578.5931 578.338 578.1269 578.0152 578.0466 578.2029 578.3014 578.4446 578.6266 578.8796 579.2145 579.6273 580.1226 580.741 581.509 582.6307 583.8033 585.1755 586.6855 588.3785 590.4396 593.2542 597.0165 601.9366 607.5938 612.6173 616.1379 617.8725 618.1826 617.7135 617.0688 616.1099 614.9606 613.158 610.7272 608.031 604.6818 601.1329 598.0538 595.9501 594.6354 593.876 593.5298 593.5356 593.8182 594.2445 594.645 594.8824 594.9171 594.8254 594.7321 594.787 595.2345 596.3581 598.5576 601.1595 603.8398 604.923 603.2303 600.9591 599.3275 598.2387 597.706 597.6411 597.8171 598.105 598.4557 598.7933 599.0812 599.1783 599.4341 599.94 600.5238 601.2379 600.4554 599.6349 598.9105 598.2511 597.7411 597.4031 597.2141 597.125 597.0707 597.0225 596.9792 596.9268 596.8466 596.7416 596.73 596.769 596.7343 596.6953 596.852 597.1161 597.1437 597.1016 597.2708 597.5489 597.6254 597.9033 598.3217 598.692 598.9354 599.3892 600.021 600.9934 602.8384 606.7802 611.8317 616.7239 620.3006 622.1266 -9999 -9999 -9999 -9999 -9999 -9999 -9999 -9999 -9999 -9999 -9999 -9999 -9999 -9999 -9999 -9999 -9999 -9999
-9999 -9999 -9999 -9999 -9999 -9999 -9999 -9999 -9999 -9999 -9999 -9999 -9999 -9999 -9999 -9999 -9999 -9999 -9999 -9999 -9999 -9999 -9999 610.3246 607.6984 605.7687 604.7671 605.0975 607.1067 610.3238 -9999 -9999 -9999 -9999 -9999 -9999 619.3866 618.5011 616.4017 613.2623 609.2693 604.8279 600.9216 597.5348 594.8859 592.8563 591.2635 589.9879 588.9595 588.1508 587.4885 586.8825 586.2493 585.6068 584.9925 584.442 583.9442 583.66 583.0529 582.4488 581.7025 581.0427 580.8287 580.8166 580.959 581.4611 581.5514 581.515 581.4613 581.4169 581.3799 581.3495 581.3575 581.4708 581.5482 581.583 581.6091 581.6619 581.7051 581.7244 581.72 581.6974 581.6607 581.6102 581.541 581.4418 581.3054 581.1342 580.9597 580.8102 580.7062 580.6426 580.6027 580.5837 580.5839 580.601 580.6326 580.676 580.7278 580.783 580.8351 580.8762 580.8992 580.8969 580.8635 580.7974 580.6963 580.5602 580.391 580.1942 579.9751 579.7371 579.4863 579.2385 578.9921 578.7284 578.4656 578.2225 578.0511 578.0045 578.0653 578.1002 578.1881 578.3406 578.5673 578.8778 579.2747 579.76 580.3441 581.0455 582.1864 583.0739 584.0751 585.3811 586.995 589.0812 591.7475 595.1844 599.669 604.9823 609.936 613.655 615.6439 616.5447 616.3436 615.7379 614.6448 613.4748 611.8115 609.743 607.2567 604.5007 601.2321 598.1065 596.0688 594.7904 594.0201 593.6132 593.5242 593.7189 594.0912 594.4857 594.7543 594.8314 594.7632 594.6813 594.7529 595.2083 596.3755 598.6985 601.6154 604.5635 605.6055 604.5263 602.2685 600.0372 598.6062 597.8459 597.6814 597.9 598.1343 598.3757 598.5153 598.5536 598.5845 599.1035 600.1504 601.5233 602.0692 601.7059 600.7319 599.5607 598.6399 597.9664 597.5142 597.2352 597.0885 597.0071 596.9368 596.8783 596.8313 596.788 596.7007 596.6902 596.7549 596.7489 596.6854 596.7909 597.1129 597.2518 597.1313 597.0769 597.1534 597.2037 597.4595 597.9755 598.5432 599.0978 599.6136 600.4073 601.5365 603.3265 606.2518 610.9545 615.9844 619.9741 622.3195 -9999 -9999 -9999 -9999 -9999 -9999 -9999 -9999 -9999 -9999 -9999 -9999 -9999 -9999 -9999 -9999 -9999 -9999
-9999 -9999 -9999 -9999 -9999 -9999 -9999 -9999 -9999 -9999 -9999 -9999 -9999 -9999 -9999 -9999 -9999 -9999 -9999 -9999 -9999 -9999 -9999 -9999 -9999 -9999 -9999 -9999 -9999 -9999 -9999 -9999 -9999 -9999 -9999 -9999 -9999 620.9495 618.6351 615.2172 611.1514 606.9025 602.9693 599.6792 596.8793 594.6585 592.8903 591.4055 590.105 589.0511 588.2095 587.5118 586.8802 586.2442 585.6456 585.1349 584.7275 584.4118 583.9579 583.5903 582.8853 582.3098 581.9335 581.8196 581.9283 582.2234 582.3015 582.2268 582.1304 582.057 582.0029 581.957 581.9327 581.9646 582.0012 582.0205 582.0266 582.0343 582.0367 582.0267 582.0013 581.9607 581.9065 581.8383 581.7529 581.6405 581.4811 581.2966 581.1088 580.9402 580.8102 580.7347 580.6796 580.6488 580.64 580.6504 580.6771 580.7173 580.7678 580.8242 580.8802 580.9286 580.9614 580.9714 580.9523 580.9004 580.814 580.6912 580.5337 580.3441 580.1278 579.8896 579.6353 579.3743 579.114 578.8459 578.5728 578.3197 578.1101 577.9911 577.9703 577.9535 577.9927 578.1026 578.2875 578.558 578.9251 579.3998 579.9918 580.7244 581.5273 582.2686 583.0916 584.1136 585.491 587.2974 589.7012 592.822 596.8591 601.7039 606.5813 610.5753 613.1772 614.3667 614.2079 613.4466 612.1589 610.7032 608.9695 607.0818 605.0299 602.7021 600.0082 597.3562 595.7017 594.6842 594.0652 593.7131 593.5927 593.7035 594.0013 594.3602 594.6505 594.78 594.7628 594.7089 594.7905 595.2227 596.2964 598.4689 601.2184 604.235 605.7493 605.3875 603.6349 601.0815 599.1727 598.1357 597.8018 597.9368 598.2201 598.4117 598.391 598.2465 598.2318 598.7341 600.11 601.677 602.2721 602.1987 601.5926 600.193 599.108 598.2963 597.7191 597.3434 597.1173 596.9793 596.8792 596.8026 596.7451 596.6994 596.6494 596.6555 596.7466 596.8002 596.7534 596.8156 597.1182 597.3798 597.2599 596.9994 596.8566 596.8585 597.1018 597.6483 598.3436 599.1248 599.9846 600.9484 602.2142 603.9082 605.7966 610.0277 615.0291 619.3123 622.1801 -9999 -9999 -9999 -9999 -9999 -9999 -9999 -9999 -9999 -9999 -9999 -9999 -9999 -9999 -9999 -9999 -9999 -9999
-9999 -9999 -9999 -9999 -9999 -9999 -9999 -9999 -9999 -9999 -9999 -9999 -9999 -9999 -9999 -9999 -9999 -9999 -9999 -9999 -9999 -9999 -9999 -9999 -9999 -9999 -9999 -9999 -9999 -9999 -9999 -9999 -9999 -9999 -9999 -9999 -9999 622.5164 620.129 616.7737 613.0439 609.269 605.6295 602.2934 599.2764 596.7137 594.7321 593.1153 591.5788 590.1963 589.1003 588.2303 587.5144 586.8832 586.2936 585.8162 585.481 585.1786 584.8312 584.4673 583.9483 583.58 583.0842 582.8986 582.9353 583.0648 583.0787 582.9136 582.7743 582.6929 582.6417 582.587 582.5123 582.4791 582.4755 582.4711 582.4459 582.4092 582.3684 582.3249 582.2748 582.2144 582.1412 582.0532 581.9476 581.8147 581.6449 581.4512 581.251 581.0637 580.9098 580.8096 580.7334 580.6907 580.6733 580.6769 580.6985 580.735 580.7834 580.8401 580.8994 580.9543 580.9967 581.0188 581.014 580.9772 580.9058 580.7972 580.6517 580.4713 580.2596 580.0211 579.7637 579.4935 579.2198 578.9425 578.6606 578.3999 578.1738 578.0107 577.9252 577.886 577.8809 577.9393 578.0645 578.2732 578.5851 579.011 579.5433 580.1673 580.8247 581.5061 582.2653 583.1473 584.1521 585.5669 587.5059 590.1752 593.6874 597.9819 602.562 606.5922 609.4132 610.7503 610.7233 609.8569 608.4235 606.7277 604.8739 603.0439 601.39 599.7885 598.1428 596.3658 595.1284 594.3729 593.9543 593.7394 593.6693 593.7479 593.9767 594.2883 594.5845 594.7711 594.8309 594.8409 594.9469 595.3311 596.2284 598.1335 600.6441 603.4198 605.4946 605.884 604.8174 602.1399 599.6853 598.4414 597.9681 598.033 598.3517 598.6081 598.4931 598.1995 598.1211 598.6292 599.9522 601.2548 601.9915 602.2687 602.2915 601.5113 599.9493 598.8487 598.0704 597.5563 597.2297 597.021 596.8771 596.7729 596.6993 596.6475 596.6164 596.6411 596.7422 596.8545 596.8627 596.9132 597.1544 597.4658 597.4366 597.0934 596.7725 596.664 596.89 597.4292 598.1629 599.0597 600.0676 601.1584 602.2795 603.4931 604.8582 608.9909 614.106 618.6771 621.96 623.8773 -9999 -9999 -9999 -9999 -9999 -9999 -9999 -9999 -9999 -9999 -9999 -9999 -9999 -9999 -9999 -9999 -9999
-9999 -9999 -9999 -9999 -9999 -9999 -9999 -9999 -9999 -9999 -9999 -9999 -9999 -9999 -9999 -9999 -9999 -9999 -9999 -9999 -9999 -9999 -9999 -9999 -9999 -9999 -9999 -9999 -9999 -9999 -9999 -9999 -9999 -9999 -9999 -9999 -9999 622.3832 619.9885 617.0056 613.9625 610.9579 607.8629 604.694 601.5359 598.7635 596.6096 595.0123 593.2878 591.6675 590.2228 589.0994 588.2185 587.4993 586.8981 586.4342 586.1904 585.9041 585.6162 585.2731 584.8535 584.4368 583.9692 583.8412 583.8372 583.8542 583.8049 583.4999 583.3494 583.2944 583.2692 583.2161 583.0613 582.9718 582.9437 582.922 582.8551 582.7682 582.6836 582.6078 582.5352 582.457 582.3667 582.2585 582.1323 581.9796 581.798 581.5951 581.3825 581.1726 580.9774 580.811 580.7543 580.7109 580.6864 580.6829 580.6986 580.7306 580.7762 580.8322 580.8936 580.954 581.0052 581.0392 581.0488 581.0277 580.9717 580.8782 580.7452 580.5749 580.37 580.1336 579.8719 579.5948 579.309 579.0203 578.7313 578.4566 578.2278 578.0485 577.9285 577.8577 577.8273 577.84 577.9048 578.0391 578.275 578.6244 579.0792 579.6095 580.1935 580.8259 581.5654 582.4208 583.1693 584.0895 585.5387 587.611 590.4742 594.1072 598.0932 601.7559 604.4168 605.7131 605.7889 604.9792 603.5419 601.8756 600.0948 598.5116 597.4169 596.6875 595.9707 595.0889 594.392 593.9504 593.7346 593.6652 593.6893 593.7953 593.9954 594.2722 594.5674 594.8049 594.9514 595.061 595.2349 595.5923 596.2388 597.737 599.7327 601.9954 604.3799 605.6132 605.2321 602.6497 599.9548 598.6869 598.1201 598.1599 598.5553 598.9384 598.812 598.3855 598.2505 598.7904 599.9282 600.9142 601.6107 602.1588 603.051 602.9364 601.2243 599.5977 598.5228 597.8387 597.4031 597.1188 596.9241 596.7863 596.6948 596.6412 596.6165 596.6413 596.7446 596.8839 596.9689 597.0352 597.2394 597.4813 597.5408 597.2441 596.8635 596.6665 596.8417 597.3638 598.0662 598.9022 599.8663 600.8032 601.34 602.0642 603.6099 608.0461 613.4232 618.2668 621.81 623.8926 -9999 -9999 -9999 -9999 -9999 -9999 -9999 -9999 -9999 -9999 -9999 -9999 -9999 -9999 -9999 -9999 -9999
-9999 -9999 -9999 -9999 -9999 -9999 -9999 -9999 -9999 -9999 -9999 -9999 -9999 -9999 -9999 -9999 -9999 -9999 -9999 -9999 -9999 -9999 -9999 -9999 -9999 -9999 -9999 -9999 -9999 -9999 -9999 -9999 -9999 -9999 -9999 -9999 -9999 -9999 617.6068 615.33 613.1241 610.8948 608.502 605.8352 602.9831 600.2922 598.1934 596.6183 594.9943 593.3006 591.6341 590.1714 589.0622 588.1902 587.4913 586.9761 586.846 586.5274 586.307 585.9902 585.6412 585.2448 584.8523 584.6438 584.5283 584.4232 584.2313 583.9075 583.8588 583.8607 583.8618 583.8188 583.5378 583.4214 583.3992 583.3745 583.2424 583.0938 582.9663 582.8649 582.7762 582.6854 582.5825 582.4611 582.3076 582.1328 581.9374 581.726 581.5057 581.2864 581.0829 580.912 580.8098 580.729 580.6855 580.6715 580.6801 580.7067 580.7484 580.8025 580.8647 580.9292 580.9884 581.0334 581.0569 581.0518 581.0121 580.9338 580.8148 580.655 580.4574 580.2255 579.9638 579.6794 579.3813 579.081 578.7823 578.499 578.2582 578.0775 577.9501 577.8628 577.8044 577.7822 577.7987 577.866 578.0201 578.2839 578.656 579.111 579.6382 580.2139 580.8522 581.593 582.2533 582.8421 583.8224 585.3312 587.4028 590.1791 593.3045 596.3506 598.6013 599.7688 599.9707 599.4916 598.4121 597.1497 595.8082 594.7894 594.2964 594.2941 594.1958 593.9303 593.7136 593.5496 593.5009 593.5488 593.6544 593.8093 594.0214 594.2909 594.5964 594.8704 595.0968 595.3081 595.5828 595.9965 596.4597 597.4644 598.8868 600.6395 602.8711 604.7542 604.8806 602.4574 599.8094 598.7031 598.1025 598.2027 598.7311 599.3321 599.3416 598.7852 598.7012 599.5735 600.2263 600.8429 601.467 602.2879 603.736 603.7219 602.3622 600.2372 598.9663 598.1409 597.6013 597.2427 596.9979 596.829 596.7188 596.6619 596.6458 596.6644 596.7548 596.895 597.0282 597.1414 597.3203 597.5084 597.5225 597.2992 596.9689 596.7927 596.8953 597.3997 598.0515 598.7097 599.4299 599.9957 600.3031 600.9548 602.8517 607.5101 613.0886 618.1161 621.7655 623.9187 -9999 -9999 -9999 -9999 -9999 -9999 -9999 -9999 -9999 -9999 -9999 -9999 -9999 -9999 -9999 -9999 -9999
-9999 -9999 -9999 -9999 -9999 -9999 -9999 -9999 -9999 -9999 -9999 -9999 -9999 -9999 -9999 -9999 -9999 -9999 -9999 -9999 -9999 -9999 -9999 -9999 -9999 -9999 -9999 -9999 -9999 -9999 -9999 -9999 -9999 -9999 -9999 -9999 -9999 -9999 -9999 611.9181 610.3334 608.7052 607.0428 605.3 603.3696 601.2137 599.2855 597.934 596.2991 594.939 593.1388 591.4542 590.0836 589.0322 588.2141 587.6184 587.2751 586.9441 586.8716 586.5706 586.3234 585.9609 585.5951 585.3389 585.1535 584.9792 584.7626 584.5381 584.4686 584.4473 584.3909 584.2287 583.9136 583.8681 583.8765 583.8416 583.5914 583.3702 583.2062 583.0906 582.9938 582.8931 582.7741 582.6295 582.4561 582.2626 582.0538 581.834 581.6085 581.3818 581.1721 580.9822 580.8104 580.7178 580.6665 580.6445 580.6455 580.6655 580.7021 580.7531 580.8147 580.8821 580.9477 581.0032 581.0397 581.0499 581.027 580.9647 580.8599 580.7128 580.5229 580.2957 580.0365 579.7512 579.4429 579.1274 578.8165 578.5238 578.2731 578.084 577.9583 577.873 577.8043 577.7547 577.7438 577.7617 577.8422 578.0217 578.3141 578.6992 579.17 579.6874 580.2219 580.7481 581.0598 581.6049 582.2671 583.3444 584.667 586.6032 588.7949 591.1226 592.9472 594.1589 594.6061 594.5642 594.188 593.643 593.0846 592.6864 592.6261 592.8706 592.9978 593.0585 593.2332 593.2487 593.3187 593.4421 593.5995 593.7865 594.0234 594.3113 594.6409 594.9527 595.2296 595.5026 595.79 596.069 596.5397 597.2796 598.2979 599.6625 601.478 603.582 604.3764 601.9094 599.1769 597.8422 597.6608 598.0618 598.741 599.4872 599.9728 599.424 599.6075 600.3207 600.6442 600.9338 601.4247 602.305 603.8741 604.1728 603.1987 600.9751 599.439 598.4364 597.7888 597.3621 597.0741 596.884 596.7647 596.7024 596.6857 596.7018 596.7675 596.8984 597.0402 597.1879 597.3685 597.5174 597.478 597.2647 597.0133 596.9116 597.0499 597.4506 598.0336 598.546 598.9995 599.3563 599.6288 600.4265 602.6859 607.4654 613.1555 618.2321 621.8253 623.9428 -9999 -9999 -9999 -9999 -9999 -9999 -9999 -9999 -9999 -9999 -9999 -9999 -9999 -9999 -9999 -9999 -9999
-9999 -9999 -9999 -9999 -9999 -9999 -9999 -9999 -9999 -9999 -9999 -9999 -9999 -9999 -9999 -9999 -9999 -9999 -9999 -9999 -9999 -9999 -9999 -9999 -9999 -9999 -9999 -9999 -9999 -9999 -9999 -9999 -9999 -9999 -9999 -9999 -9999 -9999 -9999 -9999 606.5333 605.4555 604.5411 603.7495 602.7241 601.4843 600.0391 599.0114 597.9794 596.3591 594.5283 592.7334 591.26 590.0147 589.0442 588.3125 587.801 587.4238 587.2034 586.9342 586.8745 586.5363 586.1847 585.9376 585.7578 585.5544 585.3462 585.1888 585.124 585.0856 585.0027 584.8301 584.6093 584.5287 584.4821 584.2421 583.8733 583.6002 583.4096 583.2894 583.1914 583.0815 582.9438 582.7722 582.5749 582.3612 582.137 581.9066 581.6741 581.4325 581.2042 580.9939 580.8102 580.704 580.6415 580.6084 580.5988 580.6097 580.6393 580.6858 580.7457 580.8147 580.8856 580.9502 580.999 581.0236 581.0171 580.9714 580.8812 580.7471 580.5684 580.3453 580.0889 579.8046 579.4962 579.1682 578.8441 578.5348 578.2704 578.0719 577.9415 577.8655 577.8027 577.7392 577.702 577.7097 577.7388 577.8506 578.068 578.3876 578.7964 579.2563 579.7029 580.1082 580.4137 580.7783 581.0266 581.7083 582.5203 583.7585 585.2026 586.8813 588.3378 589.6211 590.3989 590.9001 591.2783 591.411 591.4514 591.4885 591.6583 591.9502 592.2307 592.554 592.9554 593.007 593.1725 593.3536 593.542 593.7463 593.9973 594.3126 594.6725 595.028 595.3512 595.6746 596.0307 596.3154 596.7115 597.2473 597.9363 598.8635 600.1464 601.9955 602.7915 601.0192 598.713 597.5403 597.4542 598.0125 598.7536 599.4851 600.0352 600.6978 601.4687 601.7007 601.3442 601.1776 601.4706 602.3015 603.8702 604.3235 603.4994 601.2715 599.6782 598.6088 597.9111 597.4519 597.1432 596.9456 596.8297 596.7662 596.7375 596.7389 596.7793 596.8866 597.024 597.1705 597.351 597.496 597.43 597.1887 597.0081 597.0221 597.2491 597.6021 598.0302 598.3876 598.5701 598.8257 599.1937 600.265 602.8912 607.6937 613.4357 618.4802 621.9525 623.9699 -9999 -9999 -9999 -9999 -9999 -9999 -9999 -9999 -9999 -9999 -9999 -9999 -9999 -9999 -9999 -9999 -9999
-9999 -9999 -9999 -9999 -9999 -9999 -9999 -9999 -9999 -9999 -9999 -9999 -9999 -9999 -9999 -9999 -9999 -9999 -9999 -9999 -9999 -9999 -9999 -9999 -9999 -9999 -9999 -9999 -9999 -9999 -9999 -9999 -9999 -9999 -9999 -9999 -9999 -9999 -9999 -9999 -9999 602.4825 602.1146 601.8489 601.452 600.762 599.9945 599.3613 598.668 597.2104 595.624 593.8929 592.4739 591.0961 589.9651 589.0809 588.4155 587.9343 587.6013 587.3297 587.1685 586.9045 586.6075 586.4461 586.3369 586.1138 585.9179 585.8176 585.7817 585.7526 585.6725 585.5022 585.3134 585.1705 584.9931 584.6653 584.2486 583.8687 583.6141 583.469 583.3778 583.2534 583.0898 582.8846 582.6589 582.4224 582.1795 581.9336 581.6866 581.4392 581.2043 580.9907 580.8101 580.6934 580.6158 580.5669 580.5427 580.5414 580.562 580.6024 580.6598 580.7295 580.8048 580.8768 580.937 580.9749 580.9834 580.9544 580.88 580.7582 580.5923 580.3782 580.1229 579.8394 579.5316 579.2053 578.8706 578.5492 578.2632 578.0452 577.9026 577.8303 577.7828 577.7213 577.6654 577.6516 577.6814 577.7585 577.915 578.1743 578.5192 578.9319 579.3278 579.6935 580.0167 580.3326 580.4506 580.7591 581.0712 581.8473 582.8289 583.9547 585.0742 586.3467 587.3753 588.3611 589.2717 589.8943 590.4064 590.7269 591.0276 591.307 591.5973 591.9875 592.4281 592.7069 592.9948 593.234 593.4563 593.6837 593.9565 594.298 594.6947 595.0919 595.452 595.7839 596.0985 596.5929 597.0001 597.4003 597.8477 598.4308 599.274 600.5696 601.3611 600.1747 598.4429 597.3091 597.4553 598.2903 599.1991 600.2955 601.6724 602.9678 603.6854 603.1156 602.019 601.4698 601.6447 602.4512 603.8876 604.2797 603.4385 601.2289 599.6644 598.6277 597.9539 597.5112 597.2139 597.0255 596.9213 596.8594 596.8043 596.7703 596.7825 596.8583 596.9872 597.1166 597.272 597.4178 597.3922 597.1402 596.962 597.0781 597.4322 597.8234 598.132 598.2773 598.3135 598.3306 598.7932 600.0894 602.9058 607.9438 613.7882 618.8425 622.1862 624.0471 -9999 -9999 -9999 -9999 -9999 -9999 -9999 -9999 -9999 -9999 -9999 -9999 -9999 -9999 -9999 -9999 -9999
