ncols         267
nrows         46
xllcorner     753900
yllcorner     6063950
cellsize      50
NODATA_value  -9999
-9999 -9999 -9999 -9999 -9999 -9999 -9999 -9999 -9999 -9999 -9999 -9999 -9999 -9999 -9999 -9999 -9999 -9999 -9999 -9999 -9999 -9999 -9999 -9999 -9999 -9999 -9999 -9999 -9999 -9999 -9999 -9999 -9999 -9999 -9999 -9999 -9999 -9999 -9999 -9999 -9999 -9999 -9999 -9999 -9999 -9999 -9999 -9999 -9999 -9999 622.057 615.9106 610.2297 605.3353 601.4001 598.2623 596.0873 594.7559 594.016 593.5425 593.2529 593.0063 592.5487 592.0106 591.2664 590.5047 589.7336 588.9597 588.1152 587.3146 586.6038 585.9868 585.4553 585.0085 584.7715 584.4694 584.1475 583.8448 583.5827 583.3702 583.21 583.1023 583.0431 583.0193 583.0139 583.011 583 583 583 583 583.0034 582.9934 582.9861 582.986 583 583.0098 582.9927 582.9301 582.7982 582.6371 582.509 582.3661 582.1036 581.7292 581.2522 580.7891 580.6719 581.1191 582.0898 583.3745 585.1881 587.1852 590.2909 594.6286 599.7462 605.0497 609.8449 613.285 614.756 614.1556 611.7931 608.1833 604.278 600.8448 598.7018 597.0457 595.7617 594.8649 594.2222 593.6923 593.2408 592.9142 592.7816 592.8262 592.9711 593.1036 593.2134 593.2827 593.2643 593.0159 592.992 593.002 593.358 594.3098 595.5023 596.9246 598.14 599.461 598.6342 598.011 597.9378 597.7497 597.4515 -9999 -9999 -9999 -9999 597.0578 597.0497 596.8171 596.1348 595.5963 595.2939 595.1891 595.25 595.4978 595.4539 595.1155 594.8242 594.6983 594.7316 594.7734 594.7139 594.6306 594.5884 594.9699 595.5883 596.634 597.8014 599.261 600.8777 603.6039 607.1867 610.2291 610.9584 609.9194 607.0847 602.7967 597.3775 591.3352 585.1091 579.1387 573.6727 568.8691 564.8981 562.0453 560.5006 560.1985 560.8793 561.4793 563.4454 565.3057 567.0371 568.7698 570.5667 572.4298 573.725 574.9675 576.4338 578.2787 580.7357 584.063 588.1314 592.9032 598.4272 604.6837 611.327 617.7891 623.5381 628.3322 632.3654 635.4221 637.5441 -9999 -9999 -9999 -9999 -9999 -9999 -9999 -9999 -9999 -9999 -9999 -9999 -9999 -9999 -9999 -9999 -9999 -9999 -9999 -9999 -9999 -9999 -9999 -9999 -9999 -9999 -9999 -9999 -9999 -9999 -9999 -9999 -9999 -9999 -9999 -9999 -9999 -9999 -9999 -9999 -9999 -9999 -9999 -9999
-9999 -9999 -9999 -9999 -9999 -9999 -9999 -9999 -9999 -9999 -9999 -9999 -9999 -9999 -9999 -9999 -9999 -9999 -9999 -9999 -9999 -9999 -9999 -9999 -9999 -9999 -9999 -9999 -9999 -9999 -9999 -9999 -9999 -9999 -9999 -9999 -9999 -9999 -9999 -9999 -9999 -9999 -9999 -9999 -9999 -9999 -9999 -9999 -9999 627.2365 620.8991 614.6235 608.7047 603.4837 599.2863 596.1712 594.3035 593.3369 593.0064 592.9652 593.0178 592.9866 592.403 591.6216 590.7242 589.8494 589.0408 588.3617 587.6838 587.0378 586.4504 585.9171 585.4335 584.9963 584.7098 584.4144 584.1063 583.8143 583.5602 583.3542 583.1998 583.097 583.0419 583.0226 583.0214 583.0232 583.0208 583.0175 583.0066 582.9913 582.9766 582.9584 582.9472 582.9536 582.9777 583 583.0033 582.9687 582.8622 582.6893 582.5377 582.3888 582.1283 581.7271 581.2759 580.8455 580.7338 581.1793 582.4143 584.2984 586.8149 590.1784 594.4129 599.2817 604.2797 608.845 612.3515 614.0392 613.7504 611.694 608.3696 604.4677 600.8067 598.3821 596.8398 595.7367 594.9192 594.3551 593.9547 593.6021 593.277 593.0459 592.9493 592.9522 593.0189 593.0004 592.9999 593.0012 592.9846 592.7354 592.6304 592.685 593.1149 594.3851 596.105 598.1347 599.9877 598.1635 597.3094 597.4056 597.9716 598.0095 597.8083 597.5888 -9999 -9999 597.4941 597.6017 597.7393 597.8301 597.0594 596.0284 595.5316 595.3191 595.2875 595.3906 595.4818 595.0518 594.7549 594.7532 595.0558 595.2237 594.9197 594.5109 594.2006 594.1656 594.3827 594.9502 595.816 597.4193 599.4318 602.2667 605.6349 608.0059 607.7667 605.3816 601.5234 596.5961 591.0526 585.2639 579.5518 574.1577 569.2579 565.1352 562.1152 560.2717 559.7302 560.4617 561.9869 562.5308 564.4387 566.1636 567.8303 569.4851 571.3683 573.0542 574.4727 575.9395 577.8481 580.3455 583.6701 587.6415 592.2795 597.709 603.96 610.6521 617.1537 622.9292 627.5205 630.7675 633.8076 636.0643 -9999 -9999 -9999 -9999 -9999 -9999 -9999 -9999 -9999 -9999 -9999 -9999 -9999 -9999 -9999 -9999 -9999 -9999 -9999 -9999 -9999 -9999 -9999 -9999 -9999 -9999 -9999 -9999 -9999 -9999 -9999 -9999 -9999 -9999 -9999 -9999 -9999 -9999 -9999 -9999 -9999 -9999 -9999 -9999 -9999
-9999 -9999 -9999 -9999 -9999 -9999 -9999 -9999 -9999 -9999 -9999 -9999 -9999 -9999 -9999 -9999 -9999 -9999 -9999 -9999 -9999 -9999 -9999 -9999 -9999 -9999 -9999 -9999 -9999 -9999 -9999 -9999 -9999 -9999 -9999 -9999 -9999 -9999 -9999 -9999 -9999 -9999 -9999 -9999 -9999 -9999 -9999 -9999 -9999 626.0929 619.7116 613.41 607.34 601.8678 597.5059 594.6974 593.0599 592.285 592.2042 592.5062 592.8546 592.9972 592.4768 591.5935 590.6343 589.736 588.9611 588.2727 587.6508 587.0656 586.5136 585.9862 585.4806 585.0125 584.7642 584.4509 584.128 583.8304 583.5759 583.3719 583.2195 583.1185 583.0638 583.0438 583.0416 583.0415 583.0364 583.0241 582.9982 582.9644 582.9329 582.9072 582.895 582.9064 582.9407 582.9772 583 582.9963 582.9384 582.7891 582.6354 582.4993 582.2878 581.9335 581.5618 581.311 581.4031 582.0496 583.5953 586.2419 589.8572 594.187 599.0154 603.951 608.3924 611.8224 613.8141 613.7551 611.7765 608.5895 604.9095 601.3885 598.7528 596.9655 595.8185 595.0273 594.4528 594.0546 593.7723 593.5249 593.2776 593.1011 593.0579 593.0001 592.9943 592.7941 592.6589 592.5739 592.4904 592.3422 592.2953 592.4889 593.0607 594.2831 595.8444 597.3358 598.0886 596.7611 595.7278 596.4675 597.5079 597.9977 597.9681 597.8441 597.7823 597.7986 597.8362 597.8956 598.011 598.2042 597.7231 596.3141 595.7394 595.3939 595.1759 595.0078 595.0085 594.8036 594.7798 595.1793 596.2839 596.9379 595.8896 594.9097 594.2204 593.8184 593.6817 593.8613 594.4607 595.6613 597.6843 600.3669 603.0081 604.3521 603.0154 599.715 595.3148 590.343 585.1384 579.8207 574.6639 569.8482 565.5355 562.2731 560.1448 559.2183 559.515 560.7108 562.3015 563.9695 565.5678 567.1284 568.7545 570.4702 572.3343 573.8494 575.4216 577.2366 579.7011 582.9154 586.8098 591.3429 596.6255 602.7778 609.5209 616.1558 622.027 626.7222 629.8712 631.0586 633.4058 -9999 -9999 -9999 -9999 -9999 -9999 -9999 -9999 -9999 -9999 -9999 -9999 -9999 -9999 -9999 -9999 -9999 -9999 -9999 -9999 -9999 -9999 -9999 -9999 -9999 -9999 -9999 -9999 -9999 -9999 -9999 -9999 -9999 -9999 -9999 -9999 -9999 -9999 -9999 -9999 -9999 -9999 -9999 -9999 -9999 -9999
-9999 -9999 -9999 -9999 -9999 -9999 -9999 -9999 -9999 -9999 -9999 -9999 -9999 -9999 -9999 -9999 -9999 -9999 -9999 -9999 -9999 -9999 -9999 -9999 -9999 -9999 -9999 -9999 -9999 -9999 -9999 -9999 -9999 -9999 -9999 -9999 -9999 -9999 -9999 -9999 -9999 -9999 -9999 -9999 -9999 -9999 -9999 -9999 631.3359 624.8731 618.4855 612.1807 606.0407 600.5168 596.3704 593.7079 592.2467 591.6316 591.6547 592.1075 592.6792 593 592.6572 591.7267 590.7794 589.8855 589.059 588.4667 587.9 587.3386 586.7874 586.248 585.7356 585.2871 584.981 584.5706 584.2115 583.9026 583.6434 583.4371 583.2829 583.1791 583.1194 583.0925 583.0811 583.071 583.0543 583.0277 582.9846 582.9314 582.8829 582.8484 582.8365 582.8526 582.8934 582.9399 582.9764 583 582.9999 582.9119 582.8042 582.7057 582.5797 582.3552 582.1254 582.1531 582.7468 583.8381 586.1667 589.6432 593.9903 598.8243 603.7289 608.1908 611.5916 613.5338 613.9771 612.3633 609.2457 605.5174 602.0947 599.5927 597.7347 596.395 595.4664 594.7944 594.285 593.9122 593.64 593.4089 593.1879 593.0021 592.9936 592.8098 592.6195 592.3494 592.1714 592.045 591.9456 591.8667 591.9169 592.2576 592.9377 593.8493 594.9784 595.9016 596.1062 595.4077 595.0275 595.9088 597.2517 597.9351 598.0005 597.9481 597.9483 597.9999 598 598.0007 598.1967 598.3657 597.9346 596.6445 595.9683 595.4683 595.1661 594.9938 594.8077 594.7746 595.1597 596.1689 597.938 598.8734 597.6929 595.9039 594.7948 594.0729 593.6207 593.5151 593.8383 594.7239 596.2285 598.5535 600.103 600.14 597.7828 593.9896 589.493 584.7616 579.8756 575.0406 570.4928 566.3106 562.6555 560.155 558.875 558.8119 559.8436 561.5394 563.6346 565.223 566.6798 568.1127 569.6119 571.3918 573.1165 574.7748 576.5864 578.9243 582.1019 585.9201 590.2611 595.3098 601.2302 607.8768 614.6608 620.7768 625.6865 629.2701 631.6069 -9999 -9999 -9999 -9999 -9999 -9999 -9999 -9999 -9999 -9999 -9999 -9999 -9999 -9999 -9999 -9999 -9999 -9999 -9999 -9999 -9999 -9999 -9999 -9999 -9999 -9999 -9999 -9999 -9999 -9999 -9999 -9999 -9999 -9999 -9999 -9999 -9999 -9999 -9999 -9999 -9999 -9999 -9999 -9999 -9999 -9999 -9999 -9999
-9999 -9999 -9999 -9999 -9999 -9999 -9999 -9999 -9999 -9999 -9999 -9999 -9999 -9999 -9999 -9999 -9999 -9999 -9999 -9999 -9999 -9999 -9999 -9999 -9999 -9999 -9999 -9999 -9999 -9999 -9999 -9999 -9999 -9999 -9999 -9999 -9999 -9999 -9999 -9999 -9999 -9999 -9999 -9999 -9999 -9999 -9999 -9999 630.2314 623.5594 617.1461 610.8525 604.7499 599.367 595.4993 593.0155 591.6924 591.223 591.3384 591.8403 592.4914 592.9708 592.9353 591.9628 591.143 590.3553 589.6061 588.988 588.3895 587.8049 587.2308 586.6653 586.111 585.5695 585.0322 584.6774 584.3472 584.0425 583.7779 583.5636 583.4009 583.2876 583.2164 583.1745 583.1453 583.1171 583.0824 583.0374 582.9753 582.9016 582.835 582.7909 582.7791 582.8009 582.8455 582.895 582.9342 582.9656 582.9912 583 582.9994 582.9983 582.9952 582.9784 582.9693 583.3323 584.5917 586.5289 589.7487 593.9529 598.7169 603.6246 608.0702 611.4849 613.3467 613.269 613.0551 610.5875 606.8212 603.0881 600.5083 598.7621 597.4153 596.341 595.4911 594.8038 594.2589 593.8302 593.5054 593.2438 592.9971 592.7477 592.5948 592.3687 592.111 591.8354 591.6254 591.4764 591.3808 591.3493 591.456 591.813 592.3864 593.0798 593.8934 594.3812 594.4568 594.2012 594.3693 595.3471 597.0611 597.8988 598.124 598.0014 598.0002 598.0247 597.8783 597.765 597.9324 598.1522 597.7169 596.3453 595.7502 595.3015 594.9962 594.7767 594.7281 595.0344 596.0194 597.8207 599.5163 600.0391 599.2271 597.4151 595.9524 594.9274 594.1661 593.907 594.0436 594.7094 596.0414 597.8444 597.7201 596.254 593.0612 588.9678 584.5248 579.9261 575.3126 570.9207 566.9055 563.3369 560.4641 558.6373 558.1898 559.0178 560.6897 562.7831 564.7717 566.4061 567.8719 569.338 570.9703 572.6824 574.3438 576.1837 578.3979 581.4399 585.1748 589.3125 594.0417 599.59 605.9979 612.7728 619.149 624.3927 628.184 630.7131 -9999 -9999 -9999 -9999 -9999 -9999 -9999 -9999 -9999 -9999 -9999 -9999 -9999 -9999 -9999 -9999 -9999 -9999 -9999 -9999 -9999 -9999 -9999 -9999 -9999 -9999 -9999 -9999 -9999 -9999 -9999 -9999 -9999 -9999 -9999 -9999 -9999 -9999 -9999 -9999 -9999 -9999 -9999 -9999 -9999 -9999 -9999 -9999 -9999
-9999 -9999 -9999 -9999 -9999 -9999 -9999 -9999 -9999 -9999 -9999 -9999 -9999 -9999 -9999 -9999 -9999 -9999 -9999 -9999 -9999 -9999 -9999 -9999 -9999 -9999 -9999 -9999 -9999 -9999 -9999 -9999 -9999 -9999 -9999 -9999 -9999 -9999 -9999 -9999 -9999 -9999 -9999 -9999 -9999 -9999 -9999 -9999 629.0167 622.2113 615.7975 609.5555 603.5624 598.4387 594.9066 592.6057 591.369 590.9662 591.1357 591.6591 592.321 592.8605 592.9937 592.4927 591.8057 591.0548 590.3067 589.6281 588.9952 588.3832 587.7871 587.2015 586.626 586.0612 585.4651 585.0017 584.6184 584.2815 583.9927 583.7583 583.5779 583.447 583.3571 583.2925 583.2371 583.1847 583.1286 583.0641 582.9832 582.8887 582.8022 582.7452 582.7316 582.7595 582.8093 582.8582 582.8948 582.9242 582.9639 583.0272 583.1326 583.28 583.4698 583.7166 584.0728 585.0601 586.9802 589.8502 593.8503 598.5454 603.4218 607.9186 611.4438 613.4433 613.2871 611.4872 611.256 608.5489 604.8089 601.7056 599.6227 598.375 597.2853 596.3303 595.4896 594.7454 594.1626 593.6897 593.301 592.9982 592.6829 592.3565 592.1063 591.8396 591.5507 591.2706 591.0467 590.8922 590.8026 590.795 590.939 591.2388 591.6868 592.249 592.8477 593.0425 593.06 593.1007 593.6149 594.5748 595.8818 597.348 598.0256 598.1134 598.0693 597.91 597.3724 596.9088 596.9681 597.2913 596.7943 595.9723 595.4618 595.007 594.7177 594.5966 594.8275 595.6166 597.561 599.3746 600.4458 600.6777 600.043 598.8447 597.5687 596.2369 595.1851 594.8894 594.9404 595.4179 596.7438 597.7263 595.8176 593.2809 589.4552 584.9884 580.3253 575.6771 571.2642 567.239 563.7048 560.7538 558.5549 557.5059 557.9973 559.6426 561.8267 564.1614 566.0092 567.6382 569.1884 570.8411 572.4876 574.0771 575.8973 578.1527 580.9788 584.5782 588.6123 593.0437 598.1327 604.1288 610.7383 617.2845 622.9796 627.293 630.1757 631.9777 -9999 -9999 -9999 -9999 -9999 -9999 -9999 -9999 -9999 -9999 -9999 -9999 -9999 -9999 -9999 -9999 -9999 -9999 -9999 -9999 -9999 -9999 -9999 -9999 -9999 -9999 -9999 -9999 -9999 -9999 -9999 -9999 -9999 -9999 -9999 -9999 -9999 -9999 -9999 -9999 -9999 -9999 -9999 -9999 -9999 -9999 -9999 -9999 -9999
-9999 -9999 -9999 -9999 -9999 -9999 -9999 -9999 -9999 -9999 -9999 -9999 -9999 -9999 -9999 -9999 -9999 -9999 -9999 -9999 -9999 -9999 -9999 -9999 -9999 -9999 -9999 -9999 -9999 -9999 -9999 -9999 -9999 -9999 -9999 -9999 -9999 -9999 -9999 -9999 -9999 -9999 -9999 -9999 -9999 -9999 -9999 -9999 627.7521 620.8489 614.4825 608.3886 602.5903 597.891 594.6284 592.4877 591.2916 590.8798 591.0333 591.532 592.1777 592.7625 593.0742 592.9825 592.4803 591.795 591.0284 590.292 589.6187 588.9952 588.3913 587.7935 587.195 586.5916 585.9835 585.4512 584.9993 584.61 584.2816 584.0153 583.8082 583.6537 583.5378 583.4451 583.3593 583.2794 583.203 583.1222 583.0252 582.911 582.8029 582.7275 582.7073 582.7396 582.7975 582.8495 582.8867 582.9204 582.9829 583.1095 583.334 583.6848 584.1563 584.7781 585.4883 587.146 589.7723 593.4308 597.9599 602.87 607.466 611.2039 613.6063 614.3284 613.4355 611.5856 609.4319 606.3507 603.179 600.5368 598.6962 597.5187 596.567 595.7198 594.9553 594.2938 593.8116 593.4022 593.0074 592.6969 592.3622 592.0013 591.6487 591.3223 590.9985 590.7037 590.4646 590.3013 590.2104 590.1851 590.3467 590.5707 590.8657 591.2467 591.672 591.9077 592.0645 592.3413 592.946 593.776 594.8544 596.0068 597.3401 597.6337 597.6046 597.3544 596.3724 595.4276 595.2299 595.3192 595.1985 594.9885 594.8998 594.5906 594.4257 594.4972 595.0671 596.4019 598.7759 600.1671 600.7921 600.8511 600.5023 599.9007 598.972 597.8943 596.6826 596.2845 596.3027 596.7765 597.9326 596.9685 594.2731 590.7845 586.4427 581.5936 576.6697 571.9708 567.6868 563.9658 560.8777 558.5114 557.069 556.9642 558.1541 560.5468 563.264 565.3906 567.1567 568.7917 570.4612 572.2283 573.7577 575.4838 577.6934 580.5812 584.1732 588.1484 592.3911 597.0414 602.4315 608.619 615.1497 621.2097 626.0519 629.4734 631.6311 -9999 -9999 -9999 -9999 -9999 -9999 -9999 -9999 -9999 -9999 -9999 -9999 -9999 -9999 -9999 -9999 -9999 -9999 -9999 -9999 -9999 -9999 -9999 -9999 -9999 -9999 -9999 -9999 -9999 -9999 -9999 -9999 -9999 -9999 -9999 -9999 -9999 -9999 -9999 -9999 -9999 -9999 -9999 -9999 -9999 -9999 -9999 -9999 -9999 -9999
-9999 -9999 -9999 -9999 -9999 -9999 -9999 -9999 -9999 -9999 -9999 -9999 -9999 -9999 -9999 -9999 -9999 -9999 -9999 -9999 -9999 -9999 -9999 -9999 -9999 -9999 -9999 -9999 -9999 -9999 -9999 -9999 -9999 -9999 -9999 -9999 -9999 -9999 -9999 -9999 -9999 -9999 -9999 -9999 -9999 -9999 -9999 -9999 626.4207 619.4449 613.1707 607.3109 601.8355 597.4166 594.3897 592.4835 591.4061 590.9813 591.068 591.4951 592.0886 592.6754 593.0914 593.2147 592.9895 592.4426 591.6781 590.9038 590.2065 589.5797 588.9935 588.4014 587.795 587.1709 586.5418 585.9574 585.4418 584.999 584.6245 584.3186 584.0791 583.9012 583.7542 583.6295 583.5148 583.4124 583.3209 583.2309 583.124 582.9911 582.8586 582.7583 582.7233 582.7557 582.8231 582.8873 582.9368 582.9937 583.1032 583.3206 583.6994 584.2916 585.1007 586.0652 587.3881 589.6206 592.9064 597.0761 601.8695 606.5653 610.5281 613.2351 614.3446 613.9598 612.2831 609.6055 606.6164 603.985 601.4919 599.3333 597.7219 596.598 595.7099 594.9274 594.2136 593.5789 593.0776 592.9818 592.7092 592.4114 592.0688 591.688 591.28 590.8661 590.4833 590.162 589.8988 589.7053 589.6176 589.5778 589.7075 589.8228 589.958 590.194 590.5968 590.9384 591.2285 591.6219 592.238 592.9772 593.8665 594.811 595.8134 596.3059 596.2211 595.5982 594.856 594.1 593.8396 593.7296 593.4615 593.7061 593.9207 593.9694 594.0748 594.3608 595.068 596.4107 599.0662 600.303 600.6478 600.5574 600.4288 600.3348 600.0102 599.5461 598.5978 598.2667 598.0673 597.9192 597.3297 595.4879 592.4175 588.4431 583.7547 578.7006 573.6484 568.8519 564.6595 561.1627 558.4557 556.651 555.8826 556.5436 558.3354 561.2856 564.2447 566.4235 568.1431 569.6918 571.4537 573.1375 574.8641 576.9696 579.7585 583.4756 587.6433 591.9249 596.3779 601.2755 606.7943 612.8604 618.9844 624.3022 628.1156 630.7573 -9999 -9999 -9999 -9999 -9999 -9999 -9999 -9999 -9999 -9999 -9999 -9999 -9999 -9999 -9999 -9999 -9999 -9999 -9999 -9999 -9999 -9999 -9999 -9999 -9999 -9999 -9999 -9999 -9999 -9999 -9999 -9999 -9999 -9999 -9999 -9999 -9999 -9999 -9999 -9999 -9999 -9999 -9999 -9999 -9999 -9999 -9999 -9999 -9999 -9999 -9999
-9999 -9999 -9999 -9999 -9999 -9999 -9999 -9999 -9999 -9999 -9999 -9999 -9999 -9999 -9999 -9999 -9999 -9999 -9999 -9999 -9999 -9999 -9999 -9999 -9999 -9999 -9999 -9999 -9999 -9999 -9999 -9999 -9999 -9999 -9999 -9999 -9999 -9999 -9999 -9999 -9999 -9999 -9999 -9999 -9999 -9999 -9999 -9999 625.0585 618.0341 611.8966 606.3328 601.2415 596.9795 594.2382 592.5443 591.6071 591.2233 591.2512 591.5787 592.0815 592.6245 593.0763 593.327 593.3019 592.9697 592.244 591.4424 590.7358 590.1183 589.5536 588.994 588.3995 587.7709 587.123 586.4933 585.9175 585.4169 584.9981 584.6503 584.3769 584.1895 584.0071 583.8487 583.7135 583.6016 583.509 583.4207 583.3099 583.1555 582.9934 582.8602 582.8008 582.8263 582.903 582.9884 583.0681 583.1729 583.3632 583.7121 584.3005 585.2194 586.5413 587.7959 589.6211 592.4651 596.2721 600.8173 605.5343 609.6672 612.666 613.9421 613.7042 612.1414 609.4402 606.3589 603.8245 601.6614 599.7494 598.0834 596.7424 595.7238 594.9004 594.1799 593.5422 593.0106 592.6803 592.5671 592.3854 592.124 591.7845 591.3895 590.9481 590.4794 590.0007 589.6523 589.3853 589.0315 588.919 588.9041 588.9227 588.9304 588.9649 589.1233 589.6595 590.1306 590.5173 590.9745 591.5734 592.2433 592.9202 593.4662 594.433 594.625 594.5001 594.1606 593.631 593.0806 593.0002 592.9881 592.8677 593.0076 593.2609 593.5173 593.8546 594.3503 595.2094 596.5977 599.1011 600.1454 600.2474 600.0197 600.0179 600.2864 600.3125 600.1836 599.9809 599.853 599.1156 597.7655 595.9005 593.6836 590.2996 586.1152 581.3646 576.3239 571.2566 566.4586 562.2867 558.9471 556.5516 555.2048 555.0964 556.6208 559.2013 562.4072 565.3057 567.5457 569.2984 570.989 572.6425 574.2372 576.1663 578.7852 582.4194 586.7458 591.2822 595.8486 600.6143 605.7088 611.1645 616.8308 622.2388 626.577 629.165 -9999 -9999 -9999 -9999 -9999 -9999 -9999 -9999 -9999 -9999 -9999 -9999 -9999 -9999 -9999 -9999 -9999 -9999 -9999 -9999 -9999 -9999 -9999 -9999 -9999 -9999 -9999 -9999 -9999 -9999 -9999 -9999 -9999 -9999 -9999 -9999 -9999 -9999 -9999 -9999 -9999 -9999 -9999 -9999 -9999 -9999 -9999 -9999 -9999 -9999 -9999 -9999
-9999 -9999 -9999 -9999 -9999 -9999 -9999 -9999 -9999 -9999 -9999 -9999 -9999 -9999 -9999 -9999 -9999 -9999 -9999 -9999 -9999 -9999 -9999 -9999 -9999 -9999 -9999 -9999 -9999 -9999 -9999 -9999 -9999 -9999 -9999 -9999 -9999 -9999 -9999 -9999 -9999 -9999 -9999 -9999 -9999 -9999 -9999 -9999 623.6097 616.5468 610.5728 605.3411 600.677 596.8147 594.2759 592.7427 591.9099 591.5563 591.5423 591.7719 592.1641 592.6239 593.0503 593.3536 593.4574 593.3116 592.8847 591.9799 591.2175 590.6173 590.084 589.5553 588.9952 588.3772 587.7167 587.0472 586.4138 585.8519 585.3793 584.9966 584.6901 584.536 584.3053 584.1202 583.9827 583.882 583.8091 583.7378 583.6288 583.4369 583.2325 583.0553 582.9616 582.9718 583.0563 583.1698 583.2961 583.4747 583.7793 584.3026 585.1544 586.5007 588.3191 589.7953 592.1959 595.5791 599.8767 604.4893 608.7563 611.99 613.8328 613.5117 611.8464 608.9986 605.6819 603.1493 601.1435 599.4785 598.0328 596.8091 595.765 594.9055 594.1799 593.5421 593.0008 592.5951 592.3606 592.2454 592.0908 591.8356 591.4749 591.0483 590.5774 590.0944 589.5607 589.0434 588.7274 588.0771 587.6844 587.6113 587.6007 587.6391 587.8293 588.2452 588.9283 589.489 589.9127 590.4089 591.0116 591.6342 592.2108 592.6733 593.1015 593.1445 593.1297 593.2089 593.0058 592.8142 592.8176 592.8074 592.7689 592.8254 593.0039 593.345 593.8181 594.4992 595.5498 597.1678 599.0192 599.9766 600.0005 599.939 599.8329 599.8519 599.6492 599.4133 599.4076 599.3644 598.7466 596.5913 593.8336 591.6825 588.1944 583.9058 579.1337 574.181 569.3139 564.7263 560.6942 557.4523 555.3474 554.9763 555.2346 557.106 560.3329 563.7054 566.5945 568.8427 570.6166 572.3064 573.7609 575.449 577.7389 581.071 585.2843 590.0555 594.9965 599.9917 605.1025 610.2714 615.4242 620.4328 624.9479 628.3806 -9999 -9999 -9999 -9999 -9999 -9999 -9999 -9999 -9999 -9999 -9999 -9999 -9999 -9999 -9999 -9999 -9999 -9999 -9999 -9999 -9999 -9999 -9999 -9999 -9999 -9999 -9999 -9999 -9999 -9999 -9999 -9999 -9999 -9999 -9999 -9999 -9999 -9999 -9999 -9999 -9999 -9999 -9999 -9999 -9999 -9999 -9999 -9999 -9999 -9999 -9999 -9999 -9999
-9999 -9999 -9999 -9999 -9999 -9999 -9999 -9999 -9999 -9999 -9999 -9999 -9999 -9999 -9999 -9999 -9999 -9999 -9999 -9999 -9999 -9999 -9999 -9999 -9999 -9999 -9999 -9999 -9999 -9999 -9999 -9999 -9999 -9999 -9999 -9999 -9999 -9999 -9999 -9999 -9999 -9999 -9999 -9999 -9999 -9999 -9999 -9999 622.0657 614.9686 609.1449 604.2546 600.0339 596.5852 594.3887 593.0593 592.3248 591.9899 591.9249 592.0565 592.327 592.6764 593.0302 593.313 593.4509 593.3604 592.9821 592.2165 591.5859 591.0889 590.6119 590.1163 589.5892 588.9993 588.3353 587.6318 586.941 586.3149 585.7867 585.3611 585.0278 584.9766 584.6556 584.4787 584.3794 584.3214 584.2927 584.2487 584.1437 583.8701 583.6042 583.3661 583.2271 583.2104 583.3003 583.4485 583.6262 583.8971 584.3407 585.0723 586.213 587.5488 589.3735 591.7438 594.9237 598.9431 603.4319 607.6815 610.9834 612.7633 613.1495 611.5814 608.7446 605.2958 602.3506 600.3551 598.8324 597.5985 596.5384 595.6102 594.8224 594.148 593.5447 593.0005 592.5409 592.225 592.0524 591.9501 591.7939 591.5087 591.0809 590.567 590.0228 589.5273 588.8734 588.0747 587.4172 586.7031 586.3221 586.2145 586.1949 586.2766 586.6576 587.3352 588.1779 588.9567 589.4023 589.9708 590.6089 591.2438 591.8054 592.3136 592.7402 592.743 592.8051 592.9946 592.9199 592.9042 592.9983 592.9998 592.9974 593.0023 593.1542 593.437 593.8707 594.5399 595.5435 597.0634 598.8113 599.9054 600.1492 599.9143 599.2722 598.4358 597.548 596.8792 596.8738 597.2567 596.6774 594.7061 591.9838 589.4948 585.7415 581.4179 576.8228 572.1519 567.5703 563.2429 559.5341 556.7276 555.067 555.7795 555.9318 558.2369 561.7416 565.0099 567.9644 570.0914 571.748 573.2396 574.8619 576.8856 579.7003 583.6799 588.3968 593.5504 598.9561 604.4271 609.7357 614.7451 619.3624 623.4852 626.8596 -9999 -9999 -9999 -9999 -9999 -9999 -9999 -9999 -9999 -9999 -9999 -9999 -9999 -9999 -9999 -9999 -9999 -9999 -9999 -9999 -9999 -9999 -9999 -9999 -9999 -9999 -9999 -9999 -9999 -9999 -9999 -9999 -9999 -9999 -9999 -9999 -9999 -9999 -9999 -9999 -9999 -9999 -9999 -9999 -9999 -9999 -9999 -9999 -9999 -9999 -9999 -9999 -9999 -9999
-9999 -9999 -9999 -9999 -9999 -9999 -9999 -9999 -9999 -9999 -9999 -9999 -9999 -9999 -9999 -9999 -9999 -9999 -9999 -9999 -9999 -9999 -9999 -9999 -9999 -9999 -9999 -9999 -9999 -9999 -9999 -9999 -9999 -9999 -9999 -9999 -9999 -9999 -9999 -9999 -9999 -9999 -9999 -9999 -9999 -9999 -9999 -9999 -9999 613.3339 607.6729 603.0941 599.2608 596.2701 594.5588 593.4944 592.8563 592.5191 592.3917 592.4188 592.5626 592.7836 593.038 593.2631 593.3834 593.3195 593.0098 592.5747 592.0895 591.6342 591.1848 590.7094 590.2286 589.6764 589.0135 588.2765 587.5232 586.8275 586.2644 585.8564 585.5861 585.4346 585.0422 584.9925 585.0065 585.0424 585.0872 585.0452 584.9202 584.4792 584.1451 583.815 583.6184 583.5553 583.6448 583.8353 584.0497 584.413 584.999 585.9758 587.4052 588.6953 590.73 593.904 597.9113 602.2505 606.2792 609.5583 611.5103 611.5403 610.3868 608.0122 604.9916 602.2626 599.9607 598.3049 597.0947 596.1481 595.3472 594.6404 594.0192 593.489 593.0001 592.5352 592.129 591.8533 591.7189 591.6222 591.4384 591.083 590.5339 589.8499 589.1251 588.592 587.6857 586.7407 586.017 585.2695 585.0204 584.9863 585.0028 585.1118 585.6616 586.6118 587.6503 588.6029 589.0613 589.7427 590.4172 591.0374 591.5872 592.0475 592.4076 592.505 592.6219 592.7991 592.8881 592.9996 593.1376 593.2173 593.2833 593.3505 593.4688 593.6516 593.9286 594.3729 595.0255 596.0245 597.9237 599.0049 599.7004 599.5559 598.5261 596.9958 595.7871 595.6022 595.3185 595.0261 594.0175 592.2794 589.8418 586.8882 582.9826 578.7151 574.3145 569.9172 565.6569 561.7513 558.5182 556.2414 555.0217 556.7026 557.2103 559.9445 563.4845 566.658 569.3197 571.3499 572.9167 574.4061 576.2287 578.7332 582.2881 586.7167 591.7529 597.293 603.186 608.9507 614.2067 618.8191 622.7418 625.8916 -9999 -9999 -9999 -9999 -9999 -9999 -9999 -9999 -9999 -9999 -9999 -9999 -9999 -9999 -9999 -9999 -9999 -9999 -9999 -9999 -9999 -9999 -9999 -9999 -9999 -9999 -9999 -9999 -9999 -9999 -9999 -9999 -9999 -9999 -9999 -9999 -9999 -9999 -9999 -9999 -9999 -9999 -9999 -9999 -9999 -9999 -9999 -9999 -9999 -9999 -9999 -9999 -9999 -9999 -9999
-9999 -9999 -9999 -9999 -9999 -9999 -9999 -9999 -9999 -9999 -9999 -9999 -9999 -9999 -9999 -9999 -9999 -9999 -9999 -9999 -9999 -9999 -9999 -9999 -9999 -9999 -9999 -9999 -9999 -9999 -9999 -9999 -9999 -9999 -9999 -9999 -9999 -9999 -9999 -9999 -9999 -9999 -9999 -9999 -9999 -9999 -9999 -9999 -9999 611.6497 606.2618 602.097 598.7114 596.2094 594.8741 594.0154 593.4561 593.1033 592.9048 592.8297 592.8497 592.9431 593.0871 593.2482 593.3599 593.3567 593.2137 592.9882 592.605 592.1974 591.7981 591.3434 590.9408 590.454 589.8137 589.0164 588.1732 587.3772 586.7749 586.3821 586.1432 585.9279 585.733 585.8009 586.0139 586.2631 586.4572 586.2617 585.8958 585.2899 584.9268 584.4301 584.1642 584.005 584.0819 584.3359 584.534 584.97 585.626 586.686 588.1808 589.9832 592.7626 596.4994 600.9553 604.9924 607.9077 609.7183 609.9926 608.8627 606.6288 603.9121 601.8455 599.9182 598.2272 596.9128 595.9218 595.1447 594.4933 593.9203 593.4111 592.9976 592.5834 592.1596 591.7486 591.462 591.3243 591.2029 590.9532 590.4814 589.7651 588.8484 587.8854 587.0371 586.2032 585.338 584.9085 584.376 584.1434 584.1559 584.3143 584.6149 585.1174 586.3616 587.7169 588.8585 589.3615 589.8928 590.455 590.9896 591.4589 591.8411 592.1097 592.2687 592.4335 592.6345 592.8175 593.0015 593.2344 593.4049 593.5434 593.6738 593.79 593.8942 594.0128 594.2043 594.4871 594.9963 595.9039 597.0305 597.981 598.5865 597.7512 595.9587 594.9553 594.4216 593.8706 592.9355 591.4064 589.2994 586.7001 583.6788 579.996 575.9341 571.7614 567.6469 563.7358 560.2482 557.4112 555.556 555.0006 556.4194 558.2153 561.5544 565.2215 568.3791 570.8422 572.6842 574.1171 575.7139 577.8968 581.0687 585.0765 589.7845 595.1418 601.1487 607.3914 613.1997 618.1188 622.0801 625.1132 -9999 -9999 -9999 -9999 -9999 -9999 -9999 -9999 -9999 -9999 -9999 -9999 -9999 -9999 -9999 -9999 -9999 -9999 -9999 -9999 -9999 -9999 -9999 -9999 -9999 -9999 -9999 -9999 -9999 -9999 -9999 -9999 -9999 -9999 -9999 -9999 -9999 -9999 -9999 -9999 -9999 -9999 -9999 -9999 -9999 -9999 -9999 -9999 -9999 -9999 -9999 -9999 -9999 -9999 -9999 -9999
-9999 -9999 -9999 -9999 -9999 -9999 -9999 -9999 -9999 -9999 -9999 -9999 -9999 -9999 -9999 -9999 -9999 -9999 -9999 -9999 -9999 -9999 -9999 -9999 -9999 -9999 -9999 -9999 -9999 -9999 -9999 -9999 -9999 -9999 -9999 -9999 -9999 -9999 -9999 -9999 -9999 -9999 -9999 -9999 -9999 -9999 -9999 -9999 -9999 609.8726 604.8259 601.0579 598.1368 596.1031 595.03 594.4926 594.03 593.6625 593.3992 593.2365 593.153 593.1316 593.1731 593.2676 593.3672 593.4058 593.3538 593.2226 592.9943 592.6881 592.4357 592.0664 591.7249 591.3234 590.7305 589.8571 588.8593 587.9235 587.2837 586.9142 586.7091 586.5494 586.5742 586.8689 587.322 587.7269 587.968 587.7225 587.3323 586.7634 586.0513 585.2538 584.9131 584.5421 584.5701 584.9335 585.0332 585.5316 586.3679 587.6454 589.4671 591.9919 595.3309 599.4388 603.6932 606.9184 608.2164 608.2228 607.1925 605.2174 603.3708 601.3782 599.7681 598.3607 597.1276 596.0874 595.2328 594.5322 593.9548 593.4654 593.0192 592.6842 592.3031 591.8689 591.3995 591.026 590.8476 590.642 590.2564 589.5896 588.6362 587.3906 586.3436 585.415 584.8786 584.3531 584.0493 583.675 583.5273 583.6561 583.9775 584.3875 585.0937 586.5687 588.0565 589.0428 589.6468 590.1145 590.5739 591.0051 591.3749 591.6575 591.8427 592.0055 592.2065 592.4554 592.7314 593.0041 593.2891 593.5032 593.7059 593.8793 594.0121 594.0942 594.1318 594.1261 594.1501 594.2728 594.6294 595.1697 595.7855 596.4469 597.0038 595.7585 594.6435 593.713 592.6399 590.9736 588.8088 586.2474 583.4561 580.2703 576.606 572.687 568.7349 564.923 561.4336 558.5039 556.3402 555.0623 555.0616 556.7841 559.8001 563.5298 567.1373 569.9854 572.2394 573.8263 575.2943 577.166 579.883 583.6523 588.0609 593.038 598.6518 604.9337 611.248 616.8068 621.0922 624.1196 626.0322 -9999 -9999 -9999 -9999 -9999 -9999 -9999 -9999 -9999 -9999 -9999 -9999 -9999 -9999 -9999 -9999 -9999 -9999 -9999 -9999 -9999 -9999 -9999 -9999 -9999 -9999 -9999 -9999 -9999 -9999 -9999 -9999 -9999 -9999 -9999 -9999 -9999 -9999 -9999 -9999 -9999 -9999 -9999 -9999 -9999 -9999 -9999 -9999 -9999 -9999 -9999 -9999 -9999 -9999 -9999 -9999
-9999 -9999 -9999 -9999 -9999 -9999 -9999 -9999 -9999 -9999 -9999 -9999 -9999 -9999 -9999 -9999 -9999 -9999 -9999 -9999 -9999 -9999 -9999 -9999 -9999 -9999 -9999 -9999 -9999 -9999 -9999 -9999 -9999 -9999 -9999 -9999 -9999 -9999 -9999 -9999 -9999 -9999 -9999 -9999 -9999 -9999 -9999 -9999 -9999 -9999 603.4443 600.0726 597.5617 595.9717 595.2181 594.9667 594.5313 594.136 593.8154 593.583 593.4241 593.3166 593.2725 593.3051 593.3803 593.4312 593.4166 593.3324 593.1838 593.0057 592.9771 592.6681 592.4456 592.2086 591.7367 590.7327 589.3839 588.4197 587.8016 587.4898 587.3396 587.3151 587.6257 588.2617 589.0313 589.5233 589.6401 589.3527 588.9941 588.4757 587.5256 586.5637 585.8629 585.1861 585.064 585.3523 585.675 586.3418 587.4524 589.1179 591.4949 594.6708 598.6084 602.8329 606.1565 607.883 607.418 605.7787 603.7616 602.2634 600.9187 599.6003 598.4326 597.3986 596.4905 595.6501 594.8732 594.1824 593.6417 593.2574 592.9868 592.5869 592.157 591.6776 591.1199 590.5576 590.2765 589.8826 589.2468 588.2479 586.9429 585.6248 584.8034 584.0995 583.6805 583.4108 583.2742 583.0789 583.0873 583.4068 583.9331 584.5496 585.4797 587.1624 588.6832 589.4361 589.9253 590.3044 590.6581 590.989 591.2507 591.4089 591.519 591.6602 591.8804 592.1866 592.5707 592.9865 593.2507 593.4621 593.737 593.9516 594.1057 594.2013 594.2424 594.077 594.0158 593.9567 594.0644 594.3914 595.0037 595.7341 595.9415 595.1338 594.0454 592.8326 591.178 588.9377 586.1943 583.282 580.1509 576.6924 572.9858 569.2162 565.5546 562.1505 559.2018 556.8569 555.2849 555.2209 555.6274 557.9471 561.4917 565.3138 568.6797 571.2807 573.2455 574.8475 576.5106 578.7712 582.0742 586.2676 591.0394 596.3258 602.1962 608.504 614.5293 619.5005 622.923 625.1066 -9999 -9999 -9999 -9999 -9999 -9999 -9999 -9999 -9999 -9999 -9999 -9999 -9999 -9999 -9999 -9999 -9999 -9999 -9999 -9999 -9999 -9999 -9999 -9999 -9999 -9999 -9999 -9999 -9999 -9999 -9999 -9999 -9999 -9999 -9999 -9999 -9999 -9999 -9999 -9999 -9999 -9999 -9999 -9999 -9999 -9999 -9999 -9999 -9999 -9999 -9999 -9999 -9999 -9999 -9999 -9999 -9999
-9999 -9999 -9999 -9999 -9999 -9999 -9999 -9999 -9999 -9999 -9999 -9999 -9999 -9999 -9999 -9999 -9999 -9999 -9999 -9999 -9999 -9999 -9999 -9999 -9999 -9999 -9999 -9999 -9999 -9999 -9999 -9999 -9999 -9999 -9999 -9999 -9999 -9999 -9999 -9999 -9999 -9999 -9999 -9999 -9999 -9999 -9999 -9999 -9999 -9999 601.9186 598.8026 596.6002 595.5303 595.105 595.0001 594.7981 594.4615 594.119 593.8368 593.6265 593.4637 593.3594 593.3408 593.3846 593.4267 593.4229 593.3723 593.293 593.2156 593.1776 593.0116 593.0078 593.0142 592.8102 591.8086 590.3766 589.1212 588.416 588.1667 588.0458 588.2803 589.0453 590.2053 591.4425 592.1332 592.1028 591.3713 590.6152 589.8247 588.8911 587.9338 587.2177 586.4946 586.1588 586.2028 586.5902 587.4772 588.9522 591.1079 594.0421 597.869 602.173 605.9137 607.4766 607.2906 605.5372 602.7844 601.0188 599.9279 599.1118 598.329 597.5143 596.722 595.9731 595.2596 594.5955 593.8907 593.3542 593.0035 592.7725 592.4416 592.0214 591.5178 590.9164 590.2473 589.6238 588.8247 587.7812 586.2272 585.0243 583.988 583.3176 582.8608 582.6166 582.528 582.5765 582.5546 582.7995 583.4367 584.2733 585.1606 586.4456 587.9794 589.0165 589.5963 590.0157 590.3475 590.6301 590.8611 591.0109 591.0717 591.1078 591.2025 591.4098 591.7391 592.1633 592.6099 592.9983 593.3488 593.705 593.9946 594.1663 594.225 594.1608 593.9739 593.8301 593.8438 593.9045 594.1172 594.542 595.0318 594.9885 594.2349 593.0626 591.5438 589.4722 586.7563 583.5835 580.2577 576.7501 573.0947 569.4167 565.8965 562.6633 559.7943 557.35 555.7074 555.0289 556.1833 556.8683 559.6979 563.4485 567.143 570.1134 572.518 574.4093 576.0598 578.0331 580.9559 584.653 589.0028 593.9516 599.5302 605.5682 611.632 617.0511 621.1265 623.281 624.5907 -9999 -9999 -9999 -9999 -9999 -9999 -9999 -9999 -9999 -9999 -9999 -9999 -9999 -9999 -9999 -9999 -9999 -9999 -9999 -9999 -9999 -9999 -9999 -9999 -9999 -9999 -9999 -9999 -9999 -9999 -9999 -9999 -9999 -9999 -9999 -9999 -9999 -9999 -9999 -9999 -9999 -9999 -9999 -9999 -9999 -9999 -9999 -9999 -9999 -9999 -9999 -9999 -9999 -9999 -9999 -9999 -9999
-9999 -9999 -9999 -9999 -9999 -9999 -9999 -9999 -9999 -9999 -9999 -9999 -9999 -9999 -9999 -9999 -9999 -9999 -9999 -9999 -9999 -9999 -9999 -9999 -9999 -9999 -9999 -9999 -9999 -9999 -9999 -9999 -9999 -9999 -9999 -9999 -9999 -9999 -9999 -9999 -9999 -9999 -9999 -9999 -9999 -9999 -9999 -9999 -9999 -9999 -9999 597.7073 596.0143 595.2154 594.9784 595.0093 594.9963 594.6775 594.3126 593.9915 593.7449 593.5511 593.411 593.3567 593.3707 593.3937 593.3872 593.3579 593.3296 593.3282 593.3618 593.3907 593.5062 593.6102 593.4603 592.7202 591.3137 589.9073 589.0223 588.913 588.838 589.593 591.1496 593.2038 594.5398 594.7278 594.1841 593.0103 591.9153 590.9105 589.9751 589.144 588.6462 587.9003 587.4594 587.3206 587.7563 588.9186 590.8138 593.501 596.9611 601.1288 604.9469 607.3326 605.6314 605.1256 602.6879 599.8842 598.765 598.1614 597.7485 597.3542 596.7576 596.1083 595.4396 594.7681 594.1136 593.4829 593.0063 592.728 592.5228 592.2318 591.8057 591.2416 590.5286 589.6527 588.5936 587.1744 585.686 584.3334 583.2809 582.4512 582.0218 581.8001 581.7034 581.7285 581.951 582.1301 582.7229 583.6794 584.8458 585.9877 587.3524 588.7634 589.2598 589.5736 589.9168 590.2208 590.4354 590.5681 590.6227 590.6082 590.58 590.6157 590.7822 591.1182 591.556 592.0322 592.5206 593.0045 593.469 593.8389 594.0117 594.0513 593.9507 593.7792 593.6719 593.6488 593.7601 593.9484 594.1699 594.3124 594.009 593.1168 591.7759 589.9164 587.4372 584.2332 580.6741 577.0273 573.3461 569.6837 566.1703 562.9965 560.1337 557.6695 555.9501 554.949 554.7872 555.8898 557.64 561.0916 565.0166 568.514 571.2819 573.5231 575.628 577.4852 579.9737 583.4645 587.4712 591.968 597.0692 602.7944 608.6917 614.1843 618.7348 621.8903 623.093 -9999 -9999 -9999 -9999 -9999 -9999 -9999 -9999 -9999 -9999 -9999 -9999 -9999 -9999 -9999 -9999 -9999 -9999 -9999 -9999 -9999 -9999 -9999 -9999 -9999 -9999 -9999 -9999 -9999 -9999 -9999 -9999 -9999 -9999 -9999 -9999 -9999 -9999 -9999 -9999 -9999 -9999 -9999 -9999 -9999 -9999 -9999 -9999 -9999 -9999 -9999 -9999 -9999 -9999 -9999 -9999 -9999 -9999
-9999 -9999 -9999 -9999 -9999 -9999 -9999 -9999 -9999 -9999 -9999 -9999 -9999 -9999 -9999 -9999 -9999 -9999 -9999 -9999 -9999 -9999 -9999 -9999 -9999 -9999 -9999 -9999 -9999 -9999 -9999 -9999 -9999 -9999 -9999 -9999 -9999 -9999 -9999 -9999 -9999 -9999 -9999 -9999 -9999 -9999 -9999 -9999 -9999 -9999 599.4375 596.7717 595.5696 595.0383 594.9176 594.9963 595 594.7317 594.3772 594.0415 593.7755 593.5691 593.4143 593.3378 593.3289 593.3346 593.3206 593.3017 593.3053 593.3531 593.4553 593.6027 593.8021 593.9497 593.8102 593.1119 591.9584 590.4171 589.3329 589.2255 589.7264 591.4969 594.3811 597.2224 598.4919 597.4163 595.7642 594.1349 592.8121 591.7141 590.8403 590.1531 589.6253 589.0449 588.7515 588.5188 589.1031 590.6163 592.9932 596.2349 600.2148 604.0892 606.2366 604.9469 604.1031 602.7875 600.0187 598.3481 597.5463 597.0977 596.7798 596.4583 595.9996 595.4489 594.8348 594.1947 593.569 593.0147 592.6291 592.3923 592.1973 591.9008 591.4166 590.7222 589.7972 588.5983 587.0165 585.3289 583.8422 582.6361 581.8409 581.1654 580.9949 580.9843 580.9926 581.0317 581.3928 581.854 582.6484 583.7599 585.0519 586.3422 587.6079 588.7611 589.0446 589.4117 589.6501 589.8268 589.936 589.9831 589.9763 589.9321 589.8833 589.8792 590.0006 590.3671 590.8069 591.316 591.8826 592.4757 593.0175 593.4681 593.6112 593.6268 593.5566 593.4658 593.4624 593.484 593.5535 593.6412 593.6333 593.5955 593.0231 591.8767 590.16 587.8145 584.7371 581.1724 577.4365 573.7365 570.1251 566.6526 563.4265 560.572 558.0264 556.1328 555.0049 554.4696 554.7527 556.1028 558.8229 562.6988 566.6302 569.8079 572.429 574.6354 576.7922 579.0665 582.1996 586.1163 590.4197 595.2273 600.658 606.3339 611.6824 616.2515 619.7807 622.1946 -9999 -9999 -9999 -9999 -9999 -9999 -9999 -9999 -9999 -9999 -9999 -9999 -9999 -9999 -9999 -9999 -9999 -9999 -9999 -9999 -9999 -9999 -9999 -9999 -9999 -9999 -9999 -9999 -9999 -9999 -9999 -9999 -9999 -9999 -9999 -9999 -9999 -9999 -9999 -9999 -9999 -9999 -9999 -9999 -9999 -9999 -9999 -9999 -9999 -9999 -9999 -9999 -9999 -9999 -9999 -9999 -9999 -9999 -9999
-9999 -9999 -9999 -9999 -9999 -9999 -9999 -9999 -9999 -9999 -9999 -9999 -9999 -9999 -9999 -9999 -9999 -9999 -9999 -9999 -9999 -9999 -9999 -9999 -9999 -9999 -9999 -9999 -9999 -9999 -9999 -9999 -9999 -9999 -9999 -9999 -9999 -9999 -9999 -9999 -9999 -9999 -9999 -9999 -9999 -9999 -9999 -9999 -9999 -9999 598.9848 596.5032 595.5186 595.0935 594.9797 595.0315 594.9967 594.683 594.3221 593.9867 593.719 593.5173 593.364 593.2786 593.2511 593.2482 593.2325 593.2188 593.2333 593.2939 593.415 593.6075 593.8846 594.0956 594.054 593.5439 592.5446 590.7076 589.5211 589.9756 591.5825 594.4149 598.1826 601.3601 602.2401 600.2313 597.085 594.8785 593.2612 592.2822 591.5458 590.993 590.4971 589.9888 589.7358 589.7332 590.7295 592.6433 595.5101 599.3724 603.4222 606.3375 606.7628 605.1212 603.4005 600.9249 598.9301 597.7465 597.0356 596.5521 596.1523 595.7657 595.3109 594.7875 594.1982 593.5885 593.0162 592.5645 592.1923 591.9631 591.7498 591.3932 590.7819 589.8734 588.6398 587.0177 585.2601 583.6311 582.2738 581.27 580.8863 580.4553 580.3246 580.3731 580.4847 580.6163 580.9866 581.5248 582.4087 583.6312 585.0123 586.2054 587.1381 587.8182 588.6224 588.8395 588.8489 588.8845 588.9041 588.8972 588.882 588.8903 588.9294 588.973 589.0931 589.564 589.9738 590.519 591.1454 591.8217 592.4417 592.9331 593.0107 593.0048 593.0027 593.0193 593.2155 593.2856 593.3342 593.3079 593.0505 592.8278 591.9219 590.3958 588.1786 585.1885 581.6661 577.9016 574.1665 570.5906 567.115 563.8733 561.0294 558.6377 556.6902 555.194 554.5297 554.5472 555.4398 557.496 560.806 564.6099 568.1255 571.0728 573.5833 575.9957 578.4943 581.4468 585.0088 589.1398 593.6894 598.8842 604.5962 609.9683 614.4302 617.7341 620.0146 621.4427 -9999 -9999 -9999 -9999 -9999 -9999 -9999 -9999 -9999 -9999 -9999 -9999 -9999 -9999 -9999 -9999 -9999 -9999 -9999 -9999 -9999 -9999 -9999 -9999 -9999 -9999 -9999 -9999 -9999 -9999 -9999 -9999 -9999 -9999 -9999 -9999 -9999 -9999 -9999 -9999 -9999 -9999 -9999 -9999 -9999 -9999 -9999 -9999 -9999 -9999 -9999 -9999 -9999 -9999 -9999 -9999 -9999 -9999 -9999
-9999 -9999 -9999 -9999 -9999 -9999 -9999 -9999 -9999 -9999 -9999 -9999 -9999 -9999 -9999 -9999 -9999 -9999 -9999 -9999 -9999 -9999 -9999 -9999 -9999 -9999 -9999 -9999 -9999 -9999 -9999 -9999 -9999 -9999 -9999 -9999 -9999 -9999 -9999 -9999 -9999 -9999 -9999 -9999 -9999 -9999 -9999 -9999 -9999 601.9178 599.0666 596.7774 595.7454 595.2558 595.064 594.996 594.7884 594.4711 594.1389 593.8336 593.5847 593.4038 593.2672 593.184 593.1375 593.1348 593.127 593.1193 593.1302 593.1682 593.2458 593.3984 593.7384 594.0101 594.0212 593.5714 592.547 590.6255 589.7167 591.0046 593.6002 597.3092 601.4993 604.4255 603.9723 602.1852 598.1957 595.6028 593.9294 592.9544 592.2792 591.8375 591.3441 590.9543 590.9542 591.5956 592.7213 594.9996 598.3554 602.3428 605.636 607.1434 606.4172 604.3071 601.2769 599.4349 598.1638 597.4328 596.7491 596.2092 595.697 595.2067 594.7009 594.1657 593.5797 592.9951 592.4794 592.04 591.6476 591.4132 591.1575 590.6815 589.8612 588.6519 587.0292 585.26 583.6201 582.2089 581.1467 580.5045 580.176 579.9171 579.8347 579.8973 580.0276 580.1809 580.4944 581.0126 581.8943 583.178 584.6781 585.7589 586.4655 586.8927 587.1375 587.1258 587.0016 587.0557 587.0776 587.0668 587.082 587.2267 587.5481 587.8846 588.2701 588.8265 589.1091 589.7102 590.3723 591.0668 591.6559 592.0704 592.2479 592.3601 592.4924 592.7216 592.9919 593.0058 592.986 592.8278 592.2876 591.6346 590.5064 588.6289 585.8812 582.4545 578.6498 574.7775 571.1018 567.6334 564.3113 561.3387 558.9371 557.0748 555.7168 554.8827 554.3867 555.012 556.6349 559.5383 563.1105 566.6939 569.7037 572.5723 575.1921 577.915 580.9701 584.3664 588.1679 592.4808 597.1965 602.7657 608.4872 613.3068 616.6563 618.5538 619.5935 -9999 -9999 -9999 -9999 -9999 -9999 -9999 -9999 -9999 -9999 -9999 -9999 -9999 -9999 -9999 -9999 -9999 -9999 -9999 -9999 -9999 -9999 -9999 -9999 -9999 -9999 -9999 -9999 -9999 -9999 -9999 -9999 -9999 -9999 -9999 -9999 -9999 -9999 -9999 -9999 -9999 -9999 -9999 -9999 -9999 -9999 -9999 -9999 -9999 -9999 -9999 -9999 -9999 -9999 -9999 -9999 -9999 -9999 -9999 -9999
-9999 -9999 -9999 -9999 -9999 -9999 -9999 -9999 -9999 -9999 -9999 -9999 -9999 -9999 -9999 -9999 -9999 -9999 -9999 -9999 -9999 -9999 -9999 -9999 -9999 -9999 -9999 -9999 -9999 -9999 -9999 -9999 -9999 -9999 -9999 -9999 -9999 -9999 -9999 -9999 -9999 -9999 -9999 -9999 -9999 -9999 -9999 -9999 604.1118 601.9109 599.6262 597.581 596.0847 595.3044 594.9846 594.6998 594.4278 594.1455 593.8669 593.6115 593.399 593.2527 593.139 593.0792 593.0005 592.9999 593 592.9999 592.9999 592.9996 592.9984 593.0198 593.3983 593.6462 593.6306 593.1297 591.9996 590.2211 589.8935 592.1974 595.5068 599.7281 603.9619 606.6245 605.5518 603.2408 598.9619 596.3047 594.6608 593.6956 593.0864 592.8096 592.2482 591.9033 591.9644 592.7197 594.4561 597.5298 601.1189 604.4391 606.3231 606.6141 604.7797 602.2559 599.8999 598.3585 597.3763 596.7847 596.2524 595.7773 595.2372 594.6877 594.135 593.5782 592.9946 592.411 591.9306 591.5012 591.0415 590.7662 590.428 589.7546 588.6259 587.0216 585.2612 583.6136 582.1978 581.1266 580.56 580.0769 579.7626 579.5372 579.4506 579.4935 579.6091 579.7202 579.9577 580.3861 581.1052 582.2869 583.7222 584.9527 585.6802 585.7678 585.3766 585.1111 584.9661 584.9531 584.9565 584.9739 585.0938 585.4099 586.0996 586.7334 587.2847 587.8265 588.351 588.9924 589.6462 590.3096 590.8427 591.2271 591.4965 591.729 592.0052 592.3636 592.5825 592.5472 592.2652 591.6932 591.0726 590.1606 588.8856 586.666 583.6374 579.9335 575.9165 571.9139 568.1437 564.6837 561.5988 559.0733 557.1541 555.8305 554.956 554.4559 554.6309 555.6865 558.0978 561.4669 565.1532 568.6099 571.6113 574.3082 577.072 580.2273 583.7006 587.3524 591.2507 595.6737 600.7413 606.5333 611.9044 615.866 617.9037 618.6258 618.7324 -9999 -9999 -9999 -9999 -9999 -9999 -9999 -9999 -9999 -9999 -9999 -9999 -9999 -9999 -9999 -9999 -9999 -9999 -9999 -9999 -9999 -9999 -9999 -9999 -9999 -9999 -9999 -9999 -9999 -9999 -9999 -9999 -9999 -9999 -9999 -9999 -9999 -9999 -9999 -9999 -9999 -9999 -9999 -9999 -9999 -9999 -9999 -9999 -9999 -9999 -9999 -9999 -9999 -9999 -9999 -9999 -9999 -9999 -9999 -9999
-9999 -9999 -9999 -9999 -9999 -9999 -9999 -9999 -9999 -9999 -9999 -9999 -9999 -9999 -9999 -9999 -9999 -9999 -9999 -9999 -9999 -9999 -9999 -9999 -9999 -9999 -9999 -9999 -9999 -9999 -9999 -9999 -9999 -9999 -9999 -9999 -9999 -9999 -9999 -9999 -9999 -9999 -9999 -9999 -9999 -9999 -9999 604.995 603.6234 601.9175 599.8814 597.8297 596.0674 595.0406 594.5682 594.2585 594.0115 593.7859 593.5707 593.3654 593.1946 593.1041 593.0008 592.9991 592.8995 592.8516 592.8381 592.8344 592.8162 592.7756 592.7334 592.7544 592.9676 592.9955 592.8534 592.2417 590.892 590.1168 591.3875 593.656 596.8577 600.8415 604.9146 607.6375 606.9349 604.0253 599.7607 597.2151 595.6401 594.715 594.1591 593.7863 593.268 593.0496 593.1252 593.7924 596.0735 599.537 602.8889 604.8942 605.1833 603.8785 601.5599 599.8862 598.3808 597.2753 596.5443 596.0498 595.6035 595.1323 594.6671 594.1355 593.5745 593.0098 592.4366 591.863 591.4233 591.0409 590.5868 590.0997 589.5645 588.5741 587.0057 585.2457 583.6085 582.1877 581.075 580.3781 580.0283 579.7151 579.442 579.2205 579.0978 579.0833 579.1074 579.2115 579.4203 579.768 580.3362 581.2271 582.5264 583.8141 584.6606 584.506 583.6674 583.1313 582.9037 582.8474 582.8633 582.9763 583.3736 584.0274 584.9225 585.7344 586.4023 587.0309 587.6653 588.334 588.9904 589.6077 590.1066 590.509 590.8781 591.2601 591.7039 592.0704 592.1384 592.0538 591.6842 590.9713 589.9927 588.6378 587.1506 584.4554 581.0237 577.0974 572.9377 568.8846 565.1645 561.9296 559.2768 557.2144 555.8191 554.9463 554.4773 554.5455 555.3694 557.3381 560.2454 563.7369 567.3318 570.5452 573.4077 576.1641 579.0958 582.5724 586.3496 590.2136 594.3319 598.999 604.2067 609.6631 614.2763 617.2386 618.2626 618.0915 -9999 -9999 -9999 -9999 -9999 -9999 -9999 -9999 -9999 -9999 -9999 -9999 -9999 -9999 -9999 -9999 -9999 -9999 -9999 -9999 -9999 -9999 -9999 -9999 -9999 -9999 -9999 -9999 -9999 -9999 -9999 -9999 -9999 -9999 -9999 -9999 -9999 -9999 -9999 -9999 -9999 -9999 -9999 -9999 -9999 -9999 -9999 -9999 -9999 -9999 -9999 -9999 -9999 -9999 -9999 -9999 -9999 -9999 -9999 -9999 -9999
-9999 -9999 -9999 -9999 -9999 -9999 -9999 -9999 -9999 -9999 -9999 -9999 -9999 -9999 -9999 -9999 -9999 -9999 -9999 -9999 -9999 -9999 -9999 -9999 -9999 -9999 -9999 -9999 -9999 -9999 -9999 -9999 -9999 -9999 -9999 -9999 -9999 -9999 -9999 -9999 -9999 -9999 -9999 -9999 -9999 -9999 605.3627 603.9822 602.8585 601.473 599.5752 597.5381 595.6905 594.6599 594.1421 593.8523 593.6485 593.4768 593.3116 593.146 593.0015 592.9988 592.9071 592.8406 592.7357 592.6613 592.6316 592.6191 592.5811 592.4965 592.382 592.2789 592.1968 591.9676 591.5403 590.8757 590.3212 591.5029 592.8138 594.7307 597.3296 600.4232 604.0766 607.2724 607.6137 604.5828 600.9298 598.5256 596.9756 596.0569 595.5518 595.2432 594.9282 594.76 594.8903 595.0482 596.9953 600.3965 602.7761 603.7045 602.4736 600.4715 599.072 598.0092 597.0565 596.3035 595.7695 595.3634 594.9783 594.5638 594.1113 593.574 593.0042 592.4569 591.9167 591.3599 590.9382 590.5712 590.0789 589.344 588.493 586.9932 585.2401 583.5934 582.1978 581.1155 580.3665 579.8533 579.5691 579.3765 579.1277 578.9006 578.7334 578.6425 578.6104 578.7211 578.92 579.2131 579.6588 580.3319 581.2612 582.3594 582.9822 582.6169 581.6911 581.2039 581.0472 581.0378 581.1086 581.2928 581.9562 582.8485 583.8959 584.9067 585.6561 586.3762 587.075 587.7589 588.4078 588.9976 589.4954 589.9536 590.4551 590.9883 591.4801 591.7347 591.5771 591.451 591.1331 590.437 589.311 587.614 585.1089 581.9023 578.2062 574.1604 569.9425 565.9901 562.5385 559.7627 557.5315 555.9149 554.946 554.4317 554.486 555.2171 556.943 559.5298 562.6174 566.0336 569.4957 572.6766 575.571 578.4762 581.7529 585.451 589.2688 593.2628 597.5562 602.2259 607.2192 611.906 615.4745 617.4051 617.8356 617.2167 -9999 -9999 -9999 -9999 -9999 -9999 -9999 -9999 -9999 -9999 -9999 -9999 -9999 -9999 -9999 -9999 -9999 -9999 -9999 -9999 -9999 -9999 -9999 -9999 -9999 -9999 -9999 -9999 -9999 -9999 -9999 -9999 -9999 -9999 -9999 -9999 -9999 -9999 -9999 -9999 -9999 -9999 -9999 -9999 -9999 -9999 -9999 -9999 -9999 -9999 -9999 -9999 -9999 -9999 -9999 -9999 -9999 -9999 -9999 -9999 -9999
-9999 -9999 -9999 -9999 -9999 -9999 -9999 -9999 -9999 -9999 -9999 -9999 -9999 -9999 -9999 -9999 -9999 -9999 -9999 -9999 -9999 -9999 -9999 -9999 -9999 -9999 -9999 -9999 -9999 -9999 -9999 -9999 -9999 -9999 -9999 -9999 -9999 -9999 -9999 -9999 -9999 -9999 -9999 -9999 -9999 -9999 604.1578 602.9518 601.8553 600.3373 598.4367 596.5621 595.0574 594.1837 593.7319 593.5045 593.3637 593.2474 593.1283 592.9997 592.8766 592.8297 592.7569 592.6655 592.5438 592.4432 592.3896 592.3602 592.3015 592.1769 591.991 591.7708 591.5065 591.1426 590.7343 590.5091 591.2532 592.6041 593.7918 595.2275 597.0084 599.1742 601.965 605.9218 607.9174 605.6807 602.243 600.1975 598.637 597.6602 597.1378 596.8589 596.7123 596.588 597.0131 595.7316 596.6129 599.4161 600.9351 600.7226 599.3204 598.3092 597.4332 596.6985 596.0608 595.5309 595.1188 594.777 594.425 594.0234 593.5598 593.0039 592.3965 591.8196 591.3052 590.7988 590.3826 589.9797 589.4562 588.5048 587.0153 585.2617 583.5973 582.2017 581.2355 580.6195 580.0631 579.5479 579.2002 578.967 578.7499 578.5555 578.386 578.2749 578.2365 578.3083 578.4741 578.7147 579.0469 579.5311 580.1771 580.8792 581.144 580.8948 580.2657 579.847 579.7021 579.7709 580.0266 580.3087 580.9749 581.901 583.0632 584.2044 585.0782 585.8949 586.6226 587.3046 587.9487 588.5339 589.0463 589.5869 590.1534 590.7707 591.2635 591.4188 590.9716 590.699 590.3683 589.7087 588.3604 585.9929 582.9109 579.3721 575.413 571.28 567.202 563.5615 560.5764 558.2458 556.5363 555.1566 554.4967 554.4106 555.0864 556.5736 558.9043 561.8498 565.1937 568.6783 572.061 575.1741 578.196 581.4005 584.8774 588.6074 592.493 596.5999 600.957 605.5582 609.8989 613.389 615.773 616.7743 616.4824 -9999 -9999 -9999 -9999 -9999 -9999 -9999 -9999 -9999 -9999 -9999 -9999 -9999 -9999 -9999 -9999 -9999 -9999 -9999 -9999 -9999 -9999 -9999 -9999 -9999 -9999 -9999 -9999 -9999 -9999 -9999 -9999 -9999 -9999 -9999 -9999 -9999 -9999 -9999 -9999 -9999 -9999 -9999 -9999 -9999 -9999 -9999 -9999 -9999 -9999 -9999 -9999 -9999 -9999 -9999 -9999 -9999 -9999 -9999 -9999 -9999 -9999
-9999 -9999 -9999 -9999 -9999 -9999 -9999 -9999 -9999 -9999 -9999 -9999 -9999 -9999 -9999 -9999 -9999 -9999 -9999 -9999 -9999 -9999 -9999 -9999 -9999 -9999 -9999 -9999 -9999 -9999 -9999 -9999 -9999 -9999 -9999 -9999 -9999 -9999 -9999 -9999 -9999 -9999 -9999 -9999 -9999 604.7281 603.0765 601.9232 600.7502 599.2438 597.3002 595.4718 594.3627 593.7267 593.4006 593.2426 593.1639 593.0868 592.9999 592.8782 592.7515 592.6642 592.5872 592.4891 592.3522 592.2219 592.1358 592.0798 592.0002 591.8521 591.6348 591.3777 591.0977 590.8025 590.6818 591.2283 592.4709 593.3483 594.281 595.322 596.4819 597.8286 600.0262 604.1529 606.9668 606.3715 604.4915 602.5706 600.6 599.431 598.7761 598.3686 598.3031 597.7778 599.5338 596.9738 595.4954 597.2352 597.9072 598.4998 598.3591 597.4456 596.5935 595.9161 595.3855 594.9532 594.5885 594.2729 593.9304 593.5095 593.0009 592.3833 591.6844 590.9968 590.4338 590.0444 589.6398 589.0767 588.4192 587.0286 585.3236 583.6398 582.1935 581.2211 581.1183 580.5126 579.9114 579.3649 578.9308 578.6194 578.3785 578.1921 578.0491 577.9521 577.903 577.9218 578.0417 578.2153 578.4343 578.7231 579.0875 579.4366 579.5508 579.3716 579.0083 578.7306 578.6293 578.7279 579.0496 579.5008 580.2185 581.1811 582.5099 583.9014 584.9543 585.6801 586.3328 586.9774 587.624 588.2708 588.9376 589.3708 589.8608 590.5227 591.0021 591.0879 590.6731 590.1101 589.3925 588.6183 586.9421 584.3804 580.9794 577.0109 572.7686 568.5684 564.6629 561.3736 558.838 556.999 555.7367 554.9508 554.5731 554.8673 556.242 558.5987 561.2953 564.5308 567.9962 571.4805 574.8121 578.0358 581.3178 584.7267 588.2983 592.0558 596.0305 600.2715 604.6922 608.7891 612.0539 614.0592 615.3074 615.8347 -9999 -9999 -9999 -9999 -9999 -9999 -9999 -9999 -9999 -9999 -9999 -9999 -9999 -9999 -9999 -9999 -9999 -9999 -9999 -9999 -9999 -9999 -9999 -9999 -9999 -9999 -9999 -9999 -9999 -9999 -9999 -9999 -9999 -9999 -9999 -9999 -9999 -9999 -9999 -9999 -9999 -9999 -9999 -9999 -9999 -9999 -9999 -9999 -9999 -9999 -9999 -9999 -9999 -9999 -9999 -9999 -9999 -9999 -9999 -9999 -9999 -9999 -9999
-9999 -9999 -9999 -9999 -9999 -9999 -9999 -9999 -9999 -9999 -9999 -9999 -9999 -9999 -9999 -9999 -9999 -9999 -9999 -9999 -9999 -9999 -9999 -9999 -9999 -9999 -9999 -9999 -9999 -9999 -9999 -9999 -9999 -9999 -9999 -9999 -9999 -9999 -9999 -9999 -9999 -9999 -9999 -9999 -9999 603.5768 602.0239 600.7949 599.4775 597.7444 595.8576 594.5959 593.8196 593.3893 593.1725 593.0839 593.0409 593.0001 592.916 592.7946 592.6505 592.5219 592.4221 592.3203 592.1761 592.0187 591.8955 591.807 591.7086 591.5551 591.3492 591.1378 590.9681 590.8401 591.0352 591.7579 592.8544 593.4343 594.1811 595.0208 595.8416 596.804 598.5518 602.1848 605.2498 605.9421 605.0684 603.85 602.5372 601.3525 600.271 599.2591 599.8155 597.2425 597.0258 596.0659 595.3425 595.9885 596.566 597.1855 597.4481 596.8208 596.0753 595.4288 594.9182 594.5184 594.1663 593.8313 593.4662 592.999 592.4095 591.6829 590.8268 589.9424 589.1678 588.8752 588.5872 587.8181 586.7924 585.3293 583.7725 582.2565 581.1149 580.5505 580.4421 580.1376 579.6499 579.153 578.7092 578.3459 578.0589 577.8456 577.7122 577.6515 577.5939 577.5155 577.5662 577.6611 577.765 577.8822 578.0254 578.15 578.1796 578.0854 577.9154 577.7767 577.725 577.8286 578.2166 578.8763 579.7574 580.8904 582.223 583.8967 584.9167 585.5387 586.1277 586.7325 587.3471 587.9619 588.5355 589.0565 589.7014 590.2546 590.7089 590.7709 590.3558 589.6379 588.6556 587.226 585.2451 582.5278 578.9553 574.6368 570.1408 565.9362 562.2849 559.511 557.4372 556.0525 555.1913 554.8236 554.9536 555.6666 557.7905 560.962 563.8234 567.241 570.7482 574.2696 577.786 581.2553 584.7185 588.2194 591.8586 595.7894 600.0759 604.363 608.299 611.4282 613.4863 613.9872 614.1078 -9999 -9999 -9999 -9999 -9999 -9999 -9999 -9999 -9999 -9999 -9999 -9999 -9999 -9999 -9999 -9999 -9999 -9999 -9999 -9999 -9999 -9999 -9999 -9999 -9999 -9999 -9999 -9999 -9999 -9999 -9999 -9999 -9999 -9999 -9999 -9999 -9999 -9999 -9999 -9999 -9999 -9999 -9999 -9999 -9999 -9999 -9999 -9999 -9999 -9999 -9999 -9999 -9999 -9999 -9999 -9999 -9999 -9999 -9999 -9999 -9999 -9999 -9999 -9999
-9999 -9999 -9999 -9999 -9999 -9999 -9999 -9999 -9999 -9999 -9999 -9999 -9999 -9999 -9999 -9999 -9999 -9999 -9999 -9999 -9999 -9999 -9999 -9999 -9999 -9999 -9999 -9999 -9999 -9999 -9999 -9999 -9999 -9999 -9999 -9999 -9999 -9999 -9999 -9999 -9999 -9999 -9999 -9999 -9999 602.2106 600.8994 599.5857 598.0253 596.3519 594.9895 594.0615 593.5078 593.2144 593.0787 593.0224 593.0138 592.9999 592.8936 592.7506 592.5884 592.4199 592.2821 592.1664 592.0223 591.847 591.6911 591.5713 591.4575 591.3109 591.1343 591.0005 590.9849 590.9683 591.2378 591.8501 592.5936 593.077 593.8809 594.7385 595.553 596.4775 598.0544 600.6807 603.4818 604.6793 604.2655 603.3344 602.1771 601.0919 600.1846 598.9482 597.6994 596.2916 595.774 595.3093 595.1021 595.4261 595.8269 596.3483 596.6655 596.3022 595.6843 595.0775 594.5626 594.1515 593.7791 593.4207 592.996 592.4353 591.723 590.8485 589.8025 588.6569 587.5873 587.1118 586.8358 586.2451 585.201 583.9171 582.5474 581.2764 580.5069 580.0704 579.8636 579.6172 579.2693 578.8572 578.4763 578.1152 577.7921 577.5119 577.3693 577.3497 577.2806 577.0233 576.9762 576.9719 576.9793 576.9866 576.9976 577.0182 577.0336 577.0143 576.9946 576.9846 576.9819 577.0378 577.5275 578.425 579.4545 580.6328 581.9654 584.1353 584.7902 585.4115 586.0111 586.5912 587.1774 587.7904 588.3904 589.0029 589.6008 590.0906 590.3716 590.3246 589.8036 588.8414 587.3824 585.6073 583.4634 580.5468 576.6458 572.1179 567.5336 563.4538 560.3346 558.11 556.6348 555.5264 555.0201 555.0837 555.7433 557.1199 559.5699 562.7681 566.1811 569.887 573.6606 577.412 581.0984 584.6807 588.1797 591.6907 595.4673 599.6815 604.1072 607.866 610.8637 612.9243 613.9859 613.6323 612.5399 -9999 -9999 -9999 -9999 -9999 -9999 -9999 -9999 -9999 -9999 -9999 -9999 -9999 -9999 -9999 -9999 -9999 -9999 -9999 -9999 -9999 -9999 -9999 -9999 -9999 -9999 -9999 -9999 -9999 -9999 -9999 -9999 -9999 -9999 -9999 -9999 -9999 -9999 -9999 -9999 -9999 -9999 -9999 -9999 -9999 -9999 -9999 -9999 -9999 -9999 -9999 -9999 -9999 -9999 -9999 -9999 -9999 -9999 -9999 -9999 -9999 -9999 -9999 -9999
-9999 -9999 -9999 -9999 -9999 -9999 -9999 -9999 -9999 -9999 -9999 -9999 -9999 -9999 -9999 -9999 -9999 -9999 -9999 -9999 -9999 -9999 -9999 -9999 -9999 -9999 -9999 -9999 -9999 -9999 -9999 -9999 -9999 -9999 -9999 -9999 -9999 -9999 -9999 -9999 -9999 -9999 -9999 -9999 602.2966 601.1499 600.0062 598.4323 596.8651 595.4445 594.4453 593.7866 593.3969 593.1928 593.0889 593.0408 593.0209 592.9999 592.8867 592.7333 592.5592 592.3641 592.1824 592.0361 591.8893 591.7093 591.5323 591.3913 591.2731 591.1444 591.0006 590.9282 590.9343 591.0004 591.2902 591.803 592.4218 593.0132 593.7521 594.627 595.5109 596.4572 597.7488 599.5944 601.9905 603.2006 602.8628 601.6153 600.0521 598.3386 597.3818 596.913 596.1685 595.2932 594.8386 594.6816 594.7484 595.1121 595.4293 595.7574 596.0186 595.7795 595.3267 594.772 594.2692 593.8301 593.3952 592.9971 592.4777 591.7834 590.897 589.8188 588.5247 586.9962 585.7292 585.2631 585.122 584.8248 583.9331 582.8326 581.7572 580.9371 580.2882 579.8124 579.4849 579.184 578.8567 578.5038 578.1746 577.871 577.5862 577.2772 577.0143 576.9935 576.9153 576.4476 576.1193 575.9773 575.955 575.9701 576.0026 576.0729 576.1793 576.1898 576.23 576.3072 576.428 576.6392 577.0969 578.1545 579.355 580.7129 582.1959 584.3885 585.1776 585.612 586.139 586.6229 587.1437 587.7295 588.3666 588.9741 589.4198 589.8628 589.9636 589.7046 588.9495 587.6939 585.9406 584.0712 581.6709 578.4578 574.212 569.5515 565.1961 561.5808 558.8059 556.9973 555.8975 555.2733 555.2286 555.8356 557.0996 559.0994 561.9013 565.3618 569.1163 573.0419 576.9883 580.8506 584.5705 588.1203 591.5605 595.1003 599.0397 603.2953 607.2349 609.8248 611.7689 613.0461 613.5089 613.1703 -9999 -9999 -9999 -9999 -9999 -9999 -9999 -9999 -9999 -9999 -9999 -9999 -9999 -9999 -9999 -9999 -9999 -9999 -9999 -9999 -9999 -9999 -9999 -9999 -9999 -9999 -9999 -9999 -9999 -9999 -9999 -9999 -9999 -9999 -9999 -9999 -9999 -9999 -9999 -9999 -9999 -9999 -9999 -9999 -9999 -9999 -9999 -9999 -9999 -9999 -9999 -9999 -9999 -9999 -9999 -9999 -9999 -9999 -9999 -9999 -9999 -9999 -9999 -9999 -9999
-9999 -9999 -9999 -9999 -9999 -9999 -9999 -9999 -9999 -9999 -9999 -9999 -9999 -9999 -9999 -9999 -9999 -9999 -9999 -9999 -9999 -9999 -9999 -9999 -9999 -9999 -9999 -9999 -9999 -9999 -9999 -9999 -9999 -9999 -9999 -9999 -9999 -9999 -9999 -9999 -9999 -9999 -9999 -9999 601.3368 600.6084 599.7444 598.0035 596.1833 594.973 594.1892 593.7122 593.4323 593.2753 593.1749 593.1003 593.0481 592.9999 592.8942 592.7407 592.5581 592.3485 592.129 591.9387 591.7733 591.5966 591.4131 591.265 591.158 591.0714 590.9997 590.9164 590.9126 591.0005 591.2749 591.7193 592.2925 592.9495 593.5883 594.5166 595.4641 596.4557 597.488 598.6464 599.9254 600.9904 600.8004 599.1063 597.287 596.1635 595.5288 595.2065 594.8884 594.4651 594.1625 594.1171 594.3412 594.6868 595.0691 595.2936 595.4063 595.2661 594.9046 594.4521 594.002 593.5656 593.0392 592.579 591.9141 591.0135 589.8923 588.543 586.9233 585.4031 584.4775 584.0179 583.843 583.576 582.8109 581.8817 581.0348 580.4403 580.0281 579.5963 579.2151 578.86 578.507 578.1478 577.801 577.5349 577.3301 576.9838 576.5947 576.3176 576.0028 575.498 575.0491 574.8473 574.8557 574.9522 575.0685 575.215 575.4061 575.5048 575.6518 575.8653 576.1622 576.5586 577.0276 577.5466 579.1871 581.0186 583.0187 584.8802 585.7968 586.2614 586.6137 586.8825 587.2569 587.7539 588.3357 588.8402 589.0361 589.5419 589.4918 588.9305 587.9022 586.5208 584.7843 582.6042 579.7704 576.0411 571.601 567.0569 563.1835 560.2911 557.7316 556.3237 555.6404 555.4755 555.9492 557.1428 559.0773 561.6816 564.9428 568.6448 572.554 576.5581 580.5505 584.3875 588.0234 591.4821 594.9295 598.4916 602.2785 605.6003 608.8316 609.822 611.2662 611.7485 611.5106 -9999 -9999 -9999 -9999 -9999 -9999 -9999 -9999 -9999 -9999 -9999 -9999 -9999 -9999 -9999 -9999 -9999 -9999 -9999 -9999 -9999 -9999 -9999 -9999 -9999 -9999 -9999 -9999 -9999 -9999 -9999 -9999 -9999 -9999 -9999 -9999 -9999 -9999 -9999 -9999 -9999 -9999 -9999 -9999 -9999 -9999 -9999 -9999 -9999 -9999 -9999 -9999 -9999 -9999 -9999 -9999 -9999 -9999 -9999 -9999 -9999 -9999 -9999 -9999 -9999 -9999
-9999 -9999 -9999 -9999 -9999 -9999 -9999 -9999 -9999 -9999 -9999 -9999 -9999 -9999 -9999 -9999 -9999 -9999 -9999 -9999 -9999 -9999 -9999 -9999 -9999 -9999 -9999 -9999 -9999 -9999 -9999 -9999 -9999 -9999 -9999 -9999 -9999 -9999 -9999 -9999 -9999 -9999 -9999 -9999 600.9111 600.3852 599.6938 597.8378 595.7822 594.675 594.0789 593.7462 593.5409 593.4042 593.2913 593.1829 593.0864 593.0002 592.9241 592.7738 592.5817 592.3635 592.1166 591.8813 591.678 591.4937 591.3143 591.1676 591.0718 591 590.9402 590.889 590.9031 591.0004 591.2184 591.5723 592.0488 592.5898 593.1512 594.192 595.1586 596.0795 596.9417 597.7999 598.6423 599.136 598.6183 596.8232 595.5275 594.701 594.2396 594.0444 593.9543 593.8208 593.6796 593.6853 593.9229 594.2705 594.5841 594.8203 594.8975 594.8016 594.5334 594.1597 593.756 593.3461 592.9556 592.2565 591.3164 590.1106 588.6489 586.9241 585.2477 583.9966 583.3369 582.9449 582.7407 582.4502 581.8154 581.0421 580.3903 579.9081 579.5412 579.222 578.9036 578.5541 578.1917 577.8168 577.4141 577.0375 576.8621 576.3213 575.8218 575.3951 574.9941 574.4513 573.9568 573.7794 573.8615 574.0654 574.2917 574.5054 574.7086 575.026 575.3398 575.6916 576.0882 576.5544 577.1677 578.1921 579.8796 581.8256 584.0632 585.6464 586.5751 587.0688 587.3447 587.4543 587.5477 587.899 588.4531 588.9866 589.1819 589.2414 588.8901 587.9042 586.6359 585.1969 583.4556 581.0302 577.6516 573.4851 568.9315 564.7104 561.699 559.6441 557.3512 556.2444 555.9687 556.2118 557.22 559.0671 561.6225 564.8085 568.4249 572.2796 576.2241 580.2013 584.147 587.8658 591.3935 594.8916 598.5007 601.9177 604.7951 606.1661 609.4996 611.4987 610.6704 609.3459 -9999 -9999 -9999 -9999 -9999 -9999 -9999 -9999 -9999 -9999 -9999 -9999 -9999 -9999 -9999 -9999 -9999 -9999 -9999 -9999 -9999 -9999 -9999 -9999 -9999 -9999 -9999 -9999 -9999 -9999 -9999 -9999 -9999 -9999 -9999 -9999 -9999 -9999 -9999 -9999 -9999 -9999 -9999 -9999 -9999 -9999 -9999 -9999 -9999 -9999 -9999 -9999 -9999 -9999 -9999 -9999 -9999 -9999 -9999 -9999 -9999 -9999 -9999 -9999 -9999 -9999 -9999
-9999 -9999 -9999 -9999 -9999 -9999 -9999 -9999 -9999 -9999 -9999 -9999 -9999 -9999 -9999 -9999 -9999 -9999 -9999 -9999 -9999 -9999 -9999 -9999 -9999 -9999 -9999 -9999 -9999 -9999 -9999 -9999 -9999 -9999 -9999 -9999 -9999 -9999 -9999 -9999 -9999 -9999 -9999 601.5198 600.8935 600.2922 599.6356 597.683 595.5004 594.5321 594.0795 593.8345 593.6649 593.525 593.3975 593.2681 593.1525 593.0654 592.9995 592.8341 592.6265 592.3965 592.1355 591.8608 591.6125 591.4005 591.2206 591.0801 590.9999 590.9342 590.8843 590.8568 590.891 590.9994 591.1324 591.4035 591.8019 592.3158 592.9474 593.7019 594.5746 595.4645 596.2935 597.0055 597.5751 597.7418 596.778 595.5597 594.549 593.8912 593.5237 593.3444 593.344 593.3522 593.3228 593.3357 593.5294 593.8262 594.1025 594.2929 594.3826 594.3557 594.1708 593.8783 593.4998 593.0342 592.597 591.7983 590.6216 589.0726 587.1656 585.2369 583.6384 582.5502 582.0896 581.9164 581.7964 581.577 581.0271 580.4069 579.832 579.3737 579.0338 578.7509 578.4903 578.172 577.8208 577.4382 576.9827 576.4201 575.8812 575.2378 574.7042 574.2604 573.9891 573.5347 573.0598 573.0075 573.1942 573.4922 573.8601 574.2349 574.6191 575.0691 575.5175 576.0251 576.585 577.3043 578.3567 579.5493 581.2135 583.1636 585.0616 586.4951 587.4041 587.902 588.1915 588.2156 588.0795 588.1434 588.5786 589.0039 589.1909 588.8882 587.8791 586.5082 585.0969 583.8009 582.1183 579.5377 575.7097 571.163 566.5418 562.6337 560.1044 558.4323 557.0323 556.5183 556.8167 557.4645 559.0829 561.4955 564.6039 568.1872 572.0413 576.0092 580.0043 583.9611 587.7243 591.2794 594.8201 598.4985 602.2166 605.5434 607.778 608.5057 609.6707 609.7052 607.8699 -9999 -9999 -9999 -9999 -9999 -9999 -9999 -9999 -9999 -9999 -9999 -9999 -9999 -9999 -9999 -9999 -9999 -9999 -9999 -9999 -9999 -9999 -9999 -9999 -9999 -9999 -9999 -9999 -9999 -9999 -9999 -9999 -9999 -9999 -9999 -9999 -9999 -9999 -9999 -9999 -9999 -9999 -9999 -9999 -9999 -9999 -9999 -9999 -9999 -9999 -9999 -9999 -9999 -9999 -9999 -9999 -9999 -9999 -9999 -9999 -9999 -9999 -9999 -9999 -9999 -9999 -9999 -9999
-9999 -9999 -9999 -9999 -9999 -9999 -9999 -9999 -9999 -9999 -9999 -9999 -9999 -9999 -9999 -9999 -9999 -9999 -9999 -9999 -9999 -9999 -9999 -9999 -9999 -9999 -9999 -9999 -9999 -9999 -9999 -9999 -9999 -9999 -9999 -9999 -9999 -9999 -9999 -9999 -9999 -9999 -9999 601.6887 601.1966 600.5617 599.5681 597.4603 595.4211 594.5739 594.1882 593.9539 593.7719 593.6074 593.4604 593.3208 593.1952 593.0924 593 592.8735 592.6813 592.4416 592.1726 591.8702 591.5788 591.3295 591.1367 591.0004 590.9297 590.874 590.8351 590.8174 590.8431 590.9141 591.0019 591.2286 591.5492 591.963 592.4724 593.0371 593.7915 594.6495 595.48 596.1773 596.6267 596.6724 595.9048 594.9326 594.0588 593.4842 593.175 593.0018 592.9965 592.9991 592.9988 593.0076 593.2102 593.3829 593.6368 593.787 593.8556 593.8671 593.7771 593.5927 593.3154 592.9666 592.2975 591.2928 589.8819 588.0645 585.7421 583.7365 582.2001 581.2227 581.0018 580.9995 581.0085 580.9325 580.4348 579.881 579.351 578.8978 578.5454 578.2729 578.0244 577.7408 577.4059 576.988 576.4166 575.7096 574.9352 574.1581 573.5841 573.1198 573.0353 572.9999 572.8343 572.8196 573.0003 573.3623 573.8621 574.4283 575.032 575.6702 576.2731 577.0405 577.843 578.9409 580.1748 581.2454 582.8749 584.6487 586.2109 587.4237 588.2155 588.6147 588.9661 588.9627 588.6357 588.5261 588.7913 589.0005 588.9225 587.9824 586.4834 584.7743 583.2803 582.2542 580.6877 577.8256 573.6522 569.0116 564.6145 561.0965 558.882 557.6295 556.9824 557.0574 557.9137 559.2809 561.4053 564.2531 567.6672 571.5028 575.5748 579.7372 583.8254 587.6618 591.2553 594.7911 598.4952 602.2173 606.0067 608.8575 610.0129 609.7595 609.0308 607.0636 -9999 -9999 -9999 -9999 -9999 -9999 -9999 -9999 -9999 -9999 -9999 -9999 -9999 -9999 -9999 -9999 -9999 -9999 -9999 -9999 -9999 -9999 -9999 -9999 -9999 -9999 -9999 -9999 -9999 -9999 -9999 -9999 -9999 -9999 -9999 -9999 -9999 -9999 -9999 -9999 -9999 -9999 -9999 -9999 -9999 -9999 -9999 -9999 -9999 -9999 -9999 -9999 -9999 -9999 -9999 -9999 -9999 -9999 -9999 -9999 -9999 -9999 -9999 -9999 -9999 -9999 -9999 -9999 -9999
-9999 -9999 -9999 -9999 -9999 -9999 -9999 -9999 -9999 -9999 -9999 -9999 -9999 -9999 -9999 -9999 -9999 -9999 -9999 -9999 -9999 -9999 -9999 -9999 -9999 -9999 -9999 -9999 -9999 -9999 -9999 -9999 -9999 -9999 -9999 -9999 -9999 -9999 -9999 -9999 -9999 -9999 -9999 602.7266 602.063 601.0664 599.4795 597.0545 595.5462 594.7827 594.3717 594.0809 593.8409 593.6378 593.4673 593.3269 593.2056 593.1008 593.0002 592.9214 592.7545 592.5115 592.2241 591.905 591.5736 591.2869 591.0847 590.9995 590.8966 590.8323 590.7981 590.7894 590.8134 590.8853 590.9993 591.1156 591.3321 591.6383 592.02 592.476 593.035 593.7739 594.5684 595.2466 595.6744 595.716 595.2148 594.4749 593.7579 593.2546 592.9942 592.7887 592.7178 592.7053 592.7296 592.8109 592.9936 593.0121 593.2355 593.3447 593.3793 593.4155 593.3697 593.2761 593.0078 592.6083 591.835 590.6379 588.9675 586.7701 584.4567 582.472 581.1824 580.5381 580.343 580.3276 580.3206 580.1989 579.8218 579.3472 578.8906 578.4771 578.1289 577.8466 577.5985 577.3315 576.9987 576.5267 575.8917 575.0922 574.2084 573.4119 573.0109 572.8456 572.8588 572.9993 572.9979 572.9999 573.1941 573.6304 574.2762 575.0416 575.8805 576.7775 577.5585 578.775 579.9896 580.8838 581.7509 582.7141 584.316 585.8199 587.2229 588.2865 588.9424 589.0624 589.3252 589.2971 589.0195 588.9958 589.0001 588.9289 588.1362 586.7113 584.8548 582.8114 581.3343 580.8013 579.3085 575.9727 571.5566 566.892 562.8027 559.8716 558.1123 557.3704 557.3993 558.1416 559.5455 561.4864 564.0341 567.0445 570.5795 574.633 579.035 583.4414 587.54 591.2928 594.8865 598.5488 602.3666 606.1699 609.3956 611.2928 611.2386 609.6779 607.1599 -9999 -9999 -9999 -9999 -9999 -9999 -9999 -9999 -9999 -9999 -9999 -9999 -9999 -9999 -9999 -9999 -9999 -9999 -9999 -9999 -9999 -9999 -9999 -9999 -9999 -9999 -9999 -9999 -9999 -9999 -9999 -9999 -9999 -9999 -9999 -9999 -9999 -9999 -9999 -9999 -9999 -9999 -9999 -9999 -9999 -9999 -9999 -9999 -9999 -9999 -9999 -9999 -9999 -9999 -9999 -9999 -9999 -9999 -9999 -9999 -9999 -9999 -9999 -9999 -9999 -9999 -9999 -9999 -9999 -9999
-9999 -9999 -9999 -9999 -9999 -9999 -9999 -9999 -9999 -9999 -9999 -9999 -9999 -9999 -9999 -9999 -9999 -9999 -9999 -9999 -9999 -9999 -9999 -9999 -9999 -9999 -9999 -9999 -9999 -9999 -9999 -9999 -9999 -9999 -9999 -9999 -9999 -9999 -9999 -9999 -9999 -9999 -9999 604.8644 603.7267 602.0281 599.7385 597.1396 595.8175 595.0548 594.5559 594.1748 593.8621 593.6179 593.4316 593.2944 593.194 593.1169 593.0547 592.9995 592.8397 592.6074 592.3047 591.9629 591.6007 591.2597 591.0007 590.9073 590.8372 590.7957 590.7745 590.7724 590.7948 590.8461 590.9247 591.001 591.1672 591.381 591.6606 592.0187 592.4727 593.0329 593.7099 594.3298 594.701 594.7706 594.5128 593.9846 593.4163 592.9995 592.7371 592.558 592.4745 592.4557 592.4966 592.5858 592.7205 592.8158 592.9943 593.0018 593.0052 593.0887 593.0059 592.9973 592.7385 592.2197 591.2941 589.8699 587.9334 585.3725 583.0144 581.3583 580.704 580.2316 579.9942 579.879 579.7844 579.6066 579.2784 578.8669 578.4423 578.0736 577.7653 577.4991 577.2544 577.0006 576.6885 576.214 575.5549 574.7133 573.778 573.0244 572.9999 572.9985 573.0009 573.1186 573.2157 573.3468 573.6543 574.2003 575.0281 576.0051 577.0643 578.1614 579.3295 580.6992 581.8223 582.5494 583.1075 583.8224 585.022 586.5583 588.0278 589.0201 589.5719 589.7032 589.744 589.6255 589.3995 589.2382 588.9374 588.1694 586.9044 585.1913 583.2331 581.2244 580.4539 579.9243 577.7831 573.8351 569.2158 564.801 561.2743 559.0472 557.8525 557.6677 558.3258 559.7018 561.6765 564.1058 566.8527 570.0516 573.7968 578.0131 582.5732 587.0712 591.1844 595.0233 598.747 602.3267 606.0615 609.2543 611.3909 612.1263 611.1179 608.4098 -9999 -9999 -9999 -9999 -9999 -9999 -9999 -9999 -9999 -9999 -9999 -9999 -9999 -9999 -9999 -9999 -9999 -9999 -9999 -9999 -9999 -9999 -9999 -9999 -9999 -9999 -9999 -9999 -9999 -9999 -9999 -9999 -9999 -9999 -9999 -9999 -9999 -9999 -9999 -9999 -9999 -9999 -9999 -9999 -9999 -9999 -9999 -9999 -9999 -9999 -9999 -9999 -9999 -9999 -9999 -9999 -9999 -9999 -9999 -9999 -9999 -9999 -9999 -9999 -9999 -9999 -9999 -9999 -9999 -9999 -9999
-9999 -9999 -9999 -9999 -9999 -9999 -9999 -9999 -9999 -9999 -9999 -9999 -9999 -9999 -9999 -9999 -9999 -9999 -9999 -9999 -9999 -9999 -9999 -9999 -9999 -9999 -9999 -9999 -9999 -9999 -9999 -9999 -9999 -9999 -9999 -9999 -9999 -9999 -9999 -9999 -9999 -9999 -9999 607.1263 605.5545 603.2365 600.2728 597.3621 596.0687 595.2446 594.6567 594.1869 593.8267 593.563 593.3742 593.2432 593.1636 593.1135 593.068 593.0002 592.9003 592.7168 592.4226 592.0648 591.6823 591.3094 591.0023 590.8905 590.8226 590.7968 590.7794 590.7766 590.7938 590.8358 590.9042 590.9996 591.0881 591.2129 591.402 591.675 592.0455 592.5057 593.0284 593.5551 593.8025 593.8481 593.7283 593.4417 593.0127 592.7125 592.4982 592.3469 592.2678 592.2484 592.2845 592.3687 592.4747 592.5707 592.6899 592.7548 592.8502 592.9968 592.9022 592.783 592.4642 591.835 590.7204 589.0088 586.6082 583.9618 581.6981 580.5838 580.2712 580.0005 579.7621 579.5587 579.374 579.1479 578.8362 578.4614 578.0688 577.7142 577.4371 577.2142 577.0004 576.7908 576.5305 576.1272 575.5164 574.6919 573.7652 573.0311 573.0483 573.1686 573.2888 573.4451 573.6071 573.8569 574.299 575.0266 576.0641 577.2928 578.601 579.7664 581.0599 582.4376 583.4773 583.9537 584.1539 584.5234 585.3822 587.0356 588.6928 589.6697 590.158 590.2155 590.0388 589.751 589.4055 588.9658 588.1779 586.9419 585.3447 583.4275 581.4327 580.3922 580.051 579.4483 576.3182 571.7231 566.919 562.8271 560.0247 558.4354 557.9775 558.4603 559.7609 561.7719 564.3528 567.0053 569.9792 573.4518 577.3757 581.6752 586.2557 590.7418 594.96 599.0059 602.7375 606.0572 608.5515 610.795 611.9617 611.5764 609.4848 -9999 -9999 -9999 -9999 -9999 -9999 -9999 -9999 -9999 -9999 -9999 -9999 -9999 -9999 -9999 -9999 -9999 -9999 -9999 -9999 -9999 -9999 -9999 -9999 -9999 -9999 -9999 -9999 -9999 -9999 -9999 -9999 -9999 -9999 -9999 -9999 -9999 -9999 -9999 -9999 -9999 -9999 -9999 -9999 -9999 -9999 -9999 -9999 -9999 -9999 -9999 -9999 -9999 -9999 -9999 -9999 -9999 -9999 -9999 -9999 -9999 -9999 -9999 -9999 -9999 -9999 -9999 -9999 -9999 -9999 -9999 -9999
-9999 -9999 -9999 -9999 -9999 -9999 -9999 -9999 -9999 -9999 -9999 -9999 -9999 -9999 -9999 -9999 -9999 -9999 -9999 -9999 -9999 -9999 -9999 -9999 -9999 -9999 -9999 -9999 -9999 -9999 -9999 -9999 -9999 -9999 -9999 -9999 -9999 -9999 -9999 -9999 -9999 -9999 -9999 608.8644 606.9614 604.1246 600.656 597.4463 595.7474 595.0903 594.5645 594.0972 593.7319 593.4837 593.3145 593.1978 593.1373 593.1149 593.0992 593.066 593 592.8538 592.5737 592.2167 591.8397 591.4759 591.175 590.9996 590.8853 590.8644 590.826 590.804 590.8109 590.8354 590.8784 590.9373 591.0001 591.0928 591.2206 591.4227 591.718 592.1025 592.5393 592.9537 593.018 593.0203 593.0136 592.9797 592.7168 592.4941 592.3299 592.2028 592.1187 592.0911 592.1105 592.1715 592.2487 592.3232 592.4019 592.4825 592.5988 592.7214 592.692 592.546 592.175 591.4612 590.2158 588.3143 585.4571 582.5585 580.7931 579.9734 579.7806 579.7448 579.5399 579.2838 579.0443 578.7875 578.4845 578.1384 577.7749 577.4385 577.1777 576.9997 576.8331 576.683 576.5095 576.2219 575.7476 575.0294 574.2004 573.5864 573.4894 573.6234 573.7922 573.972 574.203 574.5356 575.0908 576.0211 577.3577 578.9628 580.3968 581.4371 582.715 583.9443 584.8112 584.9703 584.848 584.9925 585.853 587.373 588.9534 590.0845 590.6132 590.5475 590.0835 589.5392 588.955 588.1649 587.0656 585.5319 583.6467 581.4904 580.3859 580.0085 580.0453 578.639 574.6993 569.6956 564.9755 561.3942 559.2202 558.2965 558.4805 559.6201 561.5886 564.2788 567.3281 570.1752 573.4496 577.1652 581.2313 585.5953 590.1387 594.623 598.9457 603.0338 606.5984 608.6924 608.9011 611.0542 611.3228 609.6841 -9999 -9999 -9999 -9999 -9999 -9999 -9999 -9999 -9999 -9999 -9999 -9999 -9999 -9999 -9999 -9999 -9999 -9999 -9999 -9999 -9999 -9999 -9999 -9999 -9999 -9999 -9999 -9999 -9999 -9999 -9999 -9999 -9999 -9999 -9999 -9999 -9999 -9999 -9999 -9999 -9999 -9999 -9999 -9999 -9999 -9999 -9999 -9999 -9999 -9999 -9999 -9999 -9999 -9999 -9999 -9999 -9999 -9999 -9999 -9999 -9999 -9999 -9999 -9999 -9999 -9999 -9999 -9999 -9999 -9999 -9999 -9999 -9999
-9999 -9999 -9999 -9999 -9999 -9999 -9999 -9999 -9999 -9999 -9999 -9999 -9999 -9999 -9999 -9999 -9999 -9999 -9999 -9999 -9999 -9999 -9999 -9999 -9999 -9999 -9999 -9999 -9999 -9999 -9999 -9999 -9999 -9999 -9999 -9999 -9999 -9999 -9999 -9999 -9999 -9999 -9999 610.3867 607.847 604.659 601.0195 597.6822 595.3806 594.5342 594.1375 593.9045 593.6084 593.4029 593.2626 593.1643 593.1304 593.1359 593.1475 593.1388 593.0979 592.9971 592.7213 592.3939 592.0466 591.7113 591.4108 591.1758 591.0024 590.9989 590.9095 590.8503 590.8442 590.8501 590.8635 590.8905 590.9301 591 591.0962 591.2355 591.4512 591.7366 592.0448 592.2911 592.3517 592.3737 592.4258 592.4748 592.4158 592.3318 592.2441 592.1461 592.0474 591.9824 591.9741 592.0002 592.0444 592.0854 592.1274 592.1895 592.2898 592.3942 592.3978 592.2548 591.8541 591.0677 589.7329 587.7437 584.8058 581.9056 580.3816 579.6649 579.4484 579.4081 579.2867 579.0139 578.7758 578.5035 578.2042 577.8854 577.5568 577.2487 577.0027 576.8561 576.7218 576.6294 576.5562 576.4041 576.095 575.5338 574.8236 574.2909 574.15 574.256 574.4667 574.7098 574.9862 575.3589 575.9677 577.1201 578.8573 580.6183 581.974 583.0592 584.0895 584.9318 585.2686 585.1855 584.9997 585.0369 586.0579 587.5741 589.1087 590.4406 590.9951 590.7365 589.8401 588.9784 588.0908 587.0728 585.8026 584.1467 582.0186 580.3179 579.9194 580.0111 580.1248 577.4532 572.9191 567.7551 563.2442 560.3628 558.8858 558.6356 559.4677 561.2155 563.7841 566.8001 570.0921 573.4623 577.1088 581.0505 585.2387 589.6431 594.179 598.6534 602.9078 606.9421 609.7864 610.6553 610.3098 611.4822 609.8343 -9999 -9999 -9999 -9999 -9999 -9999 -9999 -9999 -9999 -9999 -9999 -9999 -9999 -9999 -9999 -9999 -9999 -9999 -9999 -9999 -9999 -9999 -9999 -9999 -9999 -9999 -9999 -9999 -9999 -9999 -9999 -9999 -9999 -9999 -9999 -9999 -9999 -9999 -9999 -9999 -9999 -9999 -9999 -9999 -9999 -9999 -9999 -9999 -9999 -9999 -9999 -9999 -9999 -9999 -9999 -9999 -9999 -9999 -9999 -9999 -9999 -9999 -9999 -9999 -9999 -9999 -9999 -9999 -9999 -9999 -9999 -9999 -9999 -9999
-9999 -9999 -9999 -9999 -9999 -9999 -9999 -9999 -9999 -9999 -9999 -9999 -9999 -9999 -9999 -9999 -9999 -9999 -9999 -9999 -9999 -9999 -9999 -9999 -9999 -9999 -9999 -9999 -9999 -9999 -9999 -9999 -9999 -9999 -9999 -9999 -9999 -9999 -9999 -9999 -9999 -9999 -9999 611.3705 608.4767 605.1793 601.6362 598.3225 595.7786 594.6832 594.1357 593.7935 593.5028 593.3053 593.1957 593.1519 593.1614 593.1947 593.2212 593.2129 593.1465 593.0016 592.8251 592.5692 592.281 591.9935 591.7122 591.4566 591.2527 591.1357 591.0001 590.9079 590.9001 590.8825 590.8688 590.8699 590.8874 590.9294 591 591.1021 591.2445 591.429 591.6176 591.7468 591.7811 591.8162 591.9212 592.0751 592.1942 592.2639 592.2678 592.1941 592.0652 591.9363 591.858 591.8402 591.8491 591.8611 591.8717 591.9022 591.9727 592.0574 592.0719 591.9338 591.5112 590.6454 589.183 587.0436 584.3563 581.649 580.3839 579.7266 579.4123 579.2631 579.1063 578.8596 578.5934 578.3095 578.0009 577.6924 577.3984 577.1459 576.9969 576.7903 576.635 576.5703 576.5768 576.5533 576.3915 575.9953 575.4194 574.9785 574.8588 574.9542 575.1667 575.5064 575.9202 576.3074 576.8425 578.2203 580.1911 581.8053 583.1537 584.2546 584.9726 585.3179 585.2571 585.002 584.8368 585.0483 586.2873 587.8667 589.39 590.8441 591.2795 590.8582 589.3863 588.2423 587.1385 585.9435 584.5856 582.9241 581.0203 579.9583 580.0091 580.3672 579.5544 576.1185 571.2195 566.1824 562.1248 559.8848 559.0859 559.512 560.9641 563.2433 566.1952 569.6201 573.2601 576.9952 580.9129 585.0521 589.4092 593.9473 598.4119 602.5966 606.5225 609.9766 611.8136 612.0616 611.3727 609.9247 -9999 -9999 -9999 -9999 -9999 -9999 -9999 -9999 -9999 -9999 -9999 -9999 -9999 -9999 -9999 -9999 -9999 -9999 -9999 -9999 -9999 -9999 -9999 -9999 -9999 -9999 -9999 -9999 -9999 -9999 -9999 -9999 -9999 -9999 -9999 -9999 -9999 -9999 -9999 -9999 -9999 -9999 -9999 -9999 -9999 -9999 -9999 -9999 -9999 -9999 -9999 -9999 -9999 -9999 -9999 -9999 -9999 -9999 -9999 -9999 -9999 -9999 -9999 -9999 -9999 -9999 -9999 -9999 -9999 -9999 -9999 -9999 -9999 -9999 -9999
-9999 -9999 -9999 -9999 -9999 -9999 -9999 -9999 -9999 -9999 -9999 -9999 -9999 -9999 -9999 -9999 -9999 -9999 -9999 -9999 -9999 -9999 -9999 -9999 -9999 -9999 -9999 -9999 -9999 -9999 -9999 -9999 -9999 -9999 -9999 -9999 -9999 -9999 -9999 -9999 -9999 -9999 -9999 611.8957 609.0565 606.116 602.9462 599.8608 597.3076 595.9016 594.9611 594.2733 593.7714 593.453 593.2933 593.2489 593.2744 593.3221 593.3541 593.3447 593.2781 593.1536 592.9992 592.7805 592.5355 592.3103 592.0552 591.7913 591.5498 591.3478 591.1547 591.0016 590.9995 590.935 590.8895 590.8778 590.8753 590.8936 590.9343 591 591.0969 591.2103 591.3044 591.3461 591.3242 591.354 591.5112 591.7908 592.0916 592.3226 592.4177 592.3502 592.1646 591.9457 591.7705 591.6746 591.642 591.6388 591.6345 591.6418 591.6823 591.7432 591.7523 591.6152 591.1923 590.3007 588.8098 586.4843 583.9698 581.5143 580.5859 580.024 579.6143 579.33 579.09 578.813 578.5078 578.1936 577.8809 577.5696 577.2733 577.0026 576.8369 576.6493 576.5002 576.4532 576.5094 576.5741 576.5292 576.2769 575.8416 575.5195 575.4626 575.5592 575.7622 576.1913 576.8286 577.3036 577.6611 579.5983 581.0233 582.3398 583.6827 584.8489 585.2874 585.3043 585.0095 584.762 584.6988 585.1126 586.6457 588.3399 589.8796 591.0107 591.3602 590.8562 589.2073 587.7549 586.4446 585.0338 583.5739 582.5928 581.8014 580.2531 580.4655 580.6243 578.549 574.6285 569.7515 565.1929 561.7419 560.064 559.8668 560.9554 563.0112 565.8241 569.2358 572.9692 576.8174 580.723 584.7883 589.1092 593.7051 598.4722 602.726 606.3336 608.8105 611.6671 612.3097 611.5621 609.7402 -9999 -9999 -9999 -9999 -9999 -9999 -9999 -9999 -9999 -9999 -9999 -9999 -9999 -9999 -9999 -9999 -9999 -9999 -9999 -9999 -9999 -9999 -9999 -9999 -9999 -9999 -9999 -9999 -9999 -9999 -9999 -9999 -9999 -9999 -9999 -9999 -9999 -9999 -9999 -9999 -9999 -9999 -9999 -9999 -9999 -9999 -9999 -9999 -9999 -9999 -9999 -9999 -9999 -9999 -9999 -9999 -9999 -9999 -9999 -9999 -9999 -9999 -9999 -9999 -9999 -9999 -9999 -9999 -9999 -9999 -9999 -9999 -9999 -9999 -9999 -9999
-9999 -9999 -9999 -9999 -9999 -9999 -9999 -9999 -9999 -9999 -9999 -9999 -9999 -9999 -9999 -9999 -9999 -9999 -9999 -9999 -9999 -9999 -9999 -9999 -9999 -9999 -9999 -9999 -9999 -9999 -9999 -9999 -9999 -9999 -9999 -9999 -9999 -9999 -9999 -9999 -9999 -9999 -9999 612.6172 610.2762 607.7725 604.9774 602.131 599.6497 597.9994 596.5071 595.2983 594.4272 593.8783 593.5906 593.4861 593.4885 593.5291 593.5566 593.5421 593.4741 593.3538 593.1963 592.9988 592.7897 592.6476 592.4144 592.1447 591.876 591.629 591.4041 591.2209 591.1148 591.0001 590.9232 590.915 590.8955 590.895 590.9087 590.9434 591.0001 591.0743 591.1129 591.1035 591.0014 591.0015 591.2053 591.6266 592.1097 592.5044 592.6815 592.5898 592.3159 591.9816 591.6937 591.5077 591.4216 591.4063 591.4143 591.4171 591.4369 591.4691 591.4578 591.3016 590.8696 589.9653 588.4343 585.8591 583.3979 581.3455 580.7847 580.2557 579.807 579.4494 579.1432 578.8312 578.4938 578.1559 577.8376 577.5328 577.2488 576.9982 576.7521 576.5292 576.3582 576.2987 576.3597 576.4598 576.4775 576.338 576.0359 575.8369 575.8532 575.942 576.0878 576.4957 577.2605 578.2371 578.4948 580.2902 581.236 582.2257 583.3196 584.3363 584.9297 584.9792 584.7521 584.6121 584.7205 585.2857 586.9348 588.7401 590.0944 591.002 591.2782 590.7835 589.1915 587.7523 586.2568 584.6599 582.9656 582.8558 583.1056 580.9001 580.7529 580.1208 577.4274 573.3587 568.7582 564.8873 562.201 561.0391 561.3245 563.0027 565.655 569.0058 572.7537 576.6566 580.5721 584.5064 588.6218 593.1075 597.9922 603.0865 607.1709 609.2078 608.9172 612.1697 611.194 609.2089 -9999 -9999 -9999 -9999 -9999 -9999 -9999 -9999 -9999 -9999 -9999 -9999 -9999 -9999 -9999 -9999 -9999 -9999 -9999 -9999 -9999 -9999 -9999 -9999 -9999 -9999 -9999 -9999 -9999 -9999 -9999 -9999 -9999 -9999 -9999 -9999 -9999 -9999 -9999 -9999 -9999 -9999 -9999 -9999 -9999 -9999 -9999 -9999 -9999 -9999 -9999 -9999 -9999 -9999 -9999 -9999 -9999 -9999 -9999 -9999 -9999 -9999 -9999 -9999 -9999 -9999 -9999 -9999 -9999 -9999 -9999 -9999 -9999 -9999 -9999 -9999 -9999
-9999 -9999 -9999 -9999 -9999 -9999 -9999 -9999 -9999 -9999 -9999 -9999 -9999 -9999 -9999 -9999 -9999 -9999 -9999 -9999 -9999 -9999 -9999 -9999 -9999 -9999 -9999 -9999 -9999 -9999 -9999 -9999 -9999 -9999 -9999 -9999 -9999 -9999 -9999 -9999 -9999 -9999 -9999 -9999 611.9939 609.9609 607.6016 605.0159 602.4999 600.5901 598.3815 596.5542 595.2625 594.4512 594.0094 593.8199 593.7787 593.7975 593.8137 593.791 593.7153 593.589 593.4166 593.2109 593.0069 592.9917 592.7521 592.4787 592.2041 591.9402 591.6969 591.4854 591.3083 591.1373 591.0012 590.9996 590.9408 590.9319 590.9192 590.9253 590.9562 590.9999 591.0002 590.9982 590.8533 590.8193 591.0099 591.5748 592.2235 592.7653 592.9971 592.8431 592.4556 591.9966 591.6016 591.3339 591.1992 591.1815 591.214 591.2336 591.2419 591.2458 591.1979 590.995 590.5093 589.5639 588.0183 585.4376 583.027 581.1436 580.4417 580.114 579.7493 579.4393 579.1382 578.8375 578.5143 578.1815 577.8718 577.5629 577.2663 576.9979 576.7355 576.4822 576.2756 576.1736 576.1957 576.278 576.3063 576.2213 576.0282 575.9294 576.0088 576.088 576.1598 576.4706 577.1698 578.2455 579.793 580.7593 581.1753 581.848 582.6888 583.4473 583.9982 584.2631 584.371 584.5385 584.9609 585.8005 587.2983 588.9134 590.0816 590.8145 590.9982 590.4806 589.2384 588.0533 586.485 584.7892 583.1959 582.358 581.1697 580.8279 580.8022 579.2378 576.5407 572.7061 568.5585 565.321 563.3892 562.8252 563.6106 565.7411 568.8784 572.5663 576.485 580.4369 584.3322 588.2169 592.3092 596.9033 602.1711 607.3986 611.1669 612.3976 612.3018 611.2067 608.5483 605.8397 -9999 -9999 -9999 -9999 -9999 -9999 -9999 -9999 -9999 -9999 -9999 -9999 -9999 -9999 -9999 -9999 -9999 -9999 -9999 -9999 -9999 -9999 -9999 -9999 -9999 -9999 -9999 -9999 -9999 -9999 -9999 -9999 -9999 -9999 -9999 -9999 -9999 -9999 -9999 -9999 -9999 -9999 -9999 -9999 -9999 -9999 -9999 -9999 -9999 -9999 -9999 -9999 -9999 -9999 -9999 -9999 -9999 -9999 -9999 -9999 -9999 -9999 -9999 -9999 -9999 -9999 -9999 -9999 -9999 -9999 -9999 -9999 -9999 -9999 -9999 -9999 -9999
-9999 -9999 -9999 -9999 -9999 -9999 -9999 -9999 -9999 -9999 -9999 -9999 -9999 -9999 -9999 -9999 -9999 -9999 -9999 -9999 -9999 -9999 -9999 -9999 -9999 -9999 -9999 -9999 -9999 -9999 -9999 -9999 -9999 -9999 -9999 -9999 -9999 -9999 -9999 -9999 -9999 -9999 -9999 -9999 613.9125 612.455 610.5583 608.3349 605.8465 602.9684 600.1508 597.7509 596.0701 595.0223 594.4412 594.173 594.0892 594.0867 594.0922 594.0629 593.9822 593.8506 593.6787 593.484 593.309 593.2059 593.0007 592.7572 592.5054 592.2507 592.0044 591.7795 591.574 591.3781 591.2109 591.1086 591.0008 590.9998 590.9523 590.9247 590.9187 590.9108 590.8745 590.8213 590.7258 590.7432 591.0023 591.6186 592.3604 592.9866 593.171 592.9971 592.5036 591.9305 591.4626 591.1573 591.0007 591.0002 591.0631 591.0974 591.1001 591.0779 590.9883 590.7269 590.1476 589.0806 587.4031 585.0964 582.8413 581.0211 580.0868 579.6689 579.4308 579.2918 579.0587 578.8232 578.5706 578.2996 578.0017 577.6749 577.3344 577.0057 576.7999 576.5269 576.2803 576.1276 576.0868 576.1205 576.1223 576.0387 575.9017 575.8698 576.0077 576.1172 576.2033 576.5591 577.4996 579.462 580.7492 581.4885 581.7805 581.9814 582.5056 582.9819 583.4152 583.8083 584.1671 584.5647 585.1086 586.1885 587.5882 588.9605 589.9385 590.5317 590.6917 590.3614 589.5871 588.6177 586.9017 585.0662 583.5666 582.5486 581.6118 581.192 580.6191 578.4814 576.1239 572.7722 569.2906 566.5783 565.3611 565.3399 566.4886 569.0137 572.3894 576.1854 580.134 584.0793 587.9574 591.8114 595.8727 600.4437 605.6262 610.2776 613.1345 612.8461 611.0472 608.2877 605.0784 -9999 -9999 -9999 -9999 -9999 -9999 -9999 -9999 -9999 -9999 -9999 -9999 -9999 -9999 -9999 -9999 -9999 -9999 -9999 -9999 -9999 -9999 -9999 -9999 -9999 -9999 -9999 -9999 -9999 -9999 -9999 -9999 -9999 -9999 -9999 -9999 -9999 -9999 -9999 -9999 -9999 -9999 -9999 -9999 -9999 -9999 -9999 -9999 -9999 -9999 -9999 -9999 -9999 -9999 -9999 -9999 -9999 -9999 -9999 -9999 -9999 -9999 -9999 -9999 -9999 -9999 -9999 -9999 -9999 -9999 -9999 -9999 -9999 -9999 -9999 -9999 -9999 -9999
-9999 -9999 -9999 -9999 -9999 -9999 -9999 -9999 -9999 -9999 -9999 -9999 -9999 -9999 -9999 -9999 -9999 -9999 -9999 -9999 -9999 -9999 -9999 -9999 -9999 -9999 -9999 -9999 -9999 -9999 -9999 -9999 -9999 -9999 -9999 -9999 -9999 -9999 -9999 -9999 -9999 -9999 -9999 -9999 615.9536 615.164 613.7259 611.8433 609.4264 606.0572 602.2321 598.9969 596.8748 595.5699 594.8354 594.4847 594.3637 594.3479 594.3511 594.3226 594.2424 594.1122 593.9425 593.7537 593.5738 593.4171 593.2205 593.0002 592.7715 592.5408 592.3093 592.0859 591.8767 591.6753 591.4869 591.3257 591.1827 591.0944 591.0001 590.942 590.9043 590.8495 590.7731 590.692 590.6328 590.6993 591.0049 591.6542 592.4061 593.0002 593.184 593.0006 592.4186 591.745 591.2612 590.9999 590.9084 590.9363 591 591.02 591.0094 590.9675 590.8494 590.559 589.9478 588.8717 587.1049 585.001 582.9068 581.0696 579.9907 579.437 579.1746 579.0699 578.9678 578.8546 578.7121 578.5178 578.2493 577.9167 577.5545 577.2212 576.9894 576.6448 576.3585 576.172 576.0792 576.0615 576.0305 575.9246 575.7925 575.7906 575.9973 576.2021 576.4504 577.0341 578.2659 580.3827 581.7755 582.5947 583.0496 583.2313 583.4581 583.6858 583.9292 584.1989 584.4641 584.9746 585.6724 586.718 587.9105 588.9764 589.7426 590.2169 590.3759 590.2075 589.7072 588.8516 587.2476 585.4688 584.2006 583.1688 582.3226 581.675 580.7298 578.6887 576.3719 573.5062 570.8693 568.9561 568.2698 568.6099 569.9451 572.5346 575.847 579.5435 583.4396 587.4126 591.4028 595.4276 599.5474 603.6443 607.7896 611.017 612.1158 610.4584 607.7208 604.5058 -9999 -9999 -9999 -9999 -9999 -9999 -9999 -9999 -9999 -9999 -9999 -9999 -9999 -9999 -9999 -9999 -9999 -9999 -9999 -9999 -9999 -9999 -9999 -9999 -9999 -9999 -9999 -9999 -9999 -9999 -9999 -9999 -9999 -9999 -9999 -9999 -9999 -9999 -9999 -9999 -9999 -9999 -9999 -9999 -9999 -9999 -9999 -9999 -9999 -9999 -9999 -9999 -9999 -9999 -9999 -9999 -9999 -9999 -9999 -9999 -9999 -9999 -9999 -9999 -9999 -9999 -9999 -9999 -9999 -9999 -9999 -9999 -9999 -9999 -9999 -9999 -9999 -9999 -9999
-9999 -9999 -9999 -9999 -9999 -9999 -9999 -9999 -9999 -9999 -9999 -9999 -9999 -9999 -9999 -9999 -9999 -9999 -9999 -9999 -9999 -9999 -9999 -9999 -9999 -9999 -9999 -9999 -9999 -9999 -9999 -9999 -9999 -9999 -9999 -9999 -9999 -9999 -9999 -9999 -9999 -9999 -9999 -9999 -9999 617.5441 616.536 615.0294 612.7851 609.1995 604.7006 600.3659 597.7777 596.1448 595.1953 594.7288 594.561 594.5367 594.5474 594.53 594.4597 594.3358 594.1709 593.9819 593.7908 593.6064 593.4108 593.2056 593.0001 592.7954 592.5894 592.3851 592.1862 591.9905 591.7943 591.6013 591.4175 591.2589 591.1135 591.0002 590.932 590.8316 590.7197 590.6224 590.5813 590.6771 591.006 591.6736 592.4269 592.9985 593.1327 592.9773 592.2394 591.4342 590.9999 590.8469 590.8616 590.9395 591 590.9911 590.9673 590.9147 590.7844 590.4922 589.8997 588.8492 587.1383 585.2405 583.3491 581.4611 580.3132 579.619 579.2351 579.0688 579.0145 578.9934 578.9454 578.8313 578.6104 578.2823 577.8727 577.4355 577.0153 576.7322 576.4743 576.3068 576.2054 576.1533 576.1078 575.9995 575.8724 575.8914 576.1968 576.558 577.1541 578.1332 579.9116 581.6902 583.0851 584.0048 584.6831 584.8619 584.9023 584.9203 584.943 584.9742 585.0677 585.5818 586.3512 587.3463 588.33 589.02 589.5662 589.9147 590.0541 589.976 589.6453 588.9571 587.7242 586.2627 585.0347 584.0389 583.024 582.0485 580.8455 578.9409 576.8303 574.6467 572.7803 571.4646 571.1594 571.8827 573.3852 575.8934 578.973 582.4753 586.3242 590.4294 594.7805 599.1961 603.1562 606.3176 608.5453 609.8675 609.2575 606.939 603.9654 -9999 -9999 -9999 -9999 -9999 -9999 -9999 -9999 -9999 -9999 -9999 -9999 -9999 -9999 -9999 -9999 -9999 -9999 -9999 -9999 -9999 -9999 -9999 -9999 -9999 -9999 -9999 -9999 -9999 -9999 -9999 -9999 -9999 -9999 -9999 -9999 -9999 -9999 -9999 -9999 -9999 -9999 -9999 -9999 -9999 -9999 -9999 -9999 -9999 -9999 -9999 -9999 -9999 -9999 -9999 -9999 -9999 -9999 -9999 -9999 -9999 -9999 -9999 -9999 -9999 -9999 -9999 -9999 -9999 -9999 -9999 -9999 -9999 -9999 -9999 -9999 -9999 -9999 -9999 -9999
-9999 -9999 -9999 -9999 -9999 -9999 -9999 -9999 -9999 -9999 -9999 -9999 -9999 -9999 -9999 -9999 -9999 -9999 -9999 -9999 -9999 -9999 -9999 -9999 -9999 -9999 -9999 -9999 -9999 -9999 -9999 -9999 -9999 -9999 -9999 -9999 -9999 -9999 -9999 -9999 -9999 -9999 -9999 -9999 -9999 -9999 617.8252 616.8743 615.2906 611.8906 607.1402 602.2782 598.9255 596.7336 595.4618 594.8448 594.6283 594.6058 594.6377 594.6447 594.5945 594.4861 594.3306 594.1445 593.9478 593.7521 593.5565 593.3634 593.1772 593 592.8262 592.6511 592.4762 592.2969 592.1049 591.8979 591.6822 591.4716 591.2753 591.1134 590.9991 590.8488 590.7131 590.6082 590.5739 590.678 591.0067 591.6737 592.4283 592.9949 593.0012 592.826 592.0051 591.0613 590.76 590.7498 590.8783 590.9997 591.0328 591.0129 590.9816 590.9281 590.8027 590.5283 590.0032 589.0828 587.7721 586.0513 584.2732 582.3936 581.0598 580.2077 579.6507 579.3457 579.2532 579.2651 579.2851 579.239 579.0806 578.7805 578.345 577.8441 577.3608 576.9954 576.6918 576.5677 576.5039 576.4523 576.4117 576.334 576.2751 576.3748 576.8746 577.4688 578.6632 580.1463 581.7422 583.3308 584.6741 585.4805 586.1944 586.3314 586.2678 586.1718 586.0845 586.0256 586.0868 586.4727 587.165 588.0895 588.9078 589.2585 589.5165 589.6996 589.7828 589.7444 589.5338 589.0357 588.236 586.9722 585.796 584.7799 583.5576 582.3131 580.9114 579.1485 577.3308 575.8383 574.6849 573.8458 573.8163 574.7189 576.4362 578.9009 581.9696 585.5117 589.3743 593.5719 598.2119 602.9254 606.6838 608.5703 608.8834 608.0914 606.2953 603.6656 -9999 -9999 -9999 -9999 -9999 -9999 -9999 -9999 -9999 -9999 -9999 -9999 -9999 -9999 -9999 -9999 -9999 -9999 -9999 -9999 -9999 -9999 -9999 -9999 -9999 -9999 -9999 -9999 -9999 -9999 -9999 -9999 -9999 -9999 -9999 -9999 -9999 -9999 -9999 -9999 -9999 -9999 -9999 -9999 -9999 -9999 -9999 -9999 -9999 -9999 -9999 -9999 -9999 -9999 -9999 -9999 -9999 -9999 -9999 -9999 -9999 -9999 -9999 -9999 -9999 -9999 -9999 -9999 -9999 -9999 -9999 -9999 -9999 -9999 -9999 -9999 -9999 -9999 -9999 -9999 -9999
-9999 -9999 -9999 -9999 -9999 -9999 -9999 -9999 -9999 -9999 -9999 -9999 -9999 -9999 -9999 -9999 -9999 -9999 -9999 -9999 -9999 -9999 -9999 -9999 -9999 -9999 -9999 -9999 -9999 -9999 -9999 -9999 -9999 -9999 -9999 -9999 -9999 -9999 -9999 -9999 -9999 -9999 -9999 -9999 -9999 -9999 -9999 616.2954 616.5946 613.8492 609.1809 604.0013 599.9023 597.1034 595.5056 594.76 594.5197 594.5198 594.5898 594.635 594.6166 594.533 594.3956 594.2213 594.0305 593.8355 593.6442 593.4611 593.2924 593.14 592.9999 592.8627 592.7214 592.5703 592.3966 592.1918 591.9585 591.7092 591.4584 591.2196 591.002 590.8726 590.7471 590.6447 590.6105 590.7057 591.0064 591.6298 592.3665 592.9889 593.1443 592.9401 592.0078 591.0519 590.7675 590.8044 590.9982 591.1174 591.1542 591.1326 591.0884 591.0255 590.9067 590.6665 590.2463 589.5651 588.5599 586.8207 584.9532 583.2347 581.9103 580.9698 580.2694 579.8281 579.6675 579.678 579.7311 579.7447 579.655 579.4086 578.9589 578.4011 577.8439 577.3781 577.0257 576.9941 576.9977 576.9979 576.993 576.9925 577.032 577.3174 578.1104 579.1915 580.654 582.2103 583.7197 585.2073 586.5022 587.3396 587.8713 587.8821 587.7631 587.6416 587.5364 587.4418 587.4152 587.5952 588.0853 588.8581 589.3296 589.5222 589.6064 589.646 589.6531 589.6205 589.5258 589.2875 588.7863 587.446 586.1992 585.0136 583.7911 582.4293 580.9587 579.4355 578.0719 577.0898 576.6129 576.3176 576.4394 577.26 579.05 581.6777 584.9912 588.678 592.5353 596.6303 601.2761 606.1558 609.393 609.7837 608.4452 606.1201 603.5955 -9999 -9999 -9999 -9999 -9999 -9999 -9999 -9999 -9999 -9999 -9999 -9999 -9999 -9999 -9999 -9999 -9999 -9999 -9999 -9999 -9999 -9999 -9999 -9999 -9999 -9999 -9999 -9999 -9999 -9999 -9999 -9999 -9999 -9999 -9999 -9999 -9999 -9999 -9999 -9999 -9999 -9999 -9999 -9999 -9999 -9999 -9999 -9999 -9999 -9999 -9999 -9999 -9999 -9999 -9999 -9999 -9999 -9999 -9999 -9999 -9999 -9999 -9999 -9999 -9999 -9999 -9999 -9999 -9999 -9999 -9999 -9999 -9999 -9999 -9999 -9999 -9999 -9999 -9999 -9999 -9999 -9999
