ncols         403
nrows         30
xllcorner     631600
yllcorner     5816950
cellsize      50
NODATA_value  -9999
-9999 -9999 -9999 -9999 -9999 -9999 -9999 -9999 -9999 -9999 -9999 -9999 -9999 -9999 -9999 -9999 -9999 -9999 -9999 -9999 -9999 -9999 -9999 -9999 -9999 -9999 -9999 -9999 -9999 -9999 -9999 -9999 -9999 -9999 -9999 -9999 -9999 -9999 -9999 -9999 -9999 -9999 -9999 -9999 -9999 -9999 -9999 -9999 -9999 -9999 -9999 -9999 -9999 -9999 -9999 -9999 -9999 -9999 -9999 -9999 -9999 -9999 -9999 -9999 -9999 -9999 -9999 -9999 -9999 -9999 -9999 778.3845 777.7494 777.514 777.4447 777.0867 776.7467 776.7573 777.2076 778.062 778.9236 -9999 -9999 -9999 -9999 -9999 -9999 -9999 -9999 -9999 -9999 -9999 -9999 -9999 -9999 -9999 -9999 -9999 -9999 -9999 -9999 -9999 -9999 -9999 -9999 -9999 -9999 -9999 -9999 -9999 -9999 -9999 -9999 -9999 -9999 -9999 -9999 -9999 -9999 -9999 -9999 -9999 -9999 -9999 -9999 776.9256 775.9075 775.0038 775.1714 775.8401 776.0011 776.0061 775.8875 775.6722 775.4052 775.156 774.9672 774.8545 774.8152 774.8103 774.8148 774.8208 774.8592 774.9982 775.3218 775.8738 776.4947 777.6259 778.6533 779.1299 779.4897 779.952 780.2903 780.6482 781.1367 782.0928 783.1302 -9999 -9999 -9999 -9999 -9999 -9999 -9999 -9999 -9999 -9999 -9999 -9999 -9999 -9999 -9999 -9999 -9999 -9999 -9999 -9999 -9999 -9999 -9999 -9999 -9999 -9999 -9999 -9999 -9999 -9999 -9999 -9999 -9999 779.2665 779.2062 779.0208 778.616 777.2979 776.2155 775.6653 775.6095 775.7275 775.7431 775.9221 776.1637 776.4357 776.7357 777.0517 777.3474 777.5231 777.5773 777.7078 777.8577 777.8624 777.7747 777.6962 777.6513 777.5541 777.4852 777.433 777.3413 777.2217 777.2109 777.5463 778.3635 779.5081 779.2064 777.6329 776.4962 775.6384 774.9729 774.4799 774.1656 774.0286 773.8588 773.6986 773.5784 773.4772 773.3653 773.2377 773.0961 772.9503 772.8219 772.7249 772.6646 772.6459 772.6815 772.7832 772.9529 773.1624 773.3598 773.5958 773.881 774.2267 774.5173 774.8445 775.1516 775.4264 775.795 776.1728 776.6199 776.8262 776.8103 776.8698 777.04 777.41 778.2383 779.4022 780.3988 780.8939 780.9865 781.1727 781.6801 782.396 782.7899 782.8187 782.9946 783.1022 782.9908 -9999 -9999 -9999 -9999 -9999 -9999 -9999 787.8063 788.0302 787.0127 784.9783 782.7009 780.5468 778.682 777.4698 776.8018 775.98 775.2748 774.7977 774.4656 774.194 774.0834 774.0062 773.8535 773.7578 773.745 773.7864 773.8673 774.0211 774.2352 774.474 774.6591 774.9586 775.4202 776.0617 776.925 777.675 778.0015 778.003 777.854 777.4199 776.8185 776.212 776.0045 776.0593 776.0089 775.7849 775.6051 775.5701 775.93 776.947 778.7959 780.8591 782.6698 783.8282 784.1722 -9999 -9999 784.9456 784.9594 784.3367 783.0705 781.2869 779.3204 777.816 776.9911 776.606 776.3542 776.0663 775.6656 775.2268 774.8183 774.4771 774.1978 773.9844 773.8401 773.7778 773.8022 773.91 774.0822 774.2959 774.5179 774.9661 775.4403 775.9098 776.3075 777.081 778.1031 778.8693 778.6116 777.9661 777.2752 776.9429 776.9803 776.9189 776.8359 776.4016 776.9594 777.9031 778.7772 779.4303 780.0345 -9999 -9999 -9999 -9999 -9999 -9999 -9999 -9999 -9999 -9999 -9999 -9999 -9999 -9999 -9999 -9999 -9999 -9999 -9999 -9999 -9999 -9999 -9999 -9999 -9999
-9999 -9999 -9999 -9999 -9999 -9999 -9999 -9999 -9999 -9999 -9999 -9999 -9999 -9999 -9999 -9999 -9999 -9999 -9999 -9999 -9999 -9999 -9999 -9999 -9999 -9999 -9999 -9999 -9999 -9999 -9999 -9999 -9999 -9999 -9999 -9999 -9999 -9999 -9999 -9999 -9999 -9999 -9999 -9999 -9999 -9999 -9999 -9999 -9999 -9999 -9999 -9999 -9999 -9999 -9999 -9999 -9999 -9999 -9999 -9999 -9999 -9999 -9999 -9999 -9999 -9999 -9999 -9999 -9999 -9999 -9999 -9999 777.857 777.9546 777.92 777.7261 777.1878 777.1727 777.7741 -9999 -9999 -9999 -9999 -9999 -9999 -9999 -9999 -9999 -9999 -9999 -9999 -9999 -9999 -9999 -9999 -9999 -9999 -9999 -9999 -9999 -9999 -9999 -9999 -9999 -9999 -9999 -9999 -9999 -9999 -9999 -9999 -9999 -9999 -9999 -9999 -9999 -9999 -9999 -9999 -9999 -9999 -9999 -9999 -9999 -9999 776.6895 775.4281 774.4962 774.5057 775.3097 775.9651 776.0832 776.0034 775.8195 775.5576 775.2734 775.026 774.8552 774.7828 774.8033 774.8493 774.9041 774.9697 775.0896 775.3036 775.6273 776.0407 776.7983 777.5688 778.239 778.845 779.5406 779.9232 780.4124 781.2231 782.5339 783.7581 783.9347 -9999 -9999 -9999 -9999 -9999 -9999 -9999 -9999 -9999 -9999 -9999 -9999 -9999 -9999 -9999 -9999 -9999 -9999 -9999 -9999 -9999 -9999 -9999 -9999 -9999 -9999 -9999 -9999 -9999 -9999 -9999 -9999 780.2115 779.9327 779.5009 778.7578 777.3671 776.2523 775.5775 775.3948 775.5074 775.6119 775.8029 776.0714 776.3771 776.6652 776.9613 777.2374 777.4136 777.4228 777.4052 777.4856 777.5774 777.6339 777.704 777.7698 777.7247 777.5734 777.3874 777.214 777.102 777.1431 777.4685 778.1695 779.1697 779.2713 778.3179 777.1422 776.2417 775.4869 774.9087 774.5268 774.4389 774.1991 773.986 773.856 773.7568 773.6287 773.4808 773.3124 773.1315 772.9507 772.7998 772.6879 772.6205 772.6061 772.6554 772.7744 772.9518 773.147 773.3523 773.6479 774.0275 774.4434 774.6777 774.8865 775.2198 775.5908 775.9207 776.1311 776.1781 776.1029 776.0714 776.1528 776.4437 777.0797 777.9802 778.7665 778.9409 778.8323 778.7444 779.3573 780.5626 781.4679 782.032 782.5872 782.9486 782.7347 782.3372 -9999 -9999 -9999 -9999 -9999 -9999 787.1522 787.5423 786.3071 784.0135 781.5106 779.3542 777.7499 776.6748 775.9874 775.3834 774.8522 774.4628 774.1509 773.9248 773.7965 773.7048 773.6014 773.5344 773.5315 773.592 773.7188 773.9229 774.1873 774.4802 774.7639 775.101 775.524 776.0479 776.7454 777.3898 777.9191 778.168 778.1871 778.1646 777.8489 777.1671 776.6392 776.7841 776.4024 775.8766 775.5901 775.7136 776.4341 778.0471 780.1495 782.3082 784.0913 785.1232 785.0995 -9999 784.8264 784.7888 784.4949 783.6067 781.9892 779.9382 777.974 776.8565 776.2546 775.9712 775.7988 775.6096 775.348 775.0451 774.7472 774.4781 774.2204 774.0187 773.8857 773.8296 773.8553 773.9725 774.1742 774.4647 774.7722 775.2233 775.7471 776.3618 776.8723 777.2819 777.859 778.0662 777.4191 777.2556 776.7958 776.2243 776.3969 777.2592 777.9927 777.3331 777.8937 778.7419 779.3984 780.0242 780.8706 781.6254 -9999 -9999 -9999 -9999 -9999 -9999 -9999 -9999 -9999 -9999 -9999 -9999 -9999 -9999 -9999 -9999 -9999 -9999 -9999 -9999 -9999 -9999 -9999 -9999
-9999 -9999 -9999 -9999 -9999 -9999 -9999 -9999 -9999 -9999 -9999 -9999 -9999 -9999 -9999 -9999 -9999 -9999 -9999 -9999 -9999 -9999 -9999 -9999 -9999 -9999 -9999 -9999 -9999 -9999 -9999 -9999 -9999 -9999 -9999 -9999 -9999 -9999 -9999 -9999 -9999 -9999 -9999 -9999 -9999 -9999 -9999 -9999 -9999 -9999 -9999 -9999 -9999 -9999 -9999 -9999 -9999 -9999 -9999 -9999 -9999 -9999 -9999 -9999 -9999 -9999 -9999 -9999 -9999 -9999 -9999 -9999 -9999 -9999 -9999 -9999 -9999 -9999 -9999 -9999 -9999 -9999 -9999 -9999 -9999 -9999 -9999 -9999 -9999 -9999 -9999 -9999 -9999 -9999 -9999 -9999 -9999 -9999 -9999 -9999 -9999 -9999 -9999 -9999 -9999 -9999 -9999 -9999 -9999 -9999 -9999 -9999 -9999 -9999 -9999 -9999 -9999 -9999 -9999 -9999 -9999 -9999 -9999 -9999 -9999 -9999 775.5954 774.3945 774.0582 774.9669 775.8926 776.0684 776.0474 775.9271 775.7148 775.436 775.1509 774.9238 774.8131 774.8289 774.9265 775.025 775.1205 775.2329 775.3872 775.5729 775.7732 776.0375 776.3473 776.9088 777.8495 778.8273 779.0278 779.7366 780.8988 782.4328 783.7181 783.5696 782.8212 -9999 -9999 -9999 -9999 -9999 -9999 -9999 -9999 -9999 -9999 -9999 -9999 -9999 -9999 -9999 -9999 -9999 -9999 -9999 -9999 -9999 -9999 -9999 -9999 -9999 -9999 -9999 -9999 -9999 -9999 -9999 780.9222 780.5188 779.9127 778.9473 777.6016 776.2295 775.5096 775.2842 775.3729 775.5133 775.7137 775.9481 776.2764 776.5862 776.8497 777.1057 777.2998 777.3533 777.2603 777.2283 777.3115 777.4205 777.5479 777.6802 777.7283 777.624 777.4287 777.2264 777.1016 777.1432 777.4639 778.1318 779.1564 779.5881 779.1427 777.7767 776.8283 775.9761 775.3559 774.9547 774.7338 774.4774 774.2439 774.1498 774.0844 773.9358 773.778 773.5903 773.3876 773.1676 772.9519 772.7761 772.6498 772.5809 772.5768 772.641 772.7736 772.9505 773.1429 773.3981 773.77 774.1718 774.475 774.7043 775.0005 775.2969 775.4879 775.5786 775.5601 775.4791 775.433 775.4808 775.6791 776.1066 776.7251 777.2949 777.3777 777.3893 777.561 778.1272 778.8752 779.8863 780.863 781.7855 782.3818 782.375 782.0201 781.9141 782.2133 -9999 -9999 -9999 785.3505 786.1672 786.3802 785 782.6711 780.2225 778.4193 777.0583 776.0612 775.3871 774.8783 774.4708 774.129 773.8646 773.6816 773.5686 773.4851 773.4092 773.364 773.3717 773.4425 773.5901 773.8259 774.1307 774.4792 774.8386 775.2122 775.5955 775.9706 776.233 777.0933 778.0009 778.5944 779.053 779.3083 779.1215 778.3898 777.3091 776.835 776.5087 776.0597 775.8488 776.2227 777.3541 779.3268 781.5659 783.7432 785.4901 786.3934 -9999 785.3401 784.9609 784.6065 783.9529 782.6523 780.7261 778.642 777.1091 776.2579 775.8096 775.5963 775.4645 775.3245 775.1396 774.9215 774.6968 774.4787 774.2487 774.0594 773.9337 773.8799 773.9003 774.0065 774.2002 774.4888 774.9034 775.3359 775.7184 776.0736 776.506 776.7562 776.923 776.7253 776.5132 776.414 776.1643 775.9177 776.14 776.7435 776.7656 776.7397 778.0295 778.995 779.6804 780.3223 781.4026 782.354 -9999 -9999 -9999 -9999 -9999 -9999 -9999 -9999 -9999 -9999 -9999 -9999 -9999 -9999 -9999 -9999 -9999 -9999 -9999 -9999 -9999 -9999 -9999 -9999
-9999 -9999 -9999 -9999 -9999 -9999 -9999 -9999 -9999 -9999 -9999 -9999 -9999 -9999 -9999 -9999 -9999 -9999 -9999 -9999 -9999 -9999 -9999 -9999 -9999 -9999 -9999 -9999 -9999 -9999 -9999 -9999 -9999 -9999 -9999 -9999 -9999 -9999 -9999 -9999 -9999 -9999 -9999 -9999 -9999 -9999 -9999 -9999 -9999 -9999 -9999 -9999 -9999 -9999 -9999 -9999 -9999 -9999 -9999 -9999 -9999 -9999 -9999 -9999 -9999 -9999 -9999 -9999 -9999 -9999 -9999 -9999 -9999 -9999 -9999 -9999 -9999 -9999 -9999 -9999 -9999 -9999 -9999 -9999 -9999 -9999 -9999 -9999 -9999 -9999 -9999 -9999 -9999 -9999 -9999 -9999 -9999 -9999 -9999 -9999 -9999 -9999 -9999 -9999 -9999 -9999 -9999 -9999 -9999 -9999 -9999 -9999 -9999 -9999 -9999 -9999 -9999 -9999 -9999 -9999 -9999 -9999 -9999 -9999 -9999 -9999 776.3681 775.3027 774.6074 775.1885 775.9716 776.0194 776.0659 776.0295 775.8723 775.6197 775.3202 775.049 774.8923 774.8959 775.0127 775.165 775.3018 775.438 775.5957 775.7639 775.9039 776.0173 776.1665 776.5088 777.0743 777.571 777.5243 778.4357 779.8901 781.6228 783.0085 782.9489 782.1608 -9999 -9999 -9999 -9999 -9999 -9999 -9999 -9999 -9999 -9999 -9999 -9999 -9999 -9999 -9999 -9999 -9999 -9999 -9999 -9999 -9999 -9999 -9999 -9999 -9999 -9999 -9999 -9999 -9999 -9999 -9999 781.0031 780.7599 780.0685 779.0363 777.7034 776.2484 775.5104 775.2247 775.2773 775.4197 775.6238 775.8511 776.1049 776.4435 776.7129 776.9287 777.121 777.2112 777.1691 777.0548 777.058 777.1862 777.3315 777.464 777.5469 777.5251 777.3934 777.2222 777.1049 777.1345 777.4338 778.1078 779.2124 779.8179 779.5613 778.6152 777.1793 776.3225 775.766 775.3833 775.0916 774.7932 774.5206 774.48 774.4536 774.2517 774.1094 773.91 773.7078 773.468 773.2107 772.9545 772.7529 772.6187 772.5566 772.5667 772.6438 772.7803 772.95 773.1581 773.4929 773.8753 774.2108 774.4811 774.7309 774.8961 774.9851 775.0156 774.991 774.9401 774.9097 774.9299 775.0206 775.2306 775.5763 775.9644 776.107 776.3356 776.7697 777.3389 777.6284 778.1707 779.3938 780.606 781.6739 782.0726 782.0007 781.9537 782.1052 782.7107 783.4999 784.0999 784.6864 785.0501 784.7899 783.4028 781.2098 779.0881 777.7237 776.5675 775.5991 774.9148 774.4598 774.0939 773.8155 773.6091 773.4677 773.3782 773.315 773.2623 773.2339 773.2467 773.3165 773.467 773.7236 774.0691 774.48 774.9188 775.345 775.7329 776.05 776.3323 777.2957 778.405 779.1854 779.862 780.1293 780.0583 779.5974 778.7008 777.8934 777.2314 776.6581 776.4739 777.1522 778.7617 780.7833 782.929 784.9748 786.5256 787.1074 -9999 785.997 785.1307 784.3894 783.356 781.6133 779.4308 777.6097 776.4984 775.9676 775.6213 775.4381 775.302 775.1692 775.0176 774.8455 774.6646 774.4792 774.2728 774.1002 773.9797 773.9243 773.9381 774.0305 774.2097 774.4913 774.9492 775.3642 775.6279 775.8087 775.9931 776.0413 776.0499 775.924 775.8279 775.7533 775.6194 775.5513 775.719 776.0573 776.2245 776.5774 777.5803 778.6774 779.5117 780.372 781.58 782.7086 783.288 -9999 -9999 -9999 -9999 -9999 -9999 -9999 -9999 -9999 -9999 -9999 -9999 -9999 -9999 -9999 -9999 -9999 -9999 -9999 -9999 -9999 -9999 -9999
-9999 -9999 -9999 -9999 -9999 -9999 -9999 -9999 -9999 -9999 -9999 -9999 -9999 -9999 -9999 -9999 -9999 -9999 -9999 -9999 -9999 -9999 -9999 -9999 -9999 -9999 -9999 -9999 -9999 -9999 -9999 -9999 -9999 -9999 -9999 -9999 -9999 -9999 -9999 -9999 -9999 -9999 -9999 -9999 -9999 -9999 -9999 -9999 -9999 -9999 -9999 -9999 -9999 -9999 -9999 -9999 -9999 -9999 -9999 -9999 -9999 -9999 -9999 -9999 -9999 -9999 -9999 -9999 -9999 -9999 -9999 -9999 -9999 -9999 -9999 -9999 -9999 -9999 -9999 -9999 -9999 -9999 -9999 -9999 -9999 -9999 -9999 -9999 -9999 -9999 -9999 -9999 -9999 -9999 -9999 -9999 -9999 -9999 -9999 -9999 -9999 -9999 -9999 -9999 -9999 -9999 -9999 -9999 -9999 -9999 -9999 -9999 -9999 -9999 -9999 -9999 -9999 -9999 -9999 -9999 -9999 -9999 -9999 -9999 -9999 -9999 777.054 776.4547 775.8784 776.0786 776.4281 775.9948 776.1572 776.1882 776.0446 775.7986 775.4961 775.1986 775.0035 774.9825 775.1093 775.2909 775.476 775.666 775.8857 776.1229 776.318 776.4196 776.4529 776.5098 776.6139 776.6425 776.5743 777.1315 778.6437 780.5194 781.9979 782.3701 781.9632 -9999 -9999 -9999 -9999 -9999 -9999 -9999 -9999 -9999 -9999 -9999 -9999 -9999 -9999 -9999 -9999 -9999 -9999 -9999 -9999 -9999 -9999 -9999 -9999 -9999 -9999 -9999 -9999 -9999 -9999 -9999 780.9995 780.972 780.2579 779.1406 777.7454 776.2772 775.5142 775.2233 775.2125 775.308 775.4929 775.6958 775.9186 776.1748 776.4795 776.706 776.876 776.9935 777.007 776.926 776.8532 776.9243 777.0892 777.228 777.3022 777.3038 777.2349 777.127 777.0332 777.0328 777.2451 777.8254 778.9868 779.6478 779.4472 778.7206 777.6913 776.761 776.2675 775.8976 775.5767 775.2711 775.0186 774.8851 774.7452 774.5157 774.4528 774.2341 774.071 773.8309 773.5674 773.2603 772.9577 772.7374 772.6063 772.5606 772.5884 772.6732 772.8029 772.9631 773.2617 773.6075 773.9435 774.2351 774.4615 774.4894 774.4914 774.4917 774.487 774.4794 774.4732 774.4696 774.4664 774.4797 774.5653 774.7653 775.0623 775.4142 775.9475 776.3079 776.5334 776.9365 777.7823 779.169 780.6264 781.5694 781.8873 781.9921 782.0977 782.791 783.304 783.6722 783.9382 783.8616 783.1229 781.9053 779.9665 778.6058 777.3757 776.2482 775.2078 774.5018 774.0654 773.7574 773.5345 773.3833 773.2872 773.2271 773.1816 773.1438 773.1289 773.1418 773.1975 773.3315 773.6024 773.9988 774.4841 775.0131 775.5201 776.0089 776.4843 777.0225 777.8516 778.6839 779.2877 779.9485 780.3403 780.455 780.278 779.7931 779.0908 778.4266 777.6853 777.5002 778.6141 780.2867 782.1212 783.9573 785.6693 786.9284 -9999 -9999 786.2941 785.188 784.0638 782.5929 780.5395 778.298 776.7817 776.2101 776.0167 775.6483 775.4526 775.2634 775.1054 774.9578 774.8052 774.646 774.4795 774.2925 774.1332 774.0214 773.9652 773.9736 774.057 774.2263 774.4895 774.9248 775.3022 775.4792 775.5192 775.5087 775.4396 775.369 775.3081 775.2753 775.2302 775.1626 775.1592 775.3049 775.5671 775.8504 776.2854 776.9059 777.3714 778.3751 779.7421 781.2728 782.4401 783.0632 783.4891 -9999 -9999 -9999 -9999 -9999 -9999 -9999 -9999 -9999 -9999 -9999 -9999 -9999 -9999 -9999 -9999 -9999 -9999 -9999 -9999 -9999 -9999
-9999 -9999 -9999 -9999 -9999 -9999 -9999 -9999 -9999 -9999 -9999 -9999 -9999 -9999 -9999 -9999 -9999 -9999 -9999 -9999 -9999 -9999 -9999 -9999 -9999 -9999 -9999 -9999 -9999 -9999 -9999 -9999 -9999 -9999 -9999 -9999 -9999 -9999 -9999 -9999 -9999 -9999 -9999 -9999 -9999 -9999 -9999 -9999 -9999 -9999 -9999 -9999 -9999 -9999 -9999 -9999 -9999 -9999 -9999 -9999 -9999 -9999 -9999 -9999 -9999 -9999 -9999 -9999 -9999 -9999 -9999 -9999 -9999 -9999 -9999 -9999 -9999 -9999 -9999 -9999 -9999 -9999 -9999 -9999 -9999 -9999 -9999 -9999 -9999 -9999 -9999 -9999 -9999 -9999 -9999 -9999 -9999 -9999 -9999 -9999 -9999 -9999 -9999 -9999 -9999 -9999 -9999 -9999 -9999 -9999 -9999 -9999 -9999 -9999 -9999 -9999 -9999 -9999 -9999 -9999 -9999 -9999 -9999 -9999 -9999 -9999 777.6071 777.196 776.874 776.842 776.5261 776.0098 776.4534 776.4363 776.2085 775.9302 775.6327 775.3332 775.1167 775.0737 775.1958 775.3934 775.6089 775.854 776.16 776.5129 776.8254 776.9881 776.9613 776.7914 776.5518 776.2832 776.149 776.5654 777.7512 779.738 781.3969 782.1086 782.1128 781.7498 -9999 -9999 -9999 -9999 -9999 -9999 -9999 -9999 -9999 -9999 -9999 -9999 -9999 -9999 -9999 -9999 -9999 -9999 -9999 -9999 -9999 -9999 -9999 -9999 -9999 -9999 -9999 -9999 -9999 -9999 780.9814 781.0963 780.5408 779.2619 777.7249 776.2954 775.5552 775.2343 775.1688 775.2026 775.3292 775.5056 775.6754 775.876 776.1207 776.3689 776.5586 776.6989 776.7762 776.7582 776.6816 776.6577 776.7734 776.9325 777.0275 777.048 777.0126 776.9457 776.8659 776.8118 776.8695 777.1573 777.7255 778.3542 778.6074 778.4005 777.895 777.228 776.9473 776.5313 776.1459 775.8151 775.572 775.3832 775.1765 774.9384 774.7539 774.5145 774.4477 774.2068 773.9926 773.6642 773.295 772.96 772.7378 772.6276 772.6097 772.6587 772.7687 772.9444 773.1274 773.3837 773.6732 773.9349 774.1105 774.1438 774.13 774.1122 774.0972 774.0819 774.0624 774.0336 773.994 773.9601 773.9946 774.1489 774.4086 774.5994 775.0502 775.3545 775.6343 776.0518 776.7899 777.9211 779.1639 780.3853 781.1888 781.5498 781.8476 782.256 782.6177 782.762 782.7916 782.6273 781.9007 780.5527 778.6793 777.6193 776.705 775.8322 774.7771 774.1522 773.7554 773.4897 773.3141 773.204 773.1405 773.1069 773.0777 773.0437 773.0385 773.0471 773.0756 773.1635 773.4426 773.9108 774.4858 775.0782 775.632 776.1761 776.7621 777.3616 777.7845 777.96 778.502 779.2482 779.8841 780.2313 780.3773 780.2745 779.9373 779.4258 778.9442 779.0552 780.1786 781.672 783.1143 784.5745 786.0045 -9999 -9999 786.8527 786.0844 785.0234 783.6851 781.9023 779.7426 777.9106 776.4539 776.728 776.282 775.774 775.5832 775.2938 775.1025 774.9473 774.7961 774.6406 774.4797 774.3044 774.156 774.0511 773.9974 774.0048 774.085 774.2483 774.4856 774.8248 775.117 775.2371 775.1945 775.0842 774.9343 774.8611 774.8293 774.83 774.8149 774.7823 774.797 774.9716 775.2521 775.6087 776.0601 776.5783 776.7556 777.3672 778.9624 780.7625 782.0491 782.6965 783.0125 -9999 -9999 -9999 -9999 -9999 -9999 -9999 -9999 -9999 -9999 -9999 -9999 -9999 -9999 -9999 -9999 -9999 -9999 -9999 -9999 -9999 -9999
-9999 -9999 -9999 -9999 -9999 -9999 -9999 -9999 -9999 -9999 -9999 -9999 -9999 -9999 -9999 -9999 -9999 -9999 -9999 -9999 -9999 -9999 -9999 -9999 -9999 -9999 -9999 -9999 -9999 -9999 -9999 -9999 -9999 -9999 -9999 -9999 -9999 -9999 -9999 -9999 -9999 -9999 -9999 -9999 -9999 -9999 -9999 -9999 -9999 -9999 -9999 -9999 -9999 -9999 -9999 -9999 -9999 -9999 -9999 -9999 -9999 -9999 -9999 -9999 -9999 -9999 -9999 -9999 -9999 -9999 -9999 -9999 -9999 -9999 -9999 -9999 -9999 -9999 -9999 -9999 -9999 -9999 -9999 -9999 -9999 -9999 -9999 -9999 -9999 -9999 -9999 -9999 -9999 -9999 -9999 -9999 -9999 -9999 -9999 -9999 -9999 -9999 -9999 -9999 -9999 -9999 -9999 -9999 -9999 -9999 -9999 -9999 -9999 -9999 -9999 -9999 -9999 -9999 -9999 -9999 -9999 -9999 -9999 -9999 -9999 -9999 778.0322 777.6935 777.472 777.2155 776.7186 776.2446 776.9337 776.6074 776.2401 775.9419 775.6788 775.418 775.2092 775.1526 775.2659 775.4614 775.683 775.9583 776.3351 776.8038 777.2543 777.5217 777.5016 777.212 776.7662 776.3291 776.1328 776.5208 777.6918 779.6091 781.2524 782.071 782.2552 782.0204 -9999 -9999 -9999 -9999 -9999 -9999 -9999 -9999 -9999 -9999 -9999 -9999 -9999 -9999 -9999 -9999 -9999 -9999 -9999 -9999 -9999 -9999 -9999 -9999 -9999 -9999 -9999 -9999 -9999 780.464 780.9989 780.9039 780.1317 778.8988 777.4257 776.2738 775.5814 775.2433 775.1279 775.1196 775.1824 775.3019 775.4412 775.5845 775.7585 775.975 776.1729 776.3357 776.4673 776.5461 776.5267 776.4639 776.4653 776.5739 776.692 776.7524 776.7699 776.7434 776.6682 776.5455 776.4398 776.4506 776.5989 776.7502 777.1542 777.9587 778.3428 778.6473 778.0578 777.2305 776.6557 776.2894 776.1193 775.9313 775.6826 775.4125 775.1625 774.9149 774.7415 774.5144 774.4336 774.1041 773.7071 773.3077 772.962 772.7635 772.6893 772.6819 772.7303 772.829 772.9526 773.1622 773.4127 773.6429 773.7909 773.8351 773.8265 773.8038 773.7778 773.7476 773.714 773.679 773.6433 773.6117 773.6339 773.7479 773.9303 774.1118 774.4174 774.5923 774.9459 775.3833 776.0137 776.8794 777.8453 778.7814 779.6212 780.2861 780.6614 780.9016 781.0027 780.9591 780.8135 780.5956 779.9468 778.8812 777.5927 776.6699 775.9001 775.1727 774.4367 773.8881 773.5278 773.297 773.1552 773.0774 773.0317 773.0189 773.0009 772.9504 772.9498 772.9495 772.9476 772.9557 773.2315 773.7931 774.4648 775.0563 775.5896 776.0629 776.4918 776.9095 777.2922 776.739 777.0785 778.0414 778.8433 779.3995 779.8671 780.1489 780.178 779.9951 779.7577 780.0527 781.1904 782.5353 783.6301 784.7406 786.0052 786.8817 -9999 786.2336 785.5883 784.6221 783.1719 781.3168 779.3774 778.0837 776.6117 777.4568 776.7068 776.0577 775.6913 775.3438 775.1564 774.9888 774.821 774.6503 774.4797 774.3064 774.1622 774.063 774.0104 774.0172 774.0945 774.2527 774.4761 774.6572 774.8586 774.876 774.8276 774.7136 774.5079 774.4788 774.4763 774.4786 774.4796 774.4753 774.4883 774.7041 775.0395 775.4021 775.7814 776.1599 776.4049 777.0155 778.4122 780.3146 781.7101 782.2124 782.4203 -9999 -9999 -9999 -9999 -9999 -9999 -9999 -9999 -9999 -9999 -9999 -9999 -9999 -9999 -9999 -9999 -9999 -9999 -9999 -9999 -9999 -9999
-9999 -9999 -9999 -9999 -9999 -9999 -9999 -9999 -9999 -9999 -9999 -9999 -9999 -9999 -9999 -9999 -9999 -9999 -9999 -9999 -9999 -9999 -9999 -9999 -9999 -9999 -9999 -9999 -9999 -9999 -9999 -9999 -9999 -9999 -9999 -9999 -9999 -9999 -9999 -9999 -9999 -9999 -9999 -9999 -9999 -9999 -9999 -9999 -9999 -9999 -9999 -9999 -9999 -9999 -9999 -9999 -9999 -9999 -9999 -9999 -9999 -9999 -9999 -9999 -9999 -9999 -9999 -9999 -9999 -9999 -9999 -9999 -9999 -9999 -9999 -9999 -9999 -9999 -9999 -9999 -9999 -9999 -9999 -9999 -9999 -9999 -9999 -9999 -9999 -9999 -9999 -9999 -9999 -9999 -9999 -9999 -9999 -9999 -9999 -9999 -9999 -9999 -9999 -9999 -9999 -9999 -9999 -9999 -9999 -9999 -9999 -9999 -9999 -9999 -9999 -9999 -9999 -9999 -9999 -9999 -9999 -9999 -9999 -9999 -9999 -9999 -9999 778.1048 777.9666 777.6206 777.1096 776.7885 776.3317 776.1747 775.9681 775.7794 775.6139 775.4329 775.2678 775.2159 775.3184 775.5017 775.7022 775.9659 776.3695 776.9167 777.4886 777.8795 777.9252 777.6104 777.0676 776.5214 776.2635 776.6033 777.739 779.6147 781.2091 782.0686 782.355 782.2618 -9999 -9999 -9999 -9999 -9999 -9999 -9999 -9999 -9999 -9999 -9999 -9999 -9999 -9999 -9999 -9999 -9999 -9999 -9999 -9999 -9999 -9999 -9999 -9999 -9999 -9999 -9999 -9999 779.8932 780.4357 780.7048 780.1952 779.3682 778.2402 777.0244 776.1156 775.543 775.2351 775.1084 775.0814 775.0818 775.1363 775.2344 775.3457 775.4796 775.6298 775.8078 775.9788 776.1319 776.2744 776.3549 776.3346 776.2831 776.2871 776.3608 776.4377 776.5044 776.5403 776.4954 776.3324 776.1337 776.0313 776.1343 776.4554 777.0823 777.9152 778.476 779.7892 778.8073 777.5856 776.7245 776.5847 776.6494 776.4902 776.1902 775.8775 775.5833 775.3135 775.0916 774.8875 774.7433 774.4759 774.118 773.7149 773.2904 772.9594 772.8132 772.7244 772.6936 772.7216 772.8015 772.9527 773.1707 773.3824 773.5085 773.5516 773.5488 773.5287 773.5006 773.4642 773.426 773.3976 773.3897 773.3815 773.3955 773.4762 773.6057 773.7609 773.953 774.1508 774.4744 774.879 775.3973 776.0457 776.7668 777.478 778.0694 778.3977 778.9634 778.9686 778.8724 778.6821 778.3776 778.2181 777.7248 777.1776 776.439 775.7526 775.1238 774.5362 774.0341 773.6278 773.3395 773.1522 773.0433 772.9982 772.9503 772.95 772.9493 772.8811 772.8365 772.8014 772.7731 772.787 773.0051 773.6432 774.3704 774.8932 775.4097 775.8356 776.2319 776.5767 776.7972 776.4229 776.49 776.8824 777.6553 778.0764 778.679 779.3859 779.7736 779.8785 779.7664 780.1124 781.2059 782.4719 783.463 784.4354 785.588 786.325 786.1373 785.6666 784.9578 783.9562 782.5512 780.8079 779.0879 777.8234 777.322 777.7772 777.4326 776.4643 775.996 775.6161 775.3383 775.1027 774.8848 774.6761 774.4799 774.3002 774.1514 774.05 773.9954 773.9936 774.0559 774.1829 774.3477 774.485 774.5756 774.5015 774.4872 774.4629 774.2898 774.2124 774.1859 774.1797 774.1885 774.207 774.2721 774.4835 774.8355 775.1124 775.4803 775.8618 776.1615 776.7141 777.8848 779.7634 781.238 781.54 781.6722 781.7126 -9999 -9999 -9999 -9999 -9999 -9999 -9999 -9999 -9999 -9999 -9999 -9999 -9999 -9999 -9999 -9999 -9999 -9999 -9999 -9999 -9999
-9999 -9999 -9999 -9999 -9999 -9999 -9999 -9999 -9999 -9999 -9999 -9999 -9999 -9999 -9999 -9999 -9999 -9999 -9999 -9999 -9999 -9999 -9999 -9999 -9999 -9999 -9999 -9999 -9999 -9999 -9999 -9999 -9999 -9999 -9999 -9999 -9999 -9999 -9999 -9999 -9999 -9999 -9999 -9999 -9999 -9999 -9999 -9999 -9999 -9999 -9999 -9999 -9999 -9999 -9999 -9999 -9999 -9999 -9999 -9999 -9999 -9999 -9999 -9999 -9999 -9999 -9999 -9999 -9999 -9999 -9999 -9999 -9999 -9999 -9999 -9999 -9999 -9999 -9999 -9999 -9999 -9999 -9999 -9999 -9999 -9999 -9999 -9999 -9999 -9999 -9999 -9999 -9999 -9999 -9999 -9999 -9999 -9999 -9999 -9999 -9999 -9999 -9999 -9999 -9999 -9999 -9999 -9999 -9999 -9999 -9999 -9999 -9999 -9999 -9999 -9999 -9999 -9999 -9999 -9999 -9999 -9999 -9999 -9999 -9999 -9999 -9999 778.6559 778.4252 777.9008 777.0407 776.2688 775.9705 775.793 775.6472 775.5435 775.4754 775.3917 775.2914 775.2622 775.3608 775.5286 775.6938 775.905 776.275 776.8384 777.4836 777.9845 778.1306 777.8619 777.3005 776.6886 776.3368 776.5745 777.6254 779.5173 781.0433 781.9616 782.2777 782.2567 -9999 -9999 -9999 -9999 -9999 -9999 -9999 -9999 -9999 -9999 -9999 -9999 -9999 -9999 -9999 -9999 -9999 -9999 -9999 -9999 -9999 -9999 -9999 -9999 -9999 -9999 -9999 779.1704 779.5849 779.853 779.6295 779.0538 778.2686 777.1229 776.373 775.8048 775.4183 775.1902 775.0826 775.0464 775.0219 775.0222 775.0695 775.1586 775.2686 775.4031 775.5382 775.6901 775.8496 775.9999 776.141 776.2063 776.1853 776.147 776.1506 776.2006 776.2764 776.3579 776.3661 776.2107 775.9777 775.8723 776.044 776.5211 777.1956 777.7485 777.3815 778.2441 778.163 777.942 777.6329 776.9994 777.2413 777.0113 776.6172 776.2676 775.9435 775.6517 775.4016 775.1865 775.0017 774.7698 774.4779 774.1126 773.6139 773.1812 772.9468 772.7516 772.639 772.6097 772.6564 772.7765 772.9539 773.1543 773.2422 773.2681 773.267 773.2552 773.2365 773.2098 773.1803 773.1665 773.1987 773.2213 773.2353 773.2885 773.3771 773.4964 773.6538 773.8404 774.1196 774.474 774.8926 775.3893 775.9333 776.5315 777.0975 777.5104 777.6895 777.5746 777.3636 777.1023 776.8127 776.5981 776.2807 775.9311 775.4965 775.0056 774.5077 774.0789 773.7126 773.4117 773.1896 773.0399 772.9506 772.9492 772.8906 772.8572 772.8267 772.7653 772.7095 772.6694 772.6581 772.7205 772.9591 773.501 774.1001 774.577 775.1078 775.478 775.8454 776.1433 776.2659 776.1822 776.3756 776.8036 776.7981 776.6658 777.0695 777.9206 778.6543 778.8412 778.8932 779.3091 780.2361 781.4467 782.619 783.7629 784.9376 785.7355 785.6189 785.04 784.2434 783.2949 782.0778 780.5591 779.0623 778.0333 777.8745 778.0713 777.4276 776.9131 776.3868 775.9363 775.5682 775.2529 774.9712 774.7128 774.4802 774.2878 774.1281 774.0133 773.9493 773.931 773.9724 774.0666 774.2008 774.3425 774.4634 774.316 774.2217 774.1549 774.0468 773.9796 773.9432 773.9279 773.9395 773.9735 774.0553 774.2311 774.4897 774.7728 775.1791 775.6294 776.0019 776.4883 777.4279 779.3036 780.9179 780.9601 780.9969 781.0302 -9999 -9999 -9999 -9999 -9999 -9999 -9999 -9999 -9999 -9999 -9999 -9999 -9999 -9999 -9999 -9999 -9999 -9999 -9999 -9999 -9999
-9999 -9999 -9999 -9999 -9999 -9999 -9999 -9999 -9999 -9999 -9999 -9999 -9999 -9999 -9999 -9999 -9999 -9999 -9999 -9999 -9999 -9999 -9999 -9999 -9999 -9999 -9999 -9999 -9999 -9999 -9999 -9999 -9999 -9999 -9999 -9999 -9999 -9999 -9999 -9999 -9999 -9999 -9999 -9999 -9999 -9999 -9999 -9999 -9999 -9999 -9999 -9999 -9999 -9999 -9999 -9999 -9999 -9999 -9999 -9999 -9999 -9999 -9999 -9999 -9999 -9999 -9999 -9999 -9999 -9999 -9999 -9999 -9999 -9999 -9999 -9999 -9999 -9999 -9999 -9999 -9999 -9999 -9999 -9999 -9999 -9999 -9999 -9999 -9999 -9999 -9999 -9999 -9999 -9999 -9999 -9999 -9999 -9999 -9999 -9999 -9999 -9999 -9999 -9999 -9999 -9999 -9999 -9999 -9999 -9999 -9999 -9999 -9999 -9999 -9999 -9999 -9999 -9999 -9999 -9999 -9999 -9999 -9999 -9999 -9999 -9999 779.5716 779.1329 778.8636 778.0814 777.0228 776.0848 775.6764 775.4825 775.3668 775.3118 775.3119 775.3137 775.2878 775.2936 775.3964 775.5551 775.6879 775.8278 776.1116 776.6182 777.2668 777.8345 778.0827 777.9048 777.3848 776.7518 776.3055 776.3818 777.2589 779.3145 780.8405 781.7241 782.0128 781.9986 -9999 -9999 -9999 -9999 -9999 -9999 -9999 -9999 -9999 -9999 -9999 -9999 -9999 -9999 -9999 -9999 -9999 -9999 -9999 -9999 -9999 -9999 -9999 -9999 -9999 -9999 778.9773 778.9862 779.0216 778.9075 778.3615 777.7437 777.0778 776.3561 775.8556 775.506 775.2711 775.1239 775.0449 775.0129 774.9846 774.965 774.9636 775.0068 775.0988 775.2243 775.3679 775.5086 775.6514 775.7959 775.9285 776.0353 776.08 776.078 776.0673 776.088 776.1503 776.2445 776.2963 776.1838 775.9525 775.8507 776.0653 776.5748 777.0817 777.1537 776.7708 776.8181 777.1592 777.5148 776.9547 776.4355 777.5591 777.2844 776.8934 776.5218 776.1849 775.8826 775.6162 775.3824 775.173 774.955 774.7127 774.42 773.7966 773.2258 772.938 772.6848 772.527 772.4634 772.4859 772.5875 772.7505 772.9323 772.9518 772.9503 772.9489 772.9481 772.9478 772.9476 772.9477 772.9545 773.0579 773.0889 773.1025 773.1561 773.2159 773.2925 773.4257 773.6063 773.8458 774.1398 774.4795 774.8576 775.2389 775.7897 776.3459 776.7001 776.6992 776.5189 776.2787 776.0124 775.7501 775.5478 775.3292 775.0811 774.8422 774.4851 774.1023 773.7585 773.4734 773.2416 773.0688 772.9496 772.866 772.8297 772.7759 772.7271 772.6793 772.6223 772.5736 772.5516 772.5806 772.6984 772.9576 773.4012 773.9263 774.4329 774.7979 775.0246 775.3647 775.6599 775.7629 775.7822 776.0208 776.2706 776.1769 775.9969 776.2008 776.732 777.106 777.4376 777.5076 777.9813 778.8325 779.9291 781.095 782.3415 783.6554 784.5867 784.6947 784.1774 783.5157 782.7367 781.6758 780.3474 779.0244 778.1028 778.1097 778.3077 777.0003 776.8984 776.528 776.1152 775.7289 775.3755 775.0504 774.7496 774.4807 774.2722 774.0973 773.9611 773.8729 773.8335 773.8434 773.9005 773.9846 774.0681 774.1116 774.0166 773.9156 773.8435 773.7856 773.7562 773.7354 773.7162 773.7195 773.759 773.8374 773.9854 774.1847 774.4748 774.8817 775.425 775.944 776.5294 777.4853 779.101 780.9286 781.6111 781.6791 780.8861 -9999 -9999 -9999 -9999 -9999 -9999 -9999 -9999 -9999 -9999 -9999 -9999 -9999 -9999 -9999 -9999 -9999 -9999 -9999 -9999 -9999
-9999 -9999 -9999 -9999 -9999 -9999 -9999 -9999 -9999 -9999 -9999 -9999 -9999 -9999 -9999 -9999 -9999 -9999 -9999 -9999 -9999 -9999 -9999 -9999 -9999 -9999 -9999 -9999 -9999 -9999 -9999 -9999 -9999 -9999 -9999 -9999 -9999 -9999 -9999 -9999 -9999 -9999 -9999 -9999 -9999 -9999 -9999 -9999 -9999 -9999 -9999 -9999 -9999 -9999 -9999 -9999 -9999 -9999 -9999 -9999 -9999 -9999 -9999 -9999 -9999 -9999 -9999 -9999 -9999 -9999 -9999 -9999 -9999 -9999 -9999 -9999 -9999 -9999 -9999 -9999 -9999 -9999 -9999 -9999 -9999 -9999 -9999 -9999 -9999 -9999 -9999 -9999 -9999 -9999 -9999 -9999 -9999 -9999 -9999 -9999 -9999 -9999 -9999 -9999 -9999 -9999 -9999 -9999 -9999 -9999 -9999 -9999 -9999 -9999 -9999 -9999 -9999 -9999 -9999 -9999 -9999 -9999 -9999 -9999 -9999 780.2184 780.0033 779.6351 779.1262 778.2591 777.0308 776.0038 775.4819 775.2539 775.1561 775.1279 775.1641 775.2225 775.2612 775.3094 775.4249 775.5836 775.7009 775.7804 775.9558 776.3485 776.9249 777.4956 777.8157 777.7454 777.3188 776.7268 776.2463 776.2185 776.989 779.0421 780.6135 781.4919 781.7709 781.6895 -9999 -9999 -9999 -9999 -9999 -9999 -9999 -9999 -9999 -9999 -9999 -9999 -9999 -9999 -9999 -9999 -9999 -9999 -9999 -9999 -9999 -9999 -9999 -9999 -9999 778.571 778.4968 778.4759 778.4066 778.0488 777.3323 776.5534 776.1307 775.7468 775.4631 775.2693 775.1409 775.0568 775.0028 774.9781 774.9646 774.9373 774.9158 774.9139 774.962 775.0622 775.2064 775.3716 775.5276 775.6602 775.7772 775.8755 775.9435 775.9861 776.0166 776.0492 776.1082 776.2057 776.2872 776.2383 776.0297 775.8998 776.0709 776.4998 776.7203 776.671 776.3885 776.2179 776.2156 776.5334 776.1595 776.2579 776.9941 777.0685 776.8611 776.5653 776.267 775.9794 775.7097 775.4621 775.2332 774.9987 774.7379 774.4499 773.7529 773.0411 772.7333 772.5076 772.3508 772.2721 772.2708 772.3363 772.4439 772.5471 772.5699 772.5692 772.5674 772.5693 772.5811 772.6118 772.6744 772.7762 772.9383 772.9493 772.9529 773.0458 773.0835 773.127 773.2441 773.4133 773.6227 773.8651 774.138 774.4277 774.6074 775.1237 775.6898 775.8978 775.8524 775.688 775.4846 775.2587 775.0227 774.8882 774.7501 774.5274 774.4393 774.1415 773.8168 773.5227 773.2826 773.094 772.9496 772.8377 772.7529 772.6918 772.6299 772.5706 772.5139 772.4598 772.4214 772.4206 772.4847 772.6475 772.9327 773.2506 773.6729 774.1081 774.4415 774.5302 774.8604 775.1908 775.3064 775.3373 775.5175 775.733 775.7193 775.587 775.7172 776.1563 776.5814 776.5547 776.4523 776.6412 777.4709 778.4302 779.3005 780.395 781.7429 782.7776 783.0733 782.764 782.259 781.601 780.7333 779.7059 778.6945 777.938 777.7166 777.5557 776.856 776.6174 776.422 776.1053 775.7639 775.4244 775.0955 774.7766 774.4814 774.2555 774.0641 773.8987 773.7761 773.7068 773.6783 773.6967 773.7256 773.7466 773.7343 773.6583 773.5692 773.5231 773.5172 773.5417 773.5551 773.5422 773.5289 773.5546 773.6256 773.7453 773.9042 774.1227 774.5088 775.1249 775.8536 776.6235 777.5878 779.0934 781.161 782.5088 782.6718 781.488 -9999 -9999 -9999 -9999 -9999 -9999 -9999 -9999 -9999 -9999 -9999 -9999 -9999 -9999 -9999 -9999 -9999 -9999 -9999 -9999 -9999
-9999 -9999 -9999 -9999 -9999 -9999 -9999 -9999 -9999 -9999 -9999 -9999 -9999 -9999 -9999 -9999 -9999 -9999 -9999 -9999 -9999 -9999 -9999 -9999 -9999 -9999 -9999 -9999 -9999 -9999 -9999 -9999 -9999 -9999 -9999 -9999 -9999 -9999 -9999 -9999 -9999 -9999 -9999 -9999 -9999 -9999 -9999 -9999 -9999 -9999 -9999 -9999 -9999 -9999 -9999 -9999 -9999 -9999 -9999 -9999 -9999 -9999 -9999 -9999 -9999 -9999 -9999 -9999 -9999 -9999 -9999 -9999 -9999 -9999 -9999 -9999 -9999 -9999 -9999 -9999 -9999 -9999 -9999 -9999 -9999 -9999 -9999 -9999 -9999 -9999 -9999 -9999 -9999 -9999 -9999 -9999 -9999 -9999 -9999 -9999 -9999 -9999 -9999 -9999 -9999 -9999 -9999 -9999 -9999 -9999 -9999 -9999 -9999 -9999 -9999 -9999 -9999 -9999 -9999 -9999 -9999 -9999 -9999 -9999 780.5153 780.505 780.3323 779.9503 779.1926 778.142 776.829 775.777 775.2704 775.0664 775.0001 775.0006 775.0554 775.1414 775.2197 775.3029 775.4364 775.6053 775.7277 775.7788 775.8621 776.1185 776.5698 777.0758 777.4203 777.4432 777.1411 776.652 776.2128 776.1311 776.7573 778.575 780.2645 781.1753 781.4462 781.3403 -9999 -9999 -9999 -9999 -9999 -9999 -9999 -9999 -9999 -9999 -9999 -9999 -9999 -9999 -9999 -9999 -9999 -9999 -9999 -9999 -9999 -9999 -9999 -9999 778.4008 778.0325 778.0042 778.0168 777.9946 777.5757 776.7296 776.0083 775.6187 775.3752 775.2189 775.1202 775.0571 775.0095 774.9683 774.9399 774.9292 774.9152 774.8888 774.8695 774.8798 774.9413 775.0524 775.2155 775.3974 775.5518 775.6661 775.7549 775.8273 775.8903 775.9579 776.0226 776.0922 776.1896 776.2941 776.3188 776.1672 775.9936 776.0103 776.2139 776.366 776.3972 776.287 776.1578 776.08 776.1296 775.9993 776.1527 776.5735 776.7341 776.657 776.4473 776.2119 775.9547 775.6909 775.4348 775.2004 774.9711 774.708 774.3834 773.66 772.9837 772.5975 772.3361 772.1597 772.0592 772.029 772.0524 772.0984 772.135 772.1505 772.1548 772.1562 772.1589 772.1734 772.22 772.3242 772.4613 772.6113 772.7032 772.8005 772.9429 772.9494 772.9531 773.0847 773.2497 773.4313 773.6201 773.8199 774.0183 774.2009 774.5563 775.0377 775.1636 775.1226 775.0234 774.9057 774.75 774.5175 774.4795 774.4522 774.2453 774.0848 773.8412 773.5718 773.3229 773.1132 772.9496 772.8174 772.71 772.6205 772.543 772.4686 772.3986 772.3345 772.2791 772.2443 772.2505 772.3192 772.4679 772.6953 772.9598 773.3232 773.7118 774.0203 774.2343 774.4763 774.7832 774.8869 774.8787 774.9902 775.2169 775.3129 775.2576 775.3676 775.7028 776.0146 775.9429 775.8853 776.2419 777.0952 777.9424 778.1377 778.4817 779.5514 780.4467 780.7667 780.6241 780.2877 779.7399 779.1133 778.4063 777.6937 777.1685 777.0125 776.8577 776.5137 776.3111 776.1621 775.939 775.6704 775.3824 775.0908 774.7864 774.4829 774.2408 774.0253 773.8267 773.6714 773.553 773.5017 773.4734 773.4639 773.4326 773.3922 773.3168 773.2298 773.2254 773.2675 773.3436 773.4012 773.4034 773.3743 773.3721 773.4264 773.5349 773.6696 773.8457 774.1702 774.7187 775.6344 776.6208 777.5989 779.0911 781.4705 783.3544 783.9993 782.9713 781.016 -9999 -9999 -9999 -9999 -9999 -9999 -9999 -9999 -9999 -9999 -9999 -9999 -9999 -9999 -9999 -9999 -9999 -9999 -9999 -9999
-9999 -9999 -9999 -9999 -9999 -9999 -9999 -9999 -9999 -9999 -9999 -9999 -9999 -9999 -9999 -9999 -9999 -9999 -9999 -9999 -9999 -9999 -9999 -9999 -9999 -9999 -9999 -9999 -9999 -9999 -9999 -9999 -9999 -9999 -9999 -9999 -9999 -9999 -9999 -9999 -9999 -9999 -9999 -9999 -9999 -9999 -9999 -9999 -9999 -9999 -9999 -9999 -9999 -9999 -9999 -9999 -9999 -9999 -9999 -9999 -9999 -9999 -9999 -9999 -9999 -9999 -9999 -9999 -9999 -9999 -9999 -9999 -9999 -9999 -9999 -9999 -9999 -9999 -9999 -9999 -9999 -9999 -9999 -9999 -9999 -9999 -9999 -9999 -9999 -9999 -9999 -9999 -9999 -9999 -9999 -9999 -9999 -9999 -9999 -9999 -9999 -9999 -9999 -9999 -9999 -9999 -9999 -9999 -9999 -9999 -9999 -9999 -9999 -9999 -9999 -9999 -9999 -9999 -9999 -9999 -9999 -9999 -9999 -9999 781.0031 780.7972 780.5085 779.9725 778.9727 777.6579 776.3284 775.4959 775.0741 774.917 774.8918 774.9205 774.989 775.0846 775.1788 775.2761 775.4178 775.5999 775.7444 775.8022 775.8391 775.9781 776.2866 776.6843 777.0018 777.0889 776.9111 776.5602 776.2211 776.142 776.606 777.788 779.4899 780.5965 780.9619 781.0181 780.9961 -9999 -9999 -9999 -9999 -9999 -9999 -9999 -9999 -9999 -9999 -9999 -9999 -9999 -9999 -9999 -9999 -9999 -9999 -9999 -9999 -9999 -9999 778.9487 778.1296 777.8594 777.8904 777.9481 777.816 777.3168 776.2866 775.6681 775.3395 775.1758 775.0946 775.0517 775.0243 774.9946 774.954 774.9127 774.8876 774.8779 774.8621 774.8412 774.8387 774.8743 774.9512 775.0763 775.2482 775.4187 775.5525 775.6544 775.7405 775.8206 775.9137 776.0079 776.0882 776.1712 776.2758 776.3512 776.3088 776.1523 776.0598 776.1086 776.219 776.3356 776.4037 776.3823 776.2421 776.1203 776.0165 776.0846 776.3009 776.4341 776.416 776.2778 776.0808 775.8458 775.588 775.3207 775.0774 774.8444 774.5109 774.0612 773.4185 772.9092 772.4833 772.1815 771.9757 771.8497 771.7923 771.7825 771.7769 771.749 771.7518 771.7579 771.7611 771.7621 771.7689 771.8091 771.9407 772.0803 772.2191 772.3624 772.5183 772.6703 772.7463 772.8146 772.9492 773.1007 773.2554 773.394 773.5488 773.7067 773.8811 774.1453 774.4472 774.5062 774.4968 774.485 774.4796 774.4519 774.2634 774.1739 774.1041 773.9491 773.781 773.5723 773.3462 773.1317 772.95 772.8003 772.6781 772.5739 772.479 772.3895 772.3024 772.2203 772.1465 772.0839 772.0439 772.0451 772.1003 772.2209 772.4086 772.6475 772.9565 773.3129 773.6504 773.9105 774.1986 774.4448 774.4872 774.4803 774.5035 774.7573 774.8892 774.9094 775.0408 775.3098 775.498 775.4697 775.475 775.9369 776.71 777.1046 777.1641 777.3336 777.8947 778.3805 778.4968 778.2219 778.0044 777.5172 777.1522 776.9731 776.7098 776.4759 776.3701 776.27 776.098 775.9642 775.8468 775.6801 775.4677 775.2426 775.0183 774.7692 774.4854 774.2223 773.9659 773.7426 773.5438 773.4049 773.3051 773.2711 773.2263 773.1627 773.1222 773.0581 772.9557 773.0122 773.0858 773.1873 773.2777 773.2965 773.2561 773.2211 773.2563 773.3615 773.5091 773.6874 773.9974 774.528 775.3632 776.3066 777.4276 779.0959 781.9266 784.441 785.6789 785.0041 783.1503 -9999 -9999 -9999 -9999 -9999 -9999 -9999 -9999 -9999 -9999 -9999 -9999 -9999 -9999 -9999 -9999 -9999 -9999 -9999 -9999
-9999 -9999 -9999 -9999 -9999 -9999 -9999 -9999 -9999 -9999 -9999 -9999 -9999 -9999 -9999 -9999 -9999 -9999 -9999 -9999 -9999 -9999 -9999 -9999 -9999 -9999 -9999 -9999 -9999 -9999 -9999 -9999 -9999 -9999 -9999 -9999 -9999 -9999 -9999 -9999 -9999 -9999 -9999 -9999 -9999 -9999 -9999 -9999 -9999 -9999 -9999 -9999 -9999 -9999 -9999 -9999 -9999 -9999 -9999 -9999 -9999 -9999 -9999 -9999 -9999 -9999 -9999 -9999 -9999 -9999 -9999 -9999 -9999 -9999 -9999 -9999 -9999 -9999 -9999 -9999 -9999 -9999 -9999 -9999 -9999 -9999 -9999 -9999 -9999 -9999 -9999 -9999 -9999 -9999 -9999 -9999 -9999 -9999 -9999 -9999 -9999 -9999 -9999 -9999 -9999 -9999 -9999 -9999 -9999 -9999 -9999 -9999 -9999 -9999 -9999 -9999 -9999 -9999 -9999 -9999 -9999 -9999 -9999 782.1183 781.5718 781.0298 780.5319 779.8181 778.6022 777.1749 775.9207 775.2545 774.9316 774.8235 774.8295 774.8818 774.9586 775.0543 775.1493 775.2424 775.3719 775.5513 775.72 775.8101 775.8469 775.9205 776.1044 776.3827 776.6414 776.7576 776.6844 776.4711 776.2457 776.1891 776.5234 777.3766 778.5812 779.5778 780.1513 780.6633 781.0229 781.0001 -9999 -9999 -9999 -9999 -9999 -9999 -9999 -9999 -9999 -9999 -9999 -9999 -9999 -9999 -9999 -9999 -9999 -9999 -9999 -9999 779.9944 779.0209 778.3839 778.0967 778.0906 777.9796 777.4891 776.5712 775.8746 775.4304 775.1914 775.086 775.0486 775.0358 775.0258 775.0059 774.9637 774.9081 774.8616 774.8395 774.8316 774.8114 774.8152 774.8458 774.9083 774.9994 775.1327 775.2894 775.4299 775.5504 775.6656 775.7842 775.9043 776.026 776.1133 776.1685 776.2354 776.3118 776.3664 776.304 776.2219 776.2052 776.2912 776.4489 776.6248 776.7117 776.4665 776.2112 776.0447 776.0214 776.1041 776.1818 776.176 776.0734 775.9023 775.6861 775.4402 775.1741 774.9088 774.7029 774.3797 773.7441 773.0705 772.6647 772.31 772.023 771.8071 771.6619 771.5872 771.5685 771.5372 771.4373 771.4301 771.4304 771.4304 771.4299 771.4291 771.4442 771.6095 771.7139 771.8116 771.9882 772.1851 772.3683 772.509 772.6382 772.7913 772.9501 773.0919 773.1748 773.3075 773.4525 773.5961 773.7689 773.9393 774.0054 774.0295 774.0529 774.0767 774.0673 773.9679 773.8807 773.7925 773.6628 773.5121 773.3315 773.1362 772.9505 772.7896 772.653 772.5379 772.4362 772.3378 772.239 772.1407 772.0458 771.9586 771.8829 771.8306 771.8229 771.8585 771.9478 772.1102 772.33 772.6165 772.951 773.2853 773.5806 773.8055 774.0084 774.0847 774.129 774.2262 774.4418 774.4811 774.5112 774.6989 774.8648 774.9807 774.9929 775.0236 775.4601 775.9293 776.1592 776.2126 776.3324 776.6151 776.8289 776.8485 776.6704 776.4555 776.1591 775.9778 775.9481 775.911 775.8574 775.8187 775.7636 775.6719 775.59 775.5015 775.3663 775.1817 774.9988 774.814 774.6863 774.4698 774.1608 773.8669 773.6127 773.4133 773.2359 773.1317 773.0867 773.0504 772.9535 772.9498 772.9484 772.9006 772.9496 773.0009 773.0865 773.1823 773.2142 773.1686 773.1072 773.1113 773.2172 773.3986 773.6185 773.9401 774.4578 775.1358 776.0924 777.4468 779.4808 782.6735 785.7186 787.5009 787.2415 785.4904 -9999 -9999 -9999 -9999 -9999 -9999 -9999 -9999 -9999 -9999 -9999 -9999 -9999 -9999 -9999 -9999 -9999 -9999 -9999 -9999
-9999 -9999 -9999 -9999 -9999 -9999 -9999 -9999 -9999 -9999 -9999 -9999 -9999 -9999 -9999 -9999 -9999 -9999 -9999 -9999 -9999 -9999 -9999 -9999 -9999 -9999 -9999 -9999 -9999 -9999 -9999 -9999 -9999 -9999 -9999 -9999 -9999 -9999 -9999 -9999 -9999 -9999 -9999 -9999 -9999 -9999 -9999 -9999 -9999 -9999 -9999 -9999 -9999 -9999 -9999 -9999 -9999 -9999 -9999 -9999 -9999 -9999 -9999 -9999 -9999 -9999 -9999 -9999 -9999 -9999 -9999 -9999 -9999 -9999 -9999 -9999 -9999 -9999 -9999 -9999 -9999 -9999 -9999 -9999 -9999 -9999 -9999 -9999 -9999 -9999 -9999 -9999 -9999 -9999 -9999 -9999 -9999 -9999 -9999 -9999 -9999 -9999 -9999 -9999 -9999 -9999 -9999 -9999 -9999 -9999 -9999 -9999 -9999 -9999 -9999 -9999 -9999 -9999 -9999 -9999 -9999 -9999 -9999 782.7462 781.9601 781.1081 780.3318 779.3598 777.9312 776.5618 775.6467 775.1284 774.8795 774.8 774.8169 774.8755 774.9534 775.0438 775.1324 775.213 775.3151 775.4674 775.6392 775.7644 775.8302 775.8917 775.9993 776.1726 776.3641 776.488 776.4925 776.3927 776.2565 776.1977 776.3464 776.7856 777.439 778.282 779.137 780.1234 780.8935 780.8154 780.7799 -9999 -9999 -9999 -9999 -9999 -9999 -9999 -9999 -9999 -9999 -9999 -9999 -9999 -9999 -9999 -9999 -9999 -9999 -9999 779.8284 779.0573 778.7959 778.7937 778.7177 777.8335 776.7613 776.067 775.5812 775.2796 775.1239 775.0629 775.0507 775.0516 775.0492 775.0323 774.9937 774.9321 774.8678 774.8236 774.8046 774.7926 774.801 774.8411 774.9017 774.9816 775.0818 775.2084 775.3398 775.4668 775.605 775.7655 775.9302 776.082 776.1834 776.2145 776.213 776.2455 776.2983 776.3517 776.361 776.3801 776.46 776.5959 776.7468 776.9018 776.5084 776.1909 775.9945 775.9158 775.9223 775.9526 775.9404 775.8516 775.6948 775.4924 775.2603 775.0063 774.7396 774.4531 773.9977 773.4061 772.9178 772.5127 772.1755 771.8961 771.6752 771.5151 771.4308 771.4299 771.4271 771.3076 771.241 771.2085 771.1953 771.1968 771.2179 771.2805 771.4218 771.4298 771.4464 771.6483 771.8722 772.0801 772.2618 772.4326 772.6099 772.7889 772.9431 772.9567 773.1002 773.242 773.3483 773.4454 773.5376 773.6064 773.6511 773.6867 773.7147 773.7157 773.6665 773.5985 773.5133 773.4014 773.28 773.1227 772.9509 772.79 772.6428 772.5126 772.4017 772.3022 772.2025 772.098 771.9918 771.8865 771.785 771.6915 771.6196 771.6083 771.6238 771.6758 771.8218 772.0167 772.2875 772.6149 772.9495 773.2339 773.3972 773.571 773.6675 773.7392 773.8386 774.0048 774.1094 774.2375 774.4497 774.4789 774.4829 774.4905 774.5607 775.0148 775.1821 775.2571 775.3127 775.4664 775.6432 775.7427 775.7286 775.6388 775.4877 775.3173 775.2357 775.2548 775.3049 775.3303 775.33 775.3036 775.258 775.2126 775.1508 775.0352 774.8469 774.703 774.5028 774.4648 774.2521 773.9631 773.6834 773.4385 773.2534 773.0859 772.9526 772.9496 772.9472 772.8545 772.8173 772.8137 772.8215 772.8805 772.9496 773.0194 773.1057 773.1425 773.1031 773.0286 773.0021 773.0858 773.2764 773.5391 773.8803 774.3777 774.8947 775.9493 777.6138 780.0682 783.3878 786.7962 789.0273 789.1555 787.5626 -9999 -9999 -9999 -9999 -9999 -9999 -9999 -9999 -9999 -9999 -9999 -9999 -9999 -9999 -9999 -9999 -9999 -9999 -9999 -9999
-9999 -9999 -9999 -9999 -9999 -9999 -9999 -9999 -9999 -9999 -9999 -9999 -9999 -9999 -9999 -9999 -9999 -9999 -9999 -9999 -9999 -9999 -9999 -9999 -9999 -9999 -9999 -9999 -9999 -9999 -9999 -9999 -9999 -9999 -9999 -9999 -9999 -9999 -9999 -9999 -9999 -9999 -9999 -9999 -9999 -9999 -9999 -9999 -9999 -9999 -9999 -9999 -9999 -9999 -9999 -9999 -9999 -9999 -9999 -9999 -9999 -9999 -9999 -9999 -9999 -9999 -9999 -9999 -9999 -9999 -9999 -9999 -9999 -9999 -9999 -9999 -9999 -9999 -9999 -9999 -9999 -9999 -9999 -9999 -9999 -9999 -9999 -9999 -9999 -9999 -9999 -9999 -9999 -9999 -9999 -9999 -9999 -9999 -9999 -9999 -9999 -9999 -9999 -9999 -9999 -9999 -9999 -9999 -9999 -9999 -9999 -9999 -9999 -9999 -9999 -9999 -9999 -9999 -9999 -9999 -9999 -9999 -9999 782.5414 781.8044 780.9014 779.8864 778.6353 777.3763 776.2734 775.5294 775.1048 774.9028 774.8373 774.8477 774.895 774.9615 775.0411 775.1211 775.1901 775.2631 775.3724 775.5181 775.6553 775.7528 775.8286 775.912 776.0181 776.1493 776.2715 776.3381 776.3306 776.2645 776.1893 776.1843 776.3109 776.5878 777.0705 778.0298 779.3024 780.2881 780.0609 780.1127 780.9448 -9999 -9999 -9999 -9999 -9999 -9999 -9999 -9999 -9999 -9999 -9999 -9999 -9999 -9999 -9999 -9999 -9999 780.0526 779.2344 778.907 778.8837 778.8941 778.2129 777.3468 776.4181 775.7984 775.4154 775.2006 775.1033 775.0747 775.0759 775.0828 775.0833 775.0709 775.0399 774.9865 774.9208 774.8615 774.83 774.8228 774.8318 774.8655 774.9229 774.9965 775.083 775.187 775.3074 775.4377 775.588 775.7739 775.985 776.17 776.2921 776.3091 776.251 776.1954 776.202 776.2568 776.363 776.4972 776.6405 776.6937 776.4697 776.155 776.1062 775.9894 775.8612 775.7719 775.7389 775.7338 775.7079 775.6206 775.4679 775.2681 775.0355 774.7722 774.4669 774.0708 773.5733 773.0313 772.6895 772.3718 772.0768 771.8157 771.5978 771.4309 771.3489 771.3179 771.2811 771.1868 771.1061 771.0544 771.03 771.0309 771.0588 771.1193 771.2023 771.2272 771.272 771.4293 771.6245 771.8268 772.0212 772.2086 772.3937 772.5713 772.7214 772.8097 772.9503 773.0856 773.1404 773.1748 773.2147 773.2947 773.3505 773.3857 773.4083 773.4136 773.3914 773.3448 773.2697 773.1663 773.0909 772.9509 772.7987 772.6489 772.5074 772.3799 772.2701 772.1727 772.0751 771.9697 771.8602 771.7507 771.6411 771.5319 771.4321 771.4291 771.4289 771.4351 771.5766 771.7156 771.968 772.2893 772.6289 772.918 772.9877 773.1931 773.2808 773.3246 773.4004 773.5617 773.7021 773.8611 774.0286 774.0845 774.0897 774.1224 774.2219 774.4592 774.489 774.4976 774.5571 774.8055 774.9473 775.002 774.985 774.9571 774.8917 774.8121 774.7838 774.7942 774.8408 774.8773 774.8879 774.879 774.8607 774.8459 774.8174 774.7315 774.5083 774.4596 774.2703 774.1341 773.9203 773.6636 773.4282 773.2197 773.0981 772.9502 772.8306 772.7888 772.7646 772.705 772.6659 772.663 772.7002 772.7791 772.866 772.9498 773.032 773.074 773.0399 772.9757 772.933 772.9824 773.1398 773.3843 773.6827 774.0687 774.6121 775.7802 777.665 780.3467 783.7488 787.37 789.8882 790.1982 788.919 -9999 -9999 -9999 -9999 -9999 -9999 -9999 -9999 -9999 -9999 -9999 -9999 -9999 -9999 -9999 -9999 -9999 -9999 -9999 -9999
-9999 -9999 -9999 -9999 -9999 -9999 -9999 -9999 -9999 -9999 -9999 -9999 -9999 -9999 -9999 -9999 -9999 -9999 -9999 -9999 -9999 -9999 -9999 -9999 -9999 -9999 -9999 -9999 -9999 -9999 -9999 -9999 -9999 -9999 -9999 -9999 -9999 -9999 -9999 -9999 -9999 -9999 -9999 -9999 -9999 -9999 -9999 -9999 -9999 -9999 -9999 -9999 -9999 -9999 -9999 -9999 -9999 -9999 -9999 -9999 -9999 -9999 -9999 -9999 -9999 -9999 -9999 -9999 -9999 -9999 -9999 -9999 -9999 -9999 -9999 -9999 -9999 -9999 -9999 -9999 -9999 -9999 -9999 -9999 -9999 -9999 -9999 -9999 -9999 -9999 -9999 -9999 -9999 -9999 -9999 -9999 -9999 -9999 -9999 -9999 -9999 -9999 -9999 -9999 -9999 -9999 -9999 -9999 -9999 -9999 -9999 -9999 -9999 -9999 -9999 -9999 -9999 -9999 -9999 -9999 -9999 -9999 -9999 781.9302 781.0908 780.2761 779.278 777.9477 776.8705 776.0208 775.4504 775.1211 774.962 774.9072 774.9061 774.9314 774.975 775.0358 775.1036 775.1646 775.2185 775.2875 775.3898 775.5099 775.6168 775.7059 775.7859 775.8638 775.9584 776.0784 776.1985 776.276 776.2795 776.209 776.1038 776.0339 776.0685 776.3088 776.9548 778.1237 779.2004 779.2236 780.0265 780.9761 -9999 -9999 -9999 -9999 -9999 -9999 -9999 -9999 -9999 -9999 -9999 -9999 -9999 -9999 -9999 -9999 -9999 779.3286 778.8224 778.6071 778.5089 778.2327 777.1836 776.5759 775.9962 775.5675 775.3011 775.1592 775.1012 775.0938 775.1046 775.116 775.1213 775.1194 775.1061 775.0745 775.0258 774.9713 774.9281 774.9203 774.932 774.9501 774.9852 775.041 775.1155 775.2081 775.327 775.4701 775.6364 775.8345 776.0679 776.2862 776.4279 776.4402 776.3414 776.2067 776.1252 776.1378 776.2684 776.5345 776.9026 777.1082 776.402 776.1273 776.0251 775.9087 775.7728 775.6487 775.5679 775.5284 775.4834 775.3868 775.2273 775.0177 774.7686 774.4748 774.1163 773.6993 773.2673 772.9259 772.5939 772.2949 772.024 771.7825 771.5813 771.4295 771.3195 771.2474 771.1785 771.0887 771.005 770.9442 770.9116 770.9079 770.9318 770.9799 771.0381 771.0812 771.145 771.2693 771.43 771.6087 771.795 771.9814 772.163 772.3346 772.4927 772.634 772.7947 772.9438 772.9509 772.9496 772.9561 773.0721 773.1245 773.1478 773.1591 773.163 773.1549 773.1306 773.0739 772.9556 772.9456 772.8103 772.6581 772.5115 772.3738 772.2488 772.1404 772.0457 771.9525 771.8518 771.7446 771.6375 771.5323 771.4293 771.3269 771.2887 771.2825 771.3141 771.4232 771.4417 771.6669 771.9673 772.2817 772.5551 772.725 772.9294 772.9518 772.95 772.9763 773.173 773.3022 773.4739 773.6154 773.7099 773.7533 773.8043 773.9032 774.0297 774.075 774.108 774.2146 774.4402 774.4789 774.4816 774.4778 774.4751 774.4783 774.4744 774.4739 774.4767 774.4778 774.4815 774.4832 774.4827 774.4814 774.4815 774.4825 774.4572 774.2585 774.1252 773.9542 773.776 773.5513 773.3148 773.1529 772.9628 772.9411 772.7975 772.6719 772.6011 772.559 772.5164 772.4862 772.4878 772.5392 772.6364 772.747 772.8516 772.9501 773.0112 772.9884 772.9264 772.895 772.9219 773.0415 773.2357 773.5055 773.8785 774.5078 775.7185 777.6385 780.3483 783.7536 787.5183 790.2837 790.959 789.7028 -9999 -9999 -9999 -9999 -9999 -9999 -9999 -9999 -9999 -9999 -9999 -9999 -9999 -9999 -9999 -9999 -9999 -9999 -9999 -9999
-9999 -9999 -9999 -9999 -9999 -9999 -9999 -9999 -9999 -9999 -9999 -9999 -9999 -9999 -9999 -9999 -9999 -9999 -9999 -9999 -9999 -9999 -9999 -9999 -9999 -9999 -9999 -9999 -9999 -9999 -9999 -9999 -9999 -9999 -9999 -9999 -9999 -9999 -9999 -9999 -9999 -9999 -9999 -9999 -9999 -9999 -9999 -9999 -9999 -9999 -9999 -9999 -9999 -9999 -9999 -9999 -9999 -9999 -9999 -9999 -9999 -9999 -9999 -9999 -9999 -9999 -9999 -9999 -9999 -9999 -9999 -9999 -9999 -9999 -9999 -9999 -9999 -9999 -9999 -9999 -9999 -9999 -9999 -9999 -9999 -9999 -9999 -9999 -9999 -9999 -9999 -9999 -9999 -9999 -9999 -9999 -9999 -9999 -9999 -9999 -9999 -9999 -9999 -9999 -9999 -9999 -9999 -9999 -9999 -9999 -9999 -9999 -9999 -9999 -9999 -9999 -9999 -9999 -9999 -9999 -9999 -9999 782.001 781.0374 780.1885 779.4315 778.3742 777.2461 776.3715 775.7585 775.3652 775.1419 775.0297 774.9862 774.9753 774.9764 774.9901 775.0237 775.0731 775.124 775.1698 775.2145 775.2774 775.3651 775.4606 775.5443 775.6157 775.6763 775.7512 775.8747 776.0442 776.2062 776.2916 776.2568 776.1132 775.932 775.7998 775.8363 776.1943 777.0207 778.2403 779.3364 780.3207 781.3898 781.8816 -9999 -9999 -9999 -9999 -9999 -9999 -9999 -9999 -9999 -9999 -9999 -9999 -9999 -9999 -9999 -9999 779.0909 778.6014 778.2653 777.9228 777.2642 776.5343 776.0443 775.6605 775.3883 775.2229 775.1376 775.1035 775.1017 775.1157 775.1343 775.1525 775.1727 775.1942 775.2018 775.1865 775.153 775.1123 775.0945 775.1048 775.109 775.1099 775.132 775.1838 775.2644 775.3829 775.5475 775.7445 775.9601 776.1925 776.4219 776.5715 776.5917 776.4607 776.2668 776.0997 776.0429 776.1443 776.5303 777.3445 778.4764 777.2878 776.6125 776.2509 775.993 775.7739 775.5798 775.4314 775.3395 775.2656 775.1537 774.9797 774.7515 774.4769 774.1482 773.7729 773.3708 772.9824 772.7491 772.4975 772.2436 771.9969 771.7727 771.5819 771.4299 771.3052 771.2064 771.1157 771.0211 770.9337 770.8663 770.8265 770.8162 770.8328 770.8706 770.9202 770.9734 771.0446 771.15 771.2817 771.4302 771.5936 771.7649 771.9338 772.093 772.2501 772.4075 772.5649 772.6926 772.739 772.7705 772.8276 772.9451 772.9506 772.9501 772.9501 772.9501 772.9503 772.9507 772.9459 772.8358 772.7632 772.6397 772.4982 772.3608 772.2315 772.1134 772.0098 771.9194 771.8324 771.7385 771.6368 771.5332 771.4297 771.3216 771.2242 771.1685 771.15 771.1692 771.2252 771.2695 771.4312 771.6782 771.9552 772.2079 772.4069 772.5684 772.6285 772.6683 772.7518 772.9331 772.9679 773.1449 773.2522 773.3712 773.4512 773.5221 773.6084 773.7064 773.769 773.8275 773.9188 774.0365 774.0646 774.0622 774.0682 774.0778 774.1014 774.1255 774.1411 774.1489 774.1515 774.1484 774.1456 774.1414 774.1339 774.1202 774.0977 774.0464 773.8998 773.752 773.6065 773.4397 773.2065 772.9728 772.9345 772.776 772.6879 772.566 772.4531 772.3773 772.3322 772.3 772.28 772.2872 772.3436 772.4519 772.5857 772.7211 772.8503 772.9499 772.9627 772.9006 772.8612 772.8948 772.9934 773.1624 773.405 773.7936 774.4747 775.6691 777.5525 780.2281 783.6426 787.5949 790.6499 791.7427 790.4177 787.8563 -9999 -9999 -9999 -9999 -9999 -9999 -9999 -9999 -9999 -9999 -9999 -9999 -9999 -9999 -9999 -9999 -9999 -9999 -9999
-9999 -9999 -9999 -9999 -9999 -9999 -9999 -9999 -9999 -9999 -9999 -9999 -9999 -9999 -9999 -9999 -9999 -9999 -9999 -9999 -9999 -9999 -9999 -9999 -9999 -9999 -9999 -9999 -9999 -9999 -9999 -9999 -9999 -9999 -9999 -9999 -9999 -9999 -9999 -9999 -9999 -9999 -9999 -9999 -9999 -9999 -9999 -9999 -9999 -9999 -9999 -9999 -9999 -9999 -9999 -9999 -9999 -9999 -9999 -9999 -9999 -9999 -9999 -9999 -9999 -9999 -9999 -9999 -9999 -9999 -9999 -9999 -9999 -9999 -9999 -9999 -9999 -9999 -9999 -9999 -9999 -9999 -9999 -9999 -9999 -9999 -9999 -9999 -9999 -9999 -9999 -9999 -9999 -9999 -9999 -9999 -9999 -9999 -9999 -9999 -9999 -9999 -9999 -9999 -9999 -9999 -9999 -9999 -9999 -9999 -9999 -9999 -9999 -9999 -9999 -9999 -9999 -9999 -9999 -9999 -9999 -9999 781.3794 780.3727 779.4906 778.5193 777.4485 776.4105 775.8463 775.4945 775.2789 775.1606 775.097 775.0627 775.0435 775.0237 775.0072 775.0085 775.0317 775.0672 775.1046 775.1394 775.1774 775.237 775.3148 775.3873 775.4376 775.4734 775.5239 775.6435 775.85 776.0922 776.2723 776.3053 776.1776 775.9417 775.7041 775.5659 775.6375 776.0634 777.0037 778.4651 780.0378 781.4558 782.0682 -9999 -9999 -9999 -9999 -9999 -9999 -9999 -9999 -9999 -9999 -9999 -9999 -9999 -9999 -9999 -9999 779.0262 778.5228 778.028 777.4861 776.6924 776.1191 775.7203 775.4475 775.2756 775.1781 775.1279 775.1028 775.0944 775.1015 775.1254 775.1644 775.2216 775.2976 775.3713 775.411 775.4008 775.369 775.3518 775.3516 775.3402 775.3021 775.2776 775.2995 775.3644 775.4729 775.6527 775.8894 776.139 776.3716 776.5735 776.713 776.7228 776.5899 776.3496 776.1036 775.9901 776.0004 776.3594 777.4981 777.2499 777.2233 776.8839 776.4918 776.1289 775.8188 775.5511 775.3302 775.1747 775.0583 774.9215 774.7281 774.4787 774.1792 773.8429 773.491 773.1653 772.9372 772.6827 772.4409 772.2065 771.9802 771.7694 771.5847 771.4299 771.2976 771.1851 771.0815 770.9807 770.8881 770.8142 770.7668 770.7487 770.7578 770.7886 770.8343 770.8912 770.964 771.0583 771.1708 771.2955 771.4302 771.5764 771.7225 771.8545 772.0018 772.157 772.307 772.4285 772.5054 772.5682 772.6412 772.7251 772.7489 772.7533 772.7531 772.7525 772.7523 772.7499 772.7299 772.6507 772.5635 772.4495 772.3207 772.1951 772.0788 771.9723 771.8787 771.7955 771.7148 771.6277 771.5314 771.4299 771.3231 771.2158 771.1212 771.057 771.0273 771.0311 771.0646 771.1201 771.2444 771.4321 771.6653 771.895 772.0847 772.2278 772.3162 772.3931 772.5029 772.6524 772.7681 772.9373 772.9624 773.0994 773.1844 773.2832 773.363 773.4496 773.5179 773.5734 773.632 773.6852 773.6989 773.6975 773.7082 773.7346 773.7592 773.7882 773.814 773.8306 773.84 773.8439 773.8409 773.8301 773.8066 773.7628 773.7004 773.6321 773.5098 773.3576 773.27 773.1667 772.9518 772.7494 772.6444 772.512 772.4028 772.2921 772.1939 772.1278 772.0906 772.0688 772.0571 772.0673 772.1208 772.2292 772.3812 772.5509 772.7239 772.8749 772.95 772.9186 772.8632 772.8755 772.9769 773.1429 773.3868 773.7779 774.4626 775.6054 777.4304 780.0939 783.6089 787.8387 791.2859 792.614 791.5049 789.0495 -9999 -9999 -9999 -9999 -9999 -9999 -9999 -9999 -9999 -9999 -9999 -9999 -9999 -9999 -9999 -9999 -9999 -9999 -9999
-9999 -9999 -9999 -9999 -9999 -9999 -9999 -9999 -9999 -9999 -9999 -9999 -9999 -9999 -9999 -9999 -9999 -9999 -9999 -9999 -9999 -9999 -9999 -9999 -9999 -9999 -9999 -9999 -9999 -9999 -9999 -9999 -9999 -9999 -9999 -9999 -9999 -9999 -9999 -9999 -9999 -9999 -9999 -9999 -9999 -9999 -9999 -9999 -9999 -9999 -9999 -9999 -9999 -9999 -9999 -9999 -9999 -9999 -9999 -9999 -9999 -9999 -9999 -9999 -9999 -9999 -9999 -9999 -9999 -9999 -9999 -9999 -9999 -9999 -9999 -9999 -9999 -9999 -9999 -9999 -9999 -9999 -9999 -9999 -9999 -9999 -9999 -9999 -9999 -9999 -9999 -9999 -9999 -9999 -9999 -9999 -9999 -9999 -9999 -9999 -9999 -9999 -9999 -9999 -9999 -9999 -9999 -9999 -9999 -9999 -9999 -9999 -9999 -9999 -9999 -9999 -9999 -9999 -9999 -9999 -9999 782.3015 781.6466 780.5717 779.4603 778.2189 776.9425 776.0153 775.5425 775.3239 775.2274 775.1869 775.1638 775.1353 775.1046 775.068 775.0257 774.996 774.9895 775.0027 775.0266 775.0519 775.0756 775.1136 775.1798 775.2506 775.2899 775.2968 775.3124 775.4055 775.621 775.9187 776.1892 776.3153 776.2449 776.0155 775.7297 775.4718 775.3568 775.4517 775.9447 777.2442 779.0479 780.7938 781.8663 782.0034 -9999 -9999 -9999 -9999 -9999 -9999 -9999 -9999 -9999 -9999 -9999 -9999 -9999 -9999 -9999 778.9884 778.5394 778.0256 777.4265 776.6191 776.0002 775.6007 775.3639 775.2333 775.1663 775.1271 775.0969 775.0735 775.0663 775.0894 775.1508 775.2562 775.406 775.574 775.703 775.7154 775.6674 775.6732 775.6781 775.6432 775.5562 775.4709 775.4606 775.5134 775.5969 775.7702 776.0428 776.3427 776.5925 776.7493 776.8328 776.8172 776.6755 776.4308 776.103 775.9986 775.9211 776.1329 777.0131 778.0098 777.7266 777.2346 776.7236 776.2494 775.8492 775.5211 775.2436 775.0283 774.8646 774.6962 774.4794 774.2097 773.9032 773.5769 773.2535 772.9635 772.7998 772.5991 772.3846 772.1696 771.9603 771.763 771.585 771.43 771.2954 771.1772 771.0674 770.9618 770.8639 770.7828 770.7267 770.6998 770.7014 770.7267 770.7695 770.8263 770.8978 770.9849 771.0853 771.1951 771.3107 771.4304 771.5491 771.6301 771.7623 771.9125 772.0547 772.1729 772.2634 772.3419 772.4194 772.4899 772.5276 772.544 772.5493 772.5487 772.543 772.5297 772.4969 772.4299 772.3474 772.2468 772.1329 772.0204 771.9191 771.8286 771.7507 771.6798 771.6053 771.5228 771.43 771.3296 771.2234 771.1178 771.0244 770.9556 770.9182 770.9129 770.938 770.9941 771.0978 771.2477 771.4318 771.6307 771.8019 771.9213 772.0209 772.1166 772.2336 772.3757 772.5183 772.6772 772.7872 772.9413 772.9564 773.0879 773.1563 773.2519 773.315 773.3527 773.3787 773.3929 773.3906 773.3893 773.3939 773.4336 773.4604 773.4724 773.4995 773.5215 773.5382 773.5471 773.5471 773.5339 773.4983 773.4265 773.3177 773.2583 773.1643 772.9738 772.9514 772.9278 772.7131 772.5054 772.3556 772.2208 772.1091 772.0076 771.9202 771.8711 771.8485 771.8378 771.8323 771.8406 771.8815 771.9759 772.1385 772.3418 772.5658 772.7857 772.949 772.9463 772.9022 772.8972 772.9768 773.1467 773.4021 773.799 774.4624 775.5375 777.3013 779.9812 783.6853 788.363 792.4379 794.3916 793.5762 791.2027 -9999 -9999 -9999 -9999 -9999 -9999 -9999 -9999 -9999 -9999 -9999 -9999 -9999 -9999 -9999 -9999 -9999 -9999 -9999
-9999 -9999 -9999 -9999 -9999 -9999 -9999 -9999 -9999 -9999 -9999 -9999 -9999 -9999 -9999 -9999 -9999 -9999 -9999 -9999 -9999 -9999 -9999 -9999 -9999 -9999 -9999 -9999 -9999 -9999 -9999 -9999 -9999 -9999 -9999 -9999 -9999 -9999 -9999 -9999 -9999 -9999 -9999 -9999 -9999 -9999 -9999 -9999 -9999 -9999 -9999 -9999 -9999 -9999 -9999 -9999 -9999 -9999 -9999 -9999 -9999 -9999 -9999 -9999 -9999 -9999 -9999 -9999 -9999 -9999 -9999 -9999 -9999 -9999 -9999 -9999 -9999 -9999 -9999 -9999 -9999 -9999 -9999 -9999 -9999 -9999 -9999 -9999 -9999 -9999 -9999 -9999 -9999 -9999 -9999 -9999 -9999 -9999 -9999 -9999 -9999 -9999 -9999 -9999 -9999 -9999 -9999 -9999 -9999 -9999 -9999 -9999 -9999 -9999 -9999 -9999 -9999 -9999 -9999 -9999 -9999 782.3835 781.9115 780.9578 779.6921 778.1861 776.5873 775.7468 775.3659 775.2351 775.2161 775.2263 775.2293 775.2045 775.1582 775.1049 775.0436 774.9886 774.955 774.9438 774.9497 774.9611 774.968 774.9837 775.0351 775.1147 775.1697 775.1689 775.1527 775.2029 775.3896 775.7012 776.0323 776.2517 776.2695 776.1027 775.8223 775.5634 775.3621 775.3567 775.6088 776.4443 777.9578 779.8313 781.3501 781.8699 782.0015 -9999 -9999 -9999 -9999 -9999 -9999 -9999 -9999 -9999 -9999 -9999 -9999 -9999 -9999 778.8155 778.4667 777.9813 777.3627 776.5953 775.9957 775.6162 775.3915 775.2614 775.186 775.136 775.0869 775.0437 775.0202 775.0388 775.1174 775.2723 775.506 775.7955 776.0603 776.0867 775.9634 776.0278 776.0778 776.0263 775.8661 775.6946 775.6553 775.7156 775.7446 775.8815 776.172 776.5301 776.819 776.9283 776.9206 776.8456 776.6863 776.4536 776.021 775.9999 776.0016 776.2914 776.9778 777.6923 777.6731 777.3015 776.7933 776.2769 775.8117 775.4412 775.1346 774.8816 774.678 774.478 774.2363 773.9597 773.6636 773.3696 773.1111 772.9433 772.7416 772.5376 772.3314 772.1284 771.9327 771.7488 771.5804 771.43 771.2971 771.178 771.0663 770.9581 770.856 770.7676 770.7017 770.6646 770.6572 770.6766 770.7167 770.7719 770.8405 770.9213 771.0134 771.1139 771.22 771.3288 771.4278 771.4335 771.5582 771.7004 771.8312 771.939 772.0296 772.1108 772.1884 772.2557 772.3012 772.3268 772.3372 772.3361 772.3243 772.3011 772.2611 772.1989 772.125 772.0403 771.9437 771.8454 771.7592 771.686 771.6305 771.5778 771.5098 771.4301 771.3399 771.2407 771.1361 771.0322 770.9392 770.8679 770.8255 770.8152 770.8369 770.8915 770.9838 771.1125 771.2676 771.4312 771.5783 771.6549 771.7543 771.8499 771.9663 772.0998 772.2478 772.4047 772.5522 772.7023 772.8037 772.9421 772.9571 773.0887 773.1424 773.158 773.1605 773.1539 773.1423 773.1462 773.1384 773.183 773.2154 773.1885 773.2062 773.2258 773.2401 773.25 773.2529 773.2452 773.2168 773.1385 772.9686 772.9509 772.9298 772.7435 772.641 772.556 772.3843 772.2082 772.0577 771.9283 771.8312 771.7429 771.657 771.6297 771.6232 771.622 771.6207 771.6237 771.6425 771.703 771.8719 772.0995 772.3655 772.6379 772.859 772.95 772.9374 772.9378 773.01 773.1714 773.4307 773.827 774.4628 775.4722 777.1759 779.8828 783.7903 789.0377 793.9106 796.7256 796.4485 794.2366 -9999 -9999 -9999 -9999 -9999 -9999 -9999 -9999 -9999 -9999 -9999 -9999 -9999 -9999 -9999 -9999 -9999 -9999 -9999
-9999 -9999 -9999 -9999 -9999 -9999 -9999 -9999 -9999 -9999 -9999 -9999 -9999 -9999 -9999 -9999 -9999 -9999 -9999 -9999 -9999 -9999 -9999 -9999 -9999 -9999 -9999 -9999 -9999 -9999 -9999 -9999 -9999 -9999 -9999 -9999 -9999 -9999 -9999 -9999 -9999 -9999 -9999 -9999 -9999 -9999 -9999 -9999 -9999 -9999 -9999 -9999 -9999 -9999 -9999 -9999 -9999 -9999 -9999 -9999 -9999 -9999 -9999 -9999 -9999 -9999 -9999 -9999 -9999 -9999 -9999 -9999 -9999 -9999 -9999 -9999 -9999 -9999 -9999 -9999 -9999 -9999 -9999 -9999 -9999 -9999 -9999 -9999 -9999 -9999 -9999 -9999 -9999 -9999 -9999 -9999 -9999 -9999 -9999 -9999 -9999 -9999 -9999 -9999 -9999 -9999 -9999 -9999 -9999 -9999 -9999 -9999 -9999 -9999 -9999 -9999 -9999 -9999 -9999 -9999 -9999 782.5355 782.1145 781.2243 779.7484 778.0117 776.4138 775.6212 775.2931 775.2111 775.2345 775.2749 775.2893 775.2676 775.2079 775.135 775.0588 774.9868 774.9311 774.8978 774.8857 774.8836 774.8715 774.8557 774.878 774.9557 775.0416 775.0687 775.046 775.0585 775.1933 775.4718 775.8175 776.1004 776.2183 776.1417 775.9449 775.7123 775.5844 775.6146 775.9269 776.2322 777.1105 778.7773 780.488 781.4927 781.9254 782.0008 782.0021 -9999 -9999 -9999 -9999 -9999 -9999 -9999 -9999 -9999 -9999 -9999 -9999 -9999 778.2357 777.7524 777.0707 776.5499 776.1133 775.7891 775.543 775.3597 775.2377 775.1527 775.0798 775.0146 774.9792 774.9955 775.088 775.2787 775.5828 775.9989 776.4835 776.4901 776.1715 776.4 776.5341 776.4865 776.2318 775.9348 775.8824 775.9868 775.8947 775.9551 776.243 776.6487 776.9955 777.0405 776.9505 776.7864 776.5621 776.2661 776.0452 776.0418 776.1343 776.4104 776.8962 777.3413 777.3887 777.1241 776.6779 776.1724 775.6862 775.2869 774.9697 774.7043 774.4781 774.2484 773.9976 773.729 773.4552 773.1948 772.9575 772.8251 772.655 772.4662 772.272 772.0802 771.8969 771.7265 771.571 771.43 771.3015 771.1835 771.0718 770.9629 770.8582 770.7636 770.6881 770.6392 770.6206 770.6317 770.6675 770.7206 770.7859 770.861 770.9448 771.0361 771.1305 771.2218 771.2966 771.3352 771.4299 771.5436 771.6519 771.7365 771.8173 771.8936 771.9675 772.0334 772.0819 772.1116 772.1241 772.1221 772.106 772.0757 772.032 771.9734 771.9099 771.8423 771.7643 771.6812 771.6106 771.5497 771.5222 771.4943 771.4301 771.3521 771.2623 771.1638 771.0615 770.9603 770.8682 770.7951 770.7494 770.7355 770.7548 770.8073 770.8932 771.0092 771.1487 771.2974 771.4266 771.4347 771.5421 771.6145 771.7229 771.839 771.9768 772.1274 772.2814 772.4327 772.5622 772.6945 772.7896 772.9383 772.9503 772.9495 772.9495 772.9498 772.952 772.9926 772.9523 773.0223 773.0342 772.955 772.9493 772.9501 772.95 772.9501 772.9502 772.9507 772.9512 772.9327 772.7581 772.6622 772.5818 772.4301 772.2986 772.1774 772.032 771.8975 771.774 771.6565 771.5966 771.536 771.4335 771.4294 771.4298 771.4299 771.4297 771.4293 771.428 771.4371 771.6149 771.8505 772.1447 772.4645 772.7543 772.9484 772.9666 772.9723 773.0461 773.21 773.4695 773.8594 774.4625 775.3928 777.0465 779.7984 783.9379 789.6877 795.3535 799.1278 799.6746 797.8305 -9999 -9999 -9999 -9999 -9999 -9999 -9999 -9999 -9999 -9999 -9999 -9999 -9999 -9999 -9999 -9999 -9999 -9999 -9999
-9999 -9999 -9999 -9999 -9999 -9999 -9999 -9999 -9999 -9999 -9999 -9999 -9999 -9999 -9999 -9999 -9999 -9999 -9999 -9999 -9999 -9999 -9999 -9999 -9999 -9999 -9999 -9999 -9999 -9999 -9999 -9999 -9999 -9999 -9999 -9999 -9999 -9999 -9999 -9999 -9999 -9999 -9999 -9999 -9999 -9999 -9999 -9999 -9999 -9999 -9999 -9999 -9999 -9999 -9999 -9999 -9999 -9999 -9999 -9999 -9999 -9999 -9999 -9999 -9999 -9999 -9999 -9999 -9999 -9999 -9999 -9999 -9999 -9999 -9999 -9999 -9999 -9999 -9999 -9999 -9999 -9999 -9999 -9999 -9999 -9999 -9999 -9999 -9999 -9999 -9999 -9999 -9999 -9999 -9999 -9999 -9999 -9999 -9999 -9999 -9999 -9999 -9999 -9999 -9999 -9999 -9999 -9999 -9999 -9999 -9999 -9999 -9999 -9999 -9999 -9999 -9999 -9999 -9999 -9999 -9999 782.7609 782.3202 781.3438 779.6555 777.7498 776.3649 775.6097 775.2963 775.2312 775.2689 775.3218 775.3381 775.3165 775.2531 775.1639 775.0747 774.9924 774.921 774.8663 774.8365 774.824 774.8014 774.7562 774.7335 774.7833 774.8821 774.954 774.9611 774.9601 775.045 775.2623 775.574 775.8751 776.067 776.0991 775.9983 775.8478 775.7245 775.7144 775.8205 775.9763 776.4498 777.8053 779.4819 780.9014 781.6762 781.9349 781.8676 781.79 -9999 -9999 -9999 777.8906 777.3442 776.9926 776.7518 776.2987 776.6382 777.2947 777.991 778.1997 777.9525 777.2391 776.8779 776.7834 776.8011 776.2955 775.8661 775.5279 775.3119 775.1818 775.0861 775.0114 774.9728 774.9976 775.1082 775.3213 775.6519 776.1105 776.8829 776.8705 776.223 776.8174 776.9979 776.9626 776.6439 776.234 776.2006 776.3303 776.0431 775.9725 776.2247 776.6242 776.9846 776.9879 776.866 776.6876 776.4708 776.2397 776.0909 776.094 776.2037 776.4264 776.7336 776.9912 777.0176 776.804 776.4177 775.9431 775.4738 775.0634 774.7436 774.4803 774.2464 774.0131 773.7675 773.5163 773.2803 773.0901 772.9453 772.7615 772.5757 772.3887 772.2026 772.0217 771.851 771.6953 771.5562 771.43 771.3081 771.1902 771.0775 770.9685 770.863 770.7649 770.6812 770.6205 770.589 770.5887 770.6168 770.6661 770.728 770.7985 770.8752 770.9571 771.0413 771.1224 771.1931 771.2532 771.3359 771.4302 771.5186 771.5675 771.6368 771.7023 771.7725 771.8338 771.8804 771.9092 771.9209 771.9177 771.8997 771.8661 771.82 771.7648 771.7159 771.6675 771.6091 771.5394 771.4922 771.4306 771.4301 771.4296 771.3646 771.2828 771.1918 771.0953 770.9961 770.8991 770.8094 770.7361 770.6877 770.6703 770.6863 770.735 770.8144 770.9201 771.0432 771.1705 771.2785 771.3365 771.428 771.4328 771.5331 771.6108 771.7314 771.8597 772.0052 772.1445 772.2676 772.3814 772.4855 772.5992 772.6438 772.6692 772.7015 772.7524 772.8329 772.945 772.9141 772.9487 772.9451 772.8185 772.7424 772.6973 772.6695 772.6501 772.6365 772.6276 772.6177 772.5778 772.4521 772.3367 772.2288 772.0927 771.9545 771.8319 771.701 771.6248 771.5471 771.4338 771.43 771.4279 771.3335 771.2892 771.2686 771.257 771.2494 771.2443 771.2472 771.2839 771.428 771.6258 771.9318 772.2805 772.6115 772.8538 772.9501 772.9867 773.0658 773.2355 773.4977 773.8781 774.4486 775.2711 776.8602 779.6343 783.9337 790.0307 796.3503 801.0914 802.7848 801.5966 -9999 -9999 -9999 -9999 -9999 -9999 -9999 -9999 -9999 -9999 -9999 -9999 -9999 -9999 -9999 -9999 -9999 -9999 -9999
-9999 -9999 -9999 -9999 -9999 -9999 -9999 -9999 -9999 -9999 -9999 -9999 -9999 -9999 -9999 -9999 -9999 -9999 -9999 -9999 -9999 -9999 -9999 -9999 -9999 -9999 -9999 -9999 -9999 -9999 -9999 -9999 -9999 -9999 -9999 -9999 -9999 -9999 -9999 -9999 -9999 -9999 -9999 -9999 -9999 -9999 -9999 -9999 -9999 -9999 -9999 -9999 -9999 -9999 -9999 -9999 -9999 -9999 -9999 -9999 -9999 -9999 -9999 -9999 -9999 -9999 -9999 -9999 -9999 -9999 -9999 -9999 -9999 -9999 -9999 -9999 -9999 -9999 -9999 -9999 -9999 -9999 -9999 -9999 -9999 -9999 -9999 -9999 -9999 -9999 -9999 -9999 -9999 -9999 -9999 -9999 -9999 -9999 -9999 -9999 -9999 -9999 -9999 -9999 -9999 -9999 -9999 -9999 -9999 -9999 -9999 -9999 -9999 -9999 -9999 -9999 -9999 -9999 -9999 -9999 -9999 783.0099 782.5944 781.563 779.7536 777.7328 776.4006 775.6566 775.338 775.2677 775.3038 775.3541 775.3699 775.3451 775.2848 775.1937 775.0955 775.0094 774.9299 774.8566 774.8026 774.7771 774.7523 774.6962 774.6347 774.6351 774.7101 774.802 774.8591 774.8784 774.9335 775.0861 775.3314 775.6072 775.8279 775.9501 775.9578 775.8911 775.8005 775.7272 775.6924 775.7208 776.0241 776.9523 778.3123 779.791 780.8886 781.1353 781.0963 780.9223 -9999 -9999 778.2299 777.5203 776.9795 776.4006 776.0529 776.0721 776.732 777.6603 778.1044 778.2109 777.9921 777.4909 777.097 777.2583 777.7172 777.1456 776.2863 775.7032 775.3847 775.2261 775.1311 775.0672 775.0511 775.1049 775.2539 775.5065 775.8685 776.2631 776.9547 776.9994 776.916 777.1941 777.2919 777.1431 776.9995 776.9861 776.9988 776.925 776.4581 776.0158 776.1476 776.428 776.6685 776.7091 776.6362 776.5109 776.3566 776.2001 776.0855 776.0747 776.1577 776.3038 776.4781 776.6057 776.5874 776.3946 776.0514 775.6184 775.1809 774.7891 774.4805 774.2321 774.0084 773.786 773.5547 773.3191 773.1028 772.9504 772.8238 772.661 772.483 772.302 772.1237 771.9527 771.7939 771.653 771.5334 771.4301 771.3146 771.1942 771.0778 770.9677 770.8625 770.7638 770.6756 770.6052 770.5609 770.5474 770.5641 770.6055 770.663 770.7291 770.8008 770.8759 770.953 771.0297 771.1029 771.175 771.258 771.3485 771.4291 771.4312 771.501 771.547 771.613 771.667 771.7042 771.7268 771.7358 771.7319 771.7159 771.6848 771.6378 771.5806 771.5533 771.5292 771.4938 771.4307 771.4296 771.3793 771.3574 771.3374 771.2822 771.2069 771.1204 771.0284 770.9353 770.8437 770.7589 770.6871 770.637 770.6157 770.6268 770.6697 770.7415 770.8363 770.9452 771.0557 771.1533 771.2291 771.3044 771.3485 771.4283 771.4327 771.5372 771.6232 771.7507 771.8651 771.9573 772.0373 772.1184 772.2161 772.2848 772.3396 772.4058 772.491 772.5944 772.6923 772.7108 772.7221 772.6934 772.5962 772.506 772.4395 772.3907 772.3524 772.3186 772.2894 772.2622 772.2114 772.1113 771.9994 771.8995 771.7847 771.6556 771.5627 771.4358 771.4299 771.428 771.3435 771.312 771.2879 771.2213 771.1671 771.131 771.1085 771.0958 771.093 771.1091 771.1633 771.2789 771.4407 771.7592 772.1248 772.4851 772.7792 772.9496 772.9969 773.0679 773.2314 773.487 773.8417 774.3657 775.052 776.5776 779.3206 783.6306 789.8269 796.5173 802.0513 805.0671 805.0257 -9999 -9999 -9999 -9999 -9999 -9999 -9999 -9999 -9999 -9999 -9999 -9999 -9999 -9999 -9999 -9999 -9999 -9999 -9999
-9999 -9999 -9999 -9999 -9999 -9999 -9999 -9999 -9999 -9999 -9999 -9999 -9999 -9999 -9999 -9999 -9999 -9999 -9999 -9999 -9999 -9999 -9999 -9999 -9999 -9999 -9999 -9999 -9999 -9999 -9999 -9999 -9999 -9999 -9999 -9999 -9999 -9999 -9999 -9999 -9999 -9999 -9999 -9999 -9999 -9999 -9999 -9999 -9999 -9999 -9999 -9999 -9999 -9999 -9999 -9999 -9999 -9999 -9999 -9999 -9999 -9999 -9999 -9999 -9999 -9999 -9999 -9999 -9999 -9999 -9999 -9999 -9999 -9999 -9999 -9999 -9999 -9999 -9999 -9999 -9999 -9999 -9999 -9999 -9999 -9999 -9999 -9999 -9999 -9999 -9999 -9999 -9999 -9999 -9999 -9999 -9999 -9999 -9999 -9999 -9999 -9999 -9999 -9999 -9999 -9999 -9999 -9999 -9999 -9999 -9999 -9999 -9999 -9999 -9999 -9999 -9999 -9999 -9999 -9999 -9999 783.2162 782.8699 781.7809 779.9842 777.9295 776.5386 775.7527 775.4036 775.3077 775.3256 775.3631 775.3752 775.3523 775.2971 775.2189 775.1251 775.0383 774.9601 774.8762 774.7964 774.7435 774.7114 774.6597 774.5852 774.5443 774.5669 774.632 774.7249 774.7877 774.8416 774.9453 775.1168 775.3311 775.5444 775.7108 775.8182 775.8503 775.8193 775.7396 775.6357 775.5598 775.6552 776.1071 776.976 778.2825 779.4687 779.9277 780.0817 780.0369 779.5693 778.866 778.0323 777.3228 776.7937 776.0729 775.8927 776.232 777.2526 777.932 778.233 778.2813 778.1335 777.9672 777.7712 778.0745 778.5154 777.3913 776.3963 775.7557 775.4363 775.3151 775.2592 775.2368 775.2727 775.3905 775.61 775.9396 776.4596 776.95 777.2877 777.212 777.3897 777.5752 777.5618 777.1188 776.8036 776.5264 776.2352 776.2311 776.4616 776.1443 776.085 776.1857 776.2957 776.3271 776.3026 776.2493 776.1742 776.0853 776.0015 775.9581 775.99 776.0602 776.129 776.1656 776.1068 775.9235 775.6261 775.2364 774.8328 774.485 774.2106 773.9849 773.7814 773.5803 773.3738 773.1617 772.9551 772.8342 772.7103 772.5582 772.3882 772.2128 772.0406 771.8773 771.7275 771.5977 771.4961 771.4294 771.3134 771.1888 771.0677 770.955 770.8505 770.7534 770.6647 770.5892 770.5344 770.5074 770.511 770.5414 770.5911 770.652 770.719 770.7903 770.8638 770.9388 771.0145 771.0919 771.1739 771.257 771.3282 771.3672 771.4293 771.4308 771.4982 771.5351 771.5563 771.5676 771.5721 771.5696 771.5599 771.5405 771.5024 771.4312 771.4299 771.4301 771.4296 771.3792 771.3544 771.3148 771.2816 771.2468 771.1942 771.1254 771.0453 770.9598 770.8741 770.7904 770.7114 770.6431 770.5928 770.5681 770.573 770.6084 770.6711 770.7551 770.8516 770.9501 771.0408 771.1195 771.1908 771.2491 771.3114 771.3496 771.4282 771.4335 771.5499 771.6222 771.6685 771.7045 771.7509 771.8534 771.9326 771.9996 772.0872 772.1854 772.2857 772.3679 772.4026 772.4088 772.38 772.3108 772.2363 772.1705 772.1153 772.0652 772.0139 771.9633 771.9275 771.8794 771.7951 771.6879 771.6257 771.5524 771.4345 771.4272 771.335 771.306 771.2926 771.2446 771.2069 771.1686 771.1115 771.0554 771.0117 770.9834 770.9706 770.9758 771.0104 771.0917 771.233 771.4293 771.6793 772.0178 772.3923 772.7274 772.9492 773.0027 773.0535 773.1985 773.4297 773.7148 774.0936 774.7206 776.2354 778.8896 783.0321 789.0186 795.6655 801.5088 805.4189 807.2338 -9999 -9999 -9999 -9999 -9999 -9999 -9999 -9999 -9999 -9999 -9999 -9999 -9999 -9999 -9999 -9999 -9999 -9999 -9999
-9999 -9999 -9999 -9999 -9999 -9999 -9999 -9999 -9999 -9999 -9999 -9999 -9999 -9999 -9999 -9999 -9999 -9999 -9999 -9999 -9999 -9999 -9999 -9999 -9999 -9999 -9999 -9999 -9999 -9999 -9999 -9999 -9999 -9999 -9999 -9999 -9999 -9999 -9999 -9999 -9999 -9999 -9999 -9999 -9999 -9999 -9999 -9999 -9999 -9999 -9999 -9999 -9999 -9999 -9999 -9999 -9999 -9999 -9999 -9999 -9999 -9999 -9999 -9999 -9999 -9999 -9999 -9999 -9999 -9999 -9999 -9999 -9999 -9999 -9999 -9999 -9999 -9999 -9999 -9999 -9999 -9999 -9999 -9999 -9999 -9999 -9999 -9999 -9999 -9999 -9999 -9999 -9999 -9999 -9999 -9999 -9999 -9999 -9999 -9999 -9999 -9999 -9999 -9999 -9999 -9999 -9999 -9999 -9999 -9999 -9999 -9999 -9999 -9999 -9999 -9999 -9999 -9999 -9999 -9999 783.3403 783.1953 782.9174 781.9558 780.3887 778.3683 776.7809 775.9065 775.4999 775.3539 775.3312 775.3442 775.3481 775.3342 775.2911 775.2346 775.1626 775.082 775.0066 774.9246 774.8282 774.7408 774.6808 774.6262 774.5582 774.5045 774.4799 774.4811 774.5829 774.6831 774.7565 774.8359 774.948 775.0909 775.2578 775.4375 775.6055 775.7393 775.8003 775.7722 775.6658 775.5323 775.4734 775.6178 776.0536 776.7917 777.7734 778.4877 779.0308 779.3126 779.0235 778.4761 777.8948 777.1038 776.5287 776.0033 776.0174 776.6669 777.7435 778.0549 778.1703 778.1482 777.9255 777.8783 778.0154 778.4907 778.7646 777.9969 776.5642 775.8286 775.5435 775.5206 775.5397 775.591 775.7147 775.9322 776.2628 776.6097 777.2534 777.8666 778.1173 778.1061 778.066 778.0134 777.9514 777.4292 776.5898 776.0585 775.8289 775.8543 776.0129 775.9161 775.86 775.8809 775.9126 775.9177 775.9166 775.9199 775.9153 775.8826 775.8268 775.7601 775.7308 775.7378 775.7331 775.6953 775.6023 775.4263 775.1797 774.8439 774.4897 774.1972 773.9613 773.7578 773.5753 773.4009 773.2312 773.0751 772.9465 772.7812 772.6264 772.4667 772.2986 772.1275 771.9606 771.8029 771.6591 771.5334 771.4307 771.3741 771.2797 771.1639 771.0432 770.9282 770.8236 770.7292 770.6434 770.5673 770.5063 770.4686 770.4591 770.477 770.5161 770.5696 770.6311 770.6988 770.7708 770.8456 770.9225 771.0015 771.0815 771.1597 771.2286 771.2831 771.3376 771.3708 771.4293 771.4301 771.4301 771.4301 771.4301 771.4301 771.4301 771.4302 771.4293 771.369 771.3474 771.3416 771.3351 771.3034 771.2733 771.2374 771.1997 771.1575 771.1053 771.0416 770.9677 770.8888 770.8105 770.7352 770.6636 770.5999 770.5507 770.5232 770.5223 770.5492 770.6022 770.6754 770.7609 770.85 770.9349 771.0118 771.0812 771.1425 771.1996 771.248 771.3049 771.3426 771.4276 771.4306 771.4302 771.4297 771.4389 771.5705 771.6371 771.6876 771.7888 771.8833 771.964 772.0251 772.0568 772.0626 772.0433 772.0018 771.9515 771.9028 771.856 771.8062 771.7443 771.6708 771.6434 771.6147 771.5536 771.4353 771.4301 771.4276 771.3386 771.2982 771.2391 771.2051 771.1827 771.149 771.1122 771.0692 771.0146 770.9578 770.9098 770.8789 770.8683 770.8817 770.9309 771.0331 771.1994 771.4216 771.5963 771.9226 772.3185 772.6897 772.9489 773.0118 773.0405 773.165 773.3915 773.664 774.0024 774.6024 776.0292 778.4947 782.3179 787.8257 794.0886 799.6994 803.4214 806.2335 -9999 -9999 -9999 -9999 -9999 -9999 -9999 -9999 -9999 -9999 -9999 -9999 -9999 -9999 -9999 -9999 -9999 -9999 -9999
-9999 -9999 -9999 -9999 -9999 -9999 -9999 -9999 -9999 -9999 -9999 -9999 -9999 -9999 -9999 -9999 -9999 -9999 -9999 -9999 -9999 -9999 -9999 -9999 -9999 -9999 -9999 -9999 -9999 -9999 -9999 -9999 -9999 -9999 -9999 -9999 -9999 -9999 -9999 -9999 -9999 -9999 -9999 -9999 -9999 -9999 -9999 -9999 -9999 -9999 -9999 -9999 -9999 -9999 -9999 -9999 -9999 -9999 -9999 -9999 -9999 -9999 -9999 -9999 -9999 -9999 -9999 -9999 -9999 -9999 -9999 -9999 -9999 -9999 -9999 -9999 -9999 -9999 -9999 -9999 -9999 -9999 -9999 -9999 -9999 -9999 -9999 -9999 -9999 -9999 -9999 -9999 -9999 -9999 -9999 -9999 -9999 -9999 -9999 -9999 -9999 -9999 -9999 -9999 -9999 -9999 -9999 -9999 -9999 -9999 -9999 -9999 -9999 -9999 -9999 -9999 -9999 -9999 -9999 -9999 -9999 783.0114 782.8024 782.1084 780.8298 778.9062 777.087 776.1605 775.6664 775.4253 775.329 775.2974 775.2888 775.285 775.267 775.2389 775.2022 775.1428 775.0708 774.9925 774.8953 774.782 774.6796 774.5971 774.5248 774.4798 774.4311 774.4186 774.4802 774.5781 774.6696 774.7528 774.8312 774.9149 775.0216 775.1741 775.3729 775.583 775.7481 775.8131 775.7611 775.6243 775.4788 775.4207 775.5398 775.8806 776.4327 777.204 778.1005 778.7694 778.5938 778.1088 777.7735 777.0327 776.4496 776.004 776.0691 776.8668 777.7171 777.648 777.7047 777.6994 777.2166 777.5593 778.0818 778.7294 778.9791 778.2654 776.8547 776.0076 775.7511 775.8989 776.0262 776.2178 776.4708 776.8095 777.4278 777.7582 778.1133 778.6841 778.9642 778.9606 778.6763 778.1501 777.5205 776.6464 776.1198 775.7374 775.5521 775.55 775.6188 775.5894 775.5521 775.5475 775.5465 775.5302 775.5303 775.5599 775.5988 775.6072 775.568 775.5006 775.4291 775.3824 775.327 775.2346 775.118 774.9431 774.7748 774.4893 774.2034 773.9523 773.7373 773.5569 773.3933 773.2375 773.0884 772.9506 772.8312 772.6847 772.5311 772.3724 772.2087 772.0441 771.8843 771.7346 771.6005 771.4922 771.4294 771.3411 771.2394 771.1254 771.0059 770.8893 770.7833 770.6902 770.6084 770.5356 770.4736 770.4288 770.4084 770.4142 770.4421 770.4861 770.541 770.6036 770.6732 770.7479 770.8256 770.9045 770.9828 771.0573 771.1248 771.183 771.2352 771.276 771.3136 771.3181 771.3146 771.3112 771.3102 771.3121 771.3165 771.3212 771.3187 771.2865 771.2642 771.2517 771.2389 771.214 771.1846 771.1508 771.1128 771.0686 771.017 770.9573 770.8893 770.8165 770.7448 770.6771 770.6133 770.5546 770.5075 770.4785 770.4728 770.4918 770.5347 770.5968 770.672 770.7527 770.8323 770.9063 770.9735 771.0337 771.0875 771.1347 771.1796 771.2167 771.2583 771.2581 771.2528 771.2624 771.3094 771.4258 771.4302 771.4355 771.5562 771.6262 771.6717 771.7031 771.7204 771.7247 771.7166 771.6982 771.6759 771.6516 771.6259 771.5938 771.5391 771.4341 771.4298 771.4305 771.4272 771.3314 771.2961 771.2781 771.2261 771.185 771.1442 771.1149 771.0923 771.0653 771.0314 770.988 770.9344 770.8769 770.8263 770.7937 770.7846 770.8025 770.8556 770.9554 771.1021 771.2739 771.444 771.8229 772.2592 772.6627 772.9486 773.0254 773.0439 773.1555 773.401 773.7294 774.1271 774.7001 776.0104 778.232 781.692 786.5921 792.4973 798.1979 802.4963 805.1861 -9999 -9999 -9999 -9999 -9999 -9999 -9999 -9999 -9999 -9999 -9999 -9999 -9999 -9999 -9999 -9999 -9999 -9999 -9999
-9999 -9999 -9999 -9999 -9999 -9999 -9999 -9999 -9999 -9999 -9999 -9999 -9999 -9999 -9999 -9999 -9999 -9999 -9999 -9999 -9999 -9999 -9999 -9999 -9999 -9999 -9999 -9999 -9999 -9999 -9999 -9999 -9999 -9999 -9999 -9999 -9999 -9999 -9999 -9999 -9999 -9999 -9999 -9999 -9999 -9999 -9999 -9999 -9999 -9999 -9999 -9999 -9999 -9999 -9999 -9999 -9999 -9999 -9999 -9999 -9999 -9999 -9999 -9999 -9999 -9999 -9999 -9999 -9999 -9999 -9999 -9999 -9999 -9999 -9999 -9999 -9999 -9999 -9999 -9999 -9999 -9999 -9999 -9999 -9999 -9999 -9999 -9999 -9999 -9999 -9999 -9999 -9999 -9999 -9999 -9999 -9999 -9999 -9999 -9999 -9999 -9999 -9999 -9999 -9999 -9999 -9999 -9999 -9999 -9999 -9999 -9999 -9999 -9999 -9999 -9999 -9999 -9999 -9999 -9999 -9999 782.9988 782.8123 782.3422 781.3389 779.6617 777.8388 776.6984 775.9757 775.5482 775.3282 775.2305 775.2 775.2073 775.2211 775.2316 775.238 775.2148 775.1591 775.0826 774.9863 774.8613 774.7197 774.5889 774.4803 774.4247 774.3832 774.3708 774.4061 774.48 774.5725 774.6831 774.7648 774.8139 774.865 774.9693 775.1573 775.4119 775.6663 775.8394 775.8785 775.7874 775.6198 775.4583 775.385 775.4773 775.7855 776.3574 777.3224 778.0668 778.1653 777.9905 777.8657 776.9805 776.4485 776.0643 776.0801 776.5017 776.8551 776.5933 776.8262 776.9242 777.0209 777.603 778.3997 779.0176 779.2349 778.7398 777.5066 776.302 775.9806 776.3859 776.679 777.283 777.7047 777.8928 777.9146 778.0908 778.388 778.799 778.6861 778.5294 778.5516 777.8562 777.0782 776.3488 775.8685 775.5485 775.3746 775.3241 775.3275 775.2977 775.258 775.2374 775.2246 775.1995 775.1858 775.2153 775.2626 775.2879 775.2577 775.1817 775.115 775.0475 774.9601 774.8269 774.7145 774.5138 774.4546 774.2104 773.9562 773.7338 773.5464 773.3795 773.2299 773.0887 772.9501 772.8208 772.6991 772.5646 772.4202 772.269 772.1135 771.9582 771.8087 771.6697 771.5433 771.4308 771.3694 771.2836 771.1823 771.0715 770.9556 770.8402 770.7331 770.6395 770.5601 770.4919 770.4329 770.386 770.358 770.3535 770.371 770.4054 770.4519 770.5085 770.5736 770.6461 770.7234 770.8021 770.8787 770.9507 771.016 771.0735 771.123 771.1625 771.191 771.2001 771.2 771.1986 771.1995 771.2032 771.2085 771.2123 771.2086 771.1907 771.1726 771.1576 771.1418 771.119 771.0906 771.0585 771.0221 770.9792 770.9293 770.8733 770.8112 770.7446 770.6787 770.6169 770.5597 770.507 770.4626 770.4332 770.4235 770.4356 770.4687 770.52 770.585 770.6578 770.7318 770.8029 770.868 770.926 770.9761 771.0179 771.0528 771.0795 771.0991 771.1008 771.1025 771.1219 771.1724 771.2487 771.2808 771.3248 771.4267 771.4307 771.4305 771.4308 771.431 771.431 771.4308 771.4305 771.4303 771.4302 771.4301 771.4304 771.4275 771.3341 771.2957 771.2819 771.2665 771.2102 771.1718 771.1456 771.1115 771.0807 771.0541 771.0342 771.0175 770.9966 770.9666 770.9247 770.8721 770.8148 770.7629 770.7287 770.72 770.74 770.7931 770.8876 771.0262 771.2019 771.4291 771.7959 772.2352 772.6506 772.9483 773.0342 773.0566 773.1689 773.4409 773.8553 774.3983 775.0072 776.1344 778.0222 781.0034 785.3335 790.9625 796.9086 802.0428 805.7406 -9999 -9999 -9999 -9999 -9999 -9999 -9999 -9999 -9999 -9999 -9999 -9999 -9999 -9999 -9999 -9999 -9999 -9999 -9999
-9999 -9999 -9999 -9999 -9999 -9999 -9999 -9999 -9999 -9999 -9999 -9999 -9999 -9999 -9999 -9999 -9999 -9999 -9999 -9999 -9999 -9999 -9999 -9999 -9999 -9999 -9999 -9999 -9999 -9999 -9999 -9999 -9999 -9999 -9999 -9999 -9999 -9999 -9999 -9999 -9999 -9999 -9999 -9999 -9999 -9999 -9999 -9999 -9999 -9999 -9999 -9999 -9999 -9999 -9999 -9999 -9999 -9999 -9999 -9999 -9999 -9999 -9999 -9999 -9999 -9999 -9999 -9999 -9999 -9999 -9999 -9999 -9999 -9999 -9999 -9999 -9999 -9999 -9999 -9999 -9999 -9999 -9999 -9999 -9999 -9999 -9999 -9999 -9999 -9999 -9999 -9999 -9999 -9999 -9999 -9999 -9999 -9999 -9999 -9999 -9999 -9999 -9999 -9999 -9999 -9999 -9999 -9999 -9999 -9999 -9999 -9999 -9999 -9999 -9999 -9999 -9999 -9999 -9999 -9999 -9999 782.9993 782.8824 782.6768 782.0226 780.6758 778.8741 777.4407 776.3956 775.7155 775.337 775.1556 775.0955 775.1103 775.1555 775.213 775.2684 775.2903 775.2687 775.2058 775.1066 774.9677 774.7966 774.6221 774.4799 774.3911 774.3445 774.3326 774.3553 774.4069 774.4814 774.6241 774.7319 774.7793 774.7941 774.8447 774.993 775.2482 775.557 775.8259 775.9716 775.9612 775.8248 775.6318 775.47 775.4221 775.5724 775.9838 776.6561 777.3979 777.5663 777.4602 777.5504 776.5353 776.1758 775.9436 775.9005 776.0237 776.0851 775.9359 776.024 776.2014 776.9202 777.9443 778.867 779.3513 779.4157 778.9358 777.8405 776.6357 776.0202 776.4748 777.1306 777.9124 777.8041 777.4982 777.3867 777.6029 777.7423 777.6992 777.4795 777.1552 777.3943 777.0809 776.5984 776.095 775.7068 775.4335 775.263 775.1746 775.1298 775.0801 775.0265 774.9885 774.9675 774.9418 774.9142 774.9205 774.9512 774.9687 774.9317 774.8364 774.79 774.7512 774.6719 774.4988 774.4602 774.264 774.1201 773.9154 773.7062 773.5257 773.3694 773.2244 773.0846 772.9499 772.816 772.6869 772.5623 772.4334 772.2977 772.1558 772.0101 771.8659 771.7294 771.6074 771.5066 771.4292 771.3274 771.222 771.1141 771.0045 770.8937 770.7827 770.6768 770.5822 770.5027 770.4373 770.3826 770.3376 770.3064 770.2943 770.3027 770.3284 770.3669 770.4164 770.4757 770.5436 770.6182 770.6952 770.7704 770.8407 770.9041 770.9596 771.0067 771.0436 771.069 771.0814 771.0861 771.0887 771.0925 771.0979 771.1035 771.1062 771.1028 771.0909 771.0763 771.0609 771.0439 771.0221 770.9949 770.9639 770.9292 770.8887 770.842 770.79 770.7338 770.6741 770.6138 770.5568 770.5045 770.4568 770.4163 770.3877 770.3754 770.3813 770.4055 770.4465 770.5015 770.566 770.6347 770.7026 770.766 770.8221 770.8688 770.9051 770.9313 770.948 770.9567 770.9587 770.9649 770.9872 771.0317 771.0898 771.1362 771.1876 771.2478 771.2549 771.2458 771.2341 771.225 771.2203 771.2212 771.2268 771.2362 771.2474 771.2593 771.2688 771.2643 771.2126 771.1736 771.1489 771.1243 771.0854 771.0524 771.028 771.0056 770.9871 770.9735 770.965 770.9574 770.944 770.9191 770.8798 770.8286 770.7725 770.7212 770.6862 770.6777 770.6992 770.7532 770.8458 770.9845 771.1733 771.4297 771.7911 772.2262 772.6448 772.9482 773.0378 773.0688 773.1862 773.4631 773.9003 774.4861 775.2213 776.2628 777.8284 780.2805 784.0168 789.3638 795.4829 801.3538 806.2179 809.826 -9999 -9999 -9999 -9999 -9999 -9999 -9999 -9999 -9999 -9999 -9999 -9999 -9999 -9999 -9999 -9999 -9999 -9999
-9999 -9999 -9999 -9999 -9999 -9999 -9999 -9999 -9999 -9999 -9999 -9999 -9999 -9999 -9999 -9999 -9999 -9999 -9999 -9999 -9999 -9999 -9999 -9999 -9999 -9999 -9999 -9999 -9999 -9999 -9999 -9999 -9999 -9999 -9999 -9999 -9999 -9999 -9999 -9999 -9999 -9999 -9999 -9999 -9999 -9999 -9999 -9999 -9999 -9999 -9999 -9999 -9999 -9999 -9999 -9999 -9999 -9999 -9999 -9999 -9999 -9999 -9999 -9999 -9999 -9999 -9999 -9999 -9999 -9999 -9999 -9999 -9999 -9999 -9999 -9999 -9999 -9999 -9999 -9999 -9999 -9999 -9999 -9999 -9999 -9999 -9999 -9999 -9999 -9999 -9999 -9999 -9999 -9999 -9999 -9999 -9999 -9999 -9999 -9999 -9999 -9999 -9999 -9999 -9999 -9999 -9999 -9999 -9999 -9999 -9999 -9999 -9999 -9999 -9999 -9999 -9999 -9999 -9999 -9999 -9999 783.0408 782.9509 782.9928 782.6802 781.5624 779.9108 778.2369 776.8775 775.9315 775.3905 775.1127 775.0066 775.015 775.0829 775.1841 775.2958 775.3676 775.3931 775.3618 775.266 775.1049 774.8951 774.6718 774.48 774.3611 774.3096 774.3047 774.334 774.3922 774.4798 774.6005 774.7156 774.7788 774.7878 774.7986 774.8922 775.1113 775.4283 775.757 775.9979 776.085 776.0171 775.8468 775.6553 775.5307 775.545 775.7391 776.0679 776.3818 776.739 776.486 776.8439 776.3859 776.0656 775.8406 775.7117 775.6611 775.6012 775.5312 775.6612 776.0709 776.9703 778.2984 779.1492 779.4667 779.3284 778.7675 777.7871 776.8215 776.2787 776.4572 776.9765 777.6824 777.1422 776.4751 776.368 776.8037 776.8559 776.5132 776.4558 776.3919 776.5302 776.4344 776.1805 775.8628 775.5742 775.3476 775.1851 775.0751 774.9951 774.9265 774.8623 774.8118 774.7828 774.7571 774.7231 774.7009 774.6896 774.696 774.6486 774.4959 774.4798 774.4803 774.4612 774.2783 774.1487 773.9689 773.7977 773.6179 773.4496 773.3218 773.209 773.0812 772.9501 772.8174 772.6837 772.552 772.424 772.297 772.1677 772.0341 771.8979 771.7638 771.6376 771.5253 771.4301 771.3503 771.2525 771.1455 771.0359 770.9277 770.8219 770.7178 770.6163 770.5225 770.4418 770.3765 770.3242 770.2821 770.2512 770.235 770.2365 770.2548 770.2865 770.3292 770.3818 770.4438 770.5133 770.5868 770.6598 770.7283 770.7903 770.8444 770.89 770.9258 770.9509 770.9659 770.9746 770.9811 770.9878 770.995 771.0012 771.004 771.0013 770.9924 770.9797 770.9644 770.9468 770.9258 770.8999 770.8697 770.8363 770.7985 770.755 770.7075 770.6572 770.6048 770.5509 770.4984 770.4498 770.4061 770.3691 770.3425 770.3295 770.3313 770.3479 770.3793 770.4246 770.4807 770.5436 770.6084 770.6704 770.7252 770.7697 770.802 770.8218 770.8309 770.8328 770.8328 770.8387 770.8588 770.8958 770.9441 770.9921 771.0401 771.0818 771.0951 771.0914 771.0808 771.0699 771.0632 771.0629 771.0688 771.08 771.0939 771.1074 771.1164 771.1119 771.0836 771.0532 771.0271 771.001 770.9709 770.9446 770.9261 770.9142 770.9077 770.9066 770.9099 770.913 770.9083 770.8894 770.8538 770.8048 770.751 770.7018 770.6685 770.6612 770.6851 770.7415 770.8344 770.9725 771.1658 771.4302 771.7871 772.2164 772.6383 772.9478 773.0448 773.0869 773.2108 773.4819 773.9141 774.528 775.4035 776.4313 777.7225 779.6468 782.7307 787.6641 793.6852 799.9445 805.6824 810.3755 -9999 -9999 -9999 -9999 -9999 -9999 -9999 -9999 -9999 -9999 -9999 -9999 -9999 -9999 -9999 -9999 -9999 -9999
