ncols         278
nrows         46
xllcorner     550350
yllcorner     5798150
cellsize      50
NODATA_value  -9999
-9999 -9999 -9999 -9999 -9999 -9999 -9999 -9999 -9999 -9999 -9999 -9999 -9999 -9999 -9999 -9999 -9999 -9999 -9999 -9999 -9999 -9999 -9999 -9999 -9999 956.0119 954.0637 951.6958 949.0036 946.23 943.8939 941.8538 940.015 938.3278 936.762 935.3083 933.9777 932.7997 931.8052 930.9071 930.0084 929.1319 928.266 927.5339 926.676 926.0501 925.4697 925.1448 924.7816 924.4562 924.1794 923.8099 923.1778 922.4269 921.8163 921.4962 921.559 921.8539 921.9001 921.8884 921.783 921.5605 921.2498 920.9009 920.5724 920.2878 920.0777 919.9059 919.7388 919.5593 919.3739 919.1956 919.0345 918.8958 918.7816 918.6917 918.6238 918.5757 918.5462 918.5327 918.5327 918.5448 918.569 918.6047 918.6494 918.7018 918.7596 918.8204 918.8809 918.9379 918.9888 919.03 919.0574 919.0702 919.0697 919.0553 919.0277 918.9919 918.954 918.9167 918.8802 918.8432 918.8036 918.76 918.7108 918.6547 918.5967 918.5477 918.5067 918.4684 918.4307 918.3943 918.369 918.3655 918.3871 918.4382 918.5073 918.619 918.7598 918.9092 919.0522 919.3267 919.7246 920.2938 921.0255 921.8757 922.8036 923.7548 924.7595 925.6755 926.4682 926.9654 927.1778 927.2567 927.3325 927.4605 927.5161 927.4987 927.4122 927.2454 927.0139 926.8469 926.7568 926.8627 927.0869 927.4767 928.0315 928.8443 929.6886 930.7981 932.0851 933.5331 935.1986 937.077 939.2007 941.5813 944.1936 947.0081 950.0384 953.3237 956.5435 959.3085 961.2141 962.0528 -9999 -9999 -9999 -9999 -9999 -9999 -9999 -9999 -9999 -9999 -9999 -9999 -9999 -9999 -9999 -9999 -9999 -9999 -9999 -9999 -9999 -9999 -9999 -9999 -9999 -9999 -9999 -9999 -9999 -9999 -9999 -9999 -9999 -9999 -9999 -9999 -9999 -9999 -9999 -9999 -9999 -9999 -9999 -9999 -9999 -9999 -9999 -9999 -9999 -9999 -9999 -9999 -9999 -9999 -9999 -9999 -9999 -9999 -9999 -9999 -9999 -9999 -9999 -9999 -9999 -9999 -9999 -9999 -9999 -9999 -9999 -9999 -9999 -9999 -9999 -9999 -9999 -9999 -9999 -9999 -9999 -9999 -9999 -9999 -9999 -9999 -9999 -9999 -9999 -9999 -9999 -9999 -9999 -9999 -9999 -9999 -9999 -9999 -9999 -9999 -9999 -9999 -9999 -9999 -9999 -9999 -9999 -9999 -9999 -9999 -9999 -9999 -9999 -9999
-9999 -9999 -9999 -9999 -9999 -9999 -9999 -9999 -9999 -9999 -9999 -9999 -9999 -9999 -9999 -9999 -9999 -9999 -9999 -9999 -9999 -9999 -9999 -9999 -9999 956.5367 954.864 952.9097 950.7421 948.4283 946.1602 944.0907 942.1608 940.3423 938.6317 937.0304 935.5559 934.2406 933.1212 932.2225 931.3647 930.6627 929.9541 929.228 928.4199 927.6352 926.8667 926.2817 925.7639 925.3547 925.0605 924.7223 924.0458 923.2651 922.518 922.0054 921.928 922.2188 922.2363 922.3159 922.2119 921.9274 921.5811 921.2166 920.8635 920.5399 920.2829 920.1039 919.9349 919.7387 919.5294 919.3265 919.1432 918.9854 918.8547 918.7511 918.6719 918.6138 918.575 918.5529 918.5447 918.5481 918.5627 918.589 918.6257 918.6707 918.7217 918.7761 918.8309 918.8827 918.9293 918.9689 918.9972 919.0124 919.0154 919.0055 918.9818 918.9475 918.9084 918.8691 918.8322 918.7979 918.76 918.7158 918.6647 918.6061 918.5444 918.489 918.4432 918.4012 918.3575 918.3125 918.274 918.2551 918.2645 918.3014 918.3671 918.4722 918.6078 918.7478 918.7757 918.9761 919.2279 919.6753 920.2712 920.954 921.6798 922.4595 923.2067 923.9043 924.6125 925.0007 925.1488 925.207 925.2837 925.4216 925.488 925.4763 925.3798 925.1856 924.9518 924.8366 924.8629 925.035 925.2596 925.6344 926.2715 927.1484 928.0789 929.2706 930.6394 932.0757 933.5917 935.2806 937.1564 939.2402 941.5339 944.0378 946.7893 949.9102 953.1924 956.2327 958.5445 959.777 959.9188 -9999 -9999 -9999 -9999 -9999 -9999 -9999 -9999 -9999 -9999 -9999 -9999 -9999 -9999 -9999 -9999 -9999 -9999 -9999 -9999 -9999 -9999 -9999 -9999 -9999 -9999 -9999 -9999 -9999 -9999 -9999 -9999 -9999 -9999 -9999 -9999 -9999 -9999 -9999 -9999 -9999 -9999 -9999 -9999 -9999 -9999 -9999 -9999 -9999 -9999 -9999 -9999 -9999 -9999 -9999 -9999 -9999 -9999 -9999 -9999 -9999 -9999 -9999 -9999 -9999 -9999 -9999 -9999 -9999 -9999 -9999 -9999 -9999 -9999 -9999 -9999 -9999 -9999 -9999 -9999 -9999 -9999 -9999 -9999 -9999 -9999 -9999 -9999 -9999 -9999 -9999 -9999 -9999 -9999 -9999 -9999 -9999 -9999 -9999 -9999 -9999 -9999 -9999 -9999 -9999 -9999 -9999 -9999 -9999 -9999 -9999 -9999 -9999
-9999 -9999 -9999 -9999 -9999 -9999 -9999 -9999 -9999 -9999 -9999 -9999 -9999 -9999 -9999 -9999 -9999 -9999 -9999 -9999 -9999 -9999 -9999 -9999 -9999 957.6065 956.2479 954.6809 952.9493 951.0149 948.8845 946.6893 944.6215 942.6545 940.7937 939.0512 937.4546 936.051 934.8752 933.9138 933.0755 932.4411 931.855 931.2128 930.5178 929.8211 929.0546 928.3425 927.6729 927.011 926.4213 925.8576 925.2521 924.5243 923.7197 923.0504 922.5477 922.6473 922.5092 922.7798 922.6203 922.2065 921.7925 921.4025 921.0388 920.7037 920.4393 920.279 920.1287 919.9171 919.6869 919.4645 919.2637 919.09 918.9444 918.8262 918.7344 918.6652 918.616 918.5842 918.5669 918.5612 918.5654 918.5804 918.6064 918.6417 918.684 918.7306 918.7787 918.8245 918.8658 918.9017 918.9294 918.9465 918.9532 918.9497 918.9336 918.9053 918.8689 918.8295 918.7911 918.76 918.7224 918.6773 918.6243 918.5637 918.498 918.4357 918.3831 918.3375 918.29 918.2389 918.1896 918.1561 918.1483 918.1705 918.2213 918.301 918.4048 918.5101 918.5823 918.7321 918.8066 919.1542 919.6355 920.1649 920.6552 921.315 921.8116 922.3426 922.941 923.2323 923.3334 923.3815 923.4283 923.493 923.5245 923.5068 923.4164 923.2293 923.0737 923.0366 923.1474 923.2845 923.4618 923.8008 924.4556 925.347 926.363 927.604 929.058 930.5852 932.0931 933.6287 935.3085 937.1438 939.1516 941.3673 943.8492 946.6719 949.8165 952.9702 955.6476 957.3759 957.9352 957.7172 -9999 -9999 -9999 -9999 -9999 -9999 -9999 -9999 -9999 -9999 -9999 -9999 -9999 -9999 -9999 -9999 -9999 -9999 -9999 -9999 -9999 -9999 -9999 -9999 -9999 -9999 -9999 -9999 -9999 -9999 -9999 -9999 -9999 -9999 -9999 -9999 -9999 -9999 -9999 -9999 -9999 -9999 -9999 -9999 -9999 -9999 -9999 -9999 -9999 -9999 -9999 -9999 -9999 -9999 -9999 -9999 -9999 -9999 -9999 -9999 -9999 -9999 -9999 -9999 -9999 -9999 -9999 -9999 -9999 -9999 -9999 -9999 -9999 -9999 -9999 -9999 -9999 -9999 -9999 -9999 -9999 -9999 -9999 -9999 -9999 -9999 -9999 -9999 -9999 -9999 -9999 -9999 -9999 -9999 -9999 -9999 -9999 -9999 -9999 -9999 -9999 -9999 -9999 -9999 -9999 -9999 -9999 -9999 -9999 -9999 -9999 -9999
-9999 -9999 -9999 -9999 -9999 -9999 -9999 -9999 -9999 -9999 -9999 -9999 -9999 -9999 -9999 -9999 -9999 -9999 -9999 -9999 -9999 -9999 -9999 -9999 -9999 -9999 957.8333 956.6817 955.3577 953.7405 951.7854 949.593 947.3445 945.2327 943.249 941.3984 939.7016 938.2269 937.0309 936.0417 935.1926 934.4976 933.8781 933.2501 932.6107 932.0012 931.3511 930.6548 929.9551 929.2238 928.4995 927.7983 927.1802 926.4469 925.6207 924.7781 923.8561 923.1364 922.7336 923.2706 922.817 922.2695 921.7776 921.3309 920.9355 920.6345 920.4482 920.3596 920.2734 920.0574 919.8221 919.5949 919.3873 919.205 919.049 918.9182 918.8129 918.7312 918.6704 918.6274 918.5994 918.5833 918.5769 918.5798 918.5933 918.6169 918.6483 918.6851 918.7249 918.7642 918.7998 918.8312 918.8574 918.8757 918.8861 918.8889 918.8822 918.8641 918.8356 918.7998 918.7601 918.7318 918.6949 918.6484 918.5927 918.5293 918.4595 918.3906 918.3296 918.2769 918.2264 918.1703 918.113 918.0667 918.0425 918.0461 918.0747 918.1242 918.1894 918.2633 918.3345 918.43 918.5205 918.7665 919.1277 919.5117 919.8611 920.2809 920.6296 921.1021 921.5213 921.7002 921.783 921.8787 921.9351 921.965 921.9736 921.962 921.92 921.8377 921.7585 921.7439 921.8109 921.8931 922.0276 922.3156 922.9043 923.6639 924.6606 925.8439 927.3286 928.9424 930.5402 932.0724 933.6096 935.2645 937.0477 939.0126 941.2424 943.8059 946.6916 949.7745 952.6985 954.9951 956.2619 956.4145 957.6636 -9999 -9999 -9999 -9999 -9999 -9999 -9999 -9999 -9999 -9999 -9999 -9999 -9999 -9999 -9999 -9999 -9999 -9999 -9999 -9999 -9999 -9999 -9999 -9999 -9999 -9999 -9999 -9999 -9999 -9999 -9999 -9999 -9999 -9999 -9999 -9999 -9999 -9999 -9999 -9999 -9999 -9999 -9999 -9999 -9999 -9999 -9999 -9999 -9999 -9999 -9999 -9999 -9999 -9999 -9999 -9999 -9999 -9999 -9999 -9999 -9999 -9999 -9999 -9999 -9999 -9999 -9999 -9999 -9999 -9999 -9999 -9999 -9999 -9999 -9999 -9999 -9999 -9999 -9999 -9999 -9999 -9999 -9999 -9999 -9999 -9999 -9999 -9999 -9999 -9999 -9999 -9999 -9999 -9999 -9999 -9999 -9999 -9999 -9999 -9999 -9999 -9999 -9999 -9999 -9999 -9999 -9999 -9999 -9999 -9999 -9999
-9999 -9999 -9999 -9999 -9999 -9999 -9999 -9999 -9999 -9999 -9999 -9999 -9999 -9999 -9999 -9999 -9999 -9999 -9999 -9999 -9999 -9999 -9999 -9999 -9999 -9999 -9999 958.6983 957.7312 956.3994 954.6439 952.5621 950.3042 948.0629 946.0189 944.1299 942.381 940.8417 939.6506 938.64 937.7215 936.9052 936.18 935.4695 934.761 934.0941 933.4536 932.8058 932.1705 931.5313 930.8493 930.1733 929.6052 928.9476 928.1327 927.2054 926.0749 924.9651 923.9929 923.353 922.8708 922.2638 921.7189 921.2277 920.7868 920.4976 920.3853 920.3632 920.283 920.1346 919.9313 919.7163 919.5127 919.3291 919.1672 919.0266 918.9084 918.8131 918.7394 918.6836 918.6428 918.6143 918.596 918.5867 918.5869 918.5975 918.6163 918.6414 918.6708 918.7018 918.7313 918.7582 918.7828 918.803 918.8172 918.8263 918.8297 918.8245 918.8098 918.7876 918.76 918.7252 918.6824 918.6312 918.5717 918.5032 918.4299 918.3546 918.2854 918.2244 918.1666 918.1067 918.0438 917.9867 917.9478 917.932 917.9382 917.9587 917.9895 918.0339 918.0914 918.1698 918.2781 918.481 918.7602 919.0416 919.2572 919.5561 919.8568 920.1821 920.3682 920.4575 920.5724 920.808 920.9207 920.9528 920.9551 920.948 920.9307 920.8992 920.8663 920.8716 920.9385 921.0227 921.1637 921.3962 921.7928 922.3156 923.1508 924.1625 925.5381 927.1524 928.8093 930.433 931.9852 933.5256 935.1573 936.9252 938.9267 941.2476 943.8951 946.751 949.7491 952.5341 954.7808 956.4257 958.188 959.619 -9999 -9999 -9999 -9999 -9999 -9999 -9999 -9999 -9999 -9999 -9999 -9999 -9999 -9999 -9999 -9999 -9999 -9999 -9999 -9999 -9999 -9999 -9999 -9999 -9999 -9999 -9999 -9999 -9999 -9999 -9999 -9999 -9999 -9999 -9999 -9999 -9999 -9999 -9999 -9999 -9999 -9999 -9999 -9999 -9999 -9999 -9999 -9999 -9999 -9999 -9999 -9999 -9999 -9999 -9999 -9999 -9999 -9999 -9999 -9999 -9999 -9999 -9999 -9999 -9999 -9999 -9999 -9999 -9999 -9999 -9999 -9999 -9999 -9999 -9999 -9999 -9999 -9999 -9999 -9999 -9999 -9999 -9999 -9999 -9999 -9999 -9999 -9999 -9999 -9999 -9999 -9999 -9999 -9999 -9999 -9999 -9999 -9999 -9999 -9999 -9999 -9999 -9999 -9999 -9999 -9999 -9999 -9999 -9999 -9999
-9999 -9999 -9999 -9999 -9999 -9999 -9999 -9999 -9999 -9999 -9999 -9999 -9999 -9999 -9999 -9999 -9999 -9999 -9999 -9999 -9999 -9999 -9999 -9999 -9999 -9999 -9999 960.7172 960.0398 958.9759 957.4405 955.5158 953.3729 951.1929 949.1582 947.3532 945.6521 944.0672 942.9077 941.8413 940.7858 939.7685 938.8817 938.0031 937.1219 936.3114 935.6119 934.9739 934.3536 933.7554 933.1461 932.5638 932.0674 931.4994 930.7443 929.8135 928.6725 927.5142 926.2519 924.9734 923.7882 922.7233 921.9552 921.316 920.7821 920.4587 920.3981 920.4703 920.4454 920.2933 920.0769 919.8561 919.6516 919.4667 919.2996 919.1501 919.0199 918.9107 918.8226 918.7528 918.6979 918.6552 918.623 918.6008 918.5876 918.584 918.5891 918.6011 918.6183 918.639 918.6611 918.6832 918.7061 918.7286 918.7483 918.7644 918.7777 918.786 918.7865 918.7783 918.76 918.726 918.6797 918.6234 918.5597 918.4872 918.4073 918.3276 918.2511 918.1816 918.1166 918.0501 917.9817 917.9174 917.8655 917.832 917.817 917.8134 917.8175 917.8356 917.8772 917.9471 918.0593 918.2408 918.4813 918.7217 918.8044 919.0585 919.3135 919.514 919.6271 919.7319 919.9018 920.1617 920.2545 920.2724 920.2714 920.2692 920.2673 920.2659 920.2723 920.3149 920.4537 920.5316 920.667 920.8326 921.0824 921.435 921.9963 922.7988 923.8778 925.3198 926.905 928.5739 930.2431 931.8234 933.3751 935.012 936.8239 938.9082 941.3045 943.9637 946.8362 949.7955 952.6164 955.1714 957.4908 959.2554 960.0337 -9999 -9999 -9999 -9999 -9999 -9999 -9999 -9999 -9999 -9999 -9999 -9999 -9999 -9999 -9999 -9999 -9999 -9999 -9999 -9999 -9999 -9999 -9999 -9999 -9999 -9999 -9999 -9999 -9999 -9999 -9999 -9999 -9999 -9999 -9999 -9999 -9999 -9999 -9999 -9999 -9999 -9999 -9999 -9999 -9999 -9999 -9999 -9999 -9999 -9999 -9999 -9999 -9999 -9999 -9999 -9999 -9999 -9999 -9999 -9999 -9999 -9999 -9999 -9999 -9999 -9999 -9999 -9999 -9999 -9999 -9999 -9999 -9999 -9999 -9999 -9999 -9999 -9999 -9999 -9999 -9999 -9999 -9999 -9999 -9999 -9999 -9999 -9999 -9999 -9999 -9999 -9999 -9999 -9999 -9999 -9999 -9999 -9999 -9999 -9999 -9999 -9999 -9999 -9999 -9999 -9999 -9999 -9999 -9999
-9999 -9999 -9999 -9999 -9999 -9999 -9999 -9999 -9999 -9999 -9999 -9999 -9999 -9999 -9999 -9999 -9999 -9999 -9999 -9999 -9999 -9999 -9999 -9999 -9999 -9999 -9999 -9999 962.5084 961.6678 960.3296 958.5582 956.5635 954.5593 952.7559 951.2115 949.7638 948.332 947.0497 945.8322 944.5712 943.2678 942.1522 941.0061 939.8553 938.8248 938.0291 937.3427 936.7188 936.1045 935.4954 934.9117 934.3708 933.7557 932.9702 931.9891 930.8694 929.8969 928.6874 927.2535 925.6388 924.1032 922.8014 921.8231 921.0682 920.6204 920.5623 920.7286 920.7501 920.6266 920.3109 920.0435 919.8196 919.6262 919.449 919.2875 919.1445 919.0216 918.9189 918.8342 918.7643 918.7064 918.6591 918.6224 918.5955 918.5773 918.5677 918.5655 918.569 918.5774 918.5902 918.6071 918.6278 918.6525 918.6785 918.7032 918.7269 918.7482 918.7633 918.7687 918.76 918.7303 918.6831 918.6231 918.5543 918.4785 918.3937 918.3064 918.2246 918.1488 918.0768 918.0044 917.9303 917.8586 917.7971 917.7491 917.7148 917.6913 917.6748 917.6715 917.6946 917.752 917.853 918.0074 918.2035 918.399 918.5393 918.7589 918.9691 919.0724 919.1343 919.2534 919.4019 919.5791 919.6874 919.7328 919.7466 919.7512 919.7585 919.7818 919.8502 920.0028 920.2402 920.2823 920.4099 920.5002 920.6571 920.8759 921.231 921.7873 922.5384 923.6752 925.0101 926.5234 928.2557 929.9733 931.5823 933.1614 934.8517 936.7438 938.9051 941.3413 944.0148 946.8499 949.8089 952.7579 955.504 957.7224 959.0136 958.9785 -9999 -9999 -9999 -9999 -9999 -9999 -9999 -9999 -9999 -9999 -9999 -9999 -9999 -9999 -9999 -9999 -9999 -9999 -9999 -9999 -9999 -9999 -9999 -9999 -9999 -9999 -9999 -9999 -9999 -9999 -9999 -9999 -9999 -9999 -9999 -9999 -9999 -9999 -9999 -9999 -9999 -9999 -9999 -9999 -9999 -9999 -9999 -9999 -9999 -9999 -9999 -9999 -9999 -9999 -9999 -9999 -9999 -9999 -9999 -9999 -9999 -9999 -9999 -9999 -9999 -9999 -9999 -9999 -9999 -9999 -9999 -9999 -9999 -9999 -9999 -9999 -9999 -9999 -9999 -9999 -9999 -9999 -9999 -9999 -9999 -9999 -9999 -9999 -9999 -9999 -9999 -9999 -9999 -9999 -9999 -9999 -9999 -9999 -9999 -9999 -9999 -9999 -9999 -9999 -9999 -9999 -9999 -9999
-9999 -9999 -9999 -9999 -9999 -9999 -9999 -9999 -9999 -9999 -9999 -9999 -9999 -9999 -9999 -9999 -9999 -9999 -9999 -9999 -9999 -9999 -9999 -9999 -9999 -9999 -9999 -9999 -9999 -9999 963.3292 961.7061 959.8765 958.0825 956.5582 955.3533 954.2815 953.1558 951.9588 950.6783 949.2811 947.7522 946.2093 944.6674 943.1757 941.8527 940.9218 940.1031 939.4186 938.7272 938.0085 937.2885 936.5964 935.8445 934.9503 933.887 932.736 931.6258 930.4852 929.1928 927.544 925.9481 924.3182 922.8627 921.7542 921.0474 920.8556 921.0096 921.0778 920.9953 920.6694 920.3068 920.0324 919.8146 919.6163 919.4367 919.2787 919.1422 919.0254 918.9259 918.8409 918.7676 918.7047 918.6526 918.611 918.5781 918.553 918.5351 918.5235 918.5182 918.5205 918.5309 918.5493 918.5752 918.6069 918.6411 918.6762 918.7105 918.7397 918.7583 918.76 918.7366 918.6906 918.6276 918.5543 918.4741 918.387 918.2932 918.203 918.1221 918.0461 917.9698 917.891 917.8135 917.7436 917.6842 917.6345 917.5934 917.5593 917.5388 917.5428 917.5826 917.6622 917.7885 917.9498 918.1262 918.305 918.5251 918.7354 918.7614 918.78 918.9305 919.0284 919.1248 919.2458 919.314 919.3409 919.3499 919.3591 919.386 919.4695 919.6532 919.8917 920.0714 920.257 920.2857 920.4149 920.5235 920.7144 921.1213 921.7043 922.4978 923.3953 924.5141 926.0958 927.8683 929.6239 931.2587 932.9197 934.7021 936.6761 938.8882 941.326 943.9453 946.7162 949.6746 952.6196 955.2006 956.9697 957.4194 956.474 -9999 -9999 -9999 -9999 -9999 -9999 -9999 -9999 -9999 -9999 -9999 -9999 -9999 -9999 -9999 -9999 -9999 -9999 -9999 -9999 -9999 -9999 -9999 -9999 -9999 -9999 -9999 -9999 -9999 -9999 -9999 -9999 -9999 -9999 -9999 -9999 -9999 -9999 -9999 -9999 -9999 -9999 -9999 -9999 -9999 -9999 -9999 -9999 -9999 -9999 -9999 -9999 -9999 -9999 -9999 -9999 -9999 -9999 -9999 -9999 -9999 -9999 -9999 -9999 -9999 -9999 -9999 -9999 -9999 -9999 -9999 -9999 -9999 -9999 -9999 -9999 -9999 -9999 -9999 -9999 -9999 -9999 -9999 -9999 -9999 -9999 -9999 -9999 -9999 -9999 -9999 -9999 -9999 -9999 -9999 -9999 -9999 -9999 -9999 -9999 -9999 -9999 -9999 -9999 -9999 -9999 -9999
-9999 -9999 -9999 -9999 -9999 -9999 -9999 -9999 -9999 -9999 -9999 -9999 -9999 -9999 -9999 -9999 -9999 -9999 -9999 -9999 -9999 -9999 -9999 -9999 -9999 -9999 -9999 -9999 -9999 -9999 -9999 964.7238 963.1323 961.6138 960.3809 959.497 958.7781 957.9725 956.959 955.7274 954.2862 952.645 950.866 949.0778 947.3896 945.8815 944.5916 943.4517 942.6212 941.7344 940.7843 939.7879 938.8301 937.8436 936.7531 935.5475 934.2762 933.0184 931.7018 930.2477 928.7012 927.6558 926.1848 924.4765 922.9057 921.8002 921.3202 921.3593 921.437 921.4014 921.0905 920.6771 920.3004 920.0322 919.7939 919.591 919.4181 919.2694 919.14 919.0266 918.9266 918.838 918.76 918.6927 918.6356 918.5874 918.5458 918.5109 918.4829 918.463 918.4534 918.4564 918.4718 918.498 918.5339 918.5769 918.624 918.6719 918.7155 918.7475 918.76 918.7437 918.7004 918.6355 918.5576 918.4731 918.3824 918.2867 918.1892 918.1 918.0205 917.9429 917.8629 917.7814 917.7051 917.6373 917.5764 917.5205 917.4716 917.434 917.4204 917.4391 917.4957 917.5909 917.7214 917.8763 918.05 918.243 918.4146 918.4962 918.5854 918.7426 918.7597 918.7803 918.9337 919.0031 919.0254 919.0309 919.0334 919.0463 919.1047 919.2834 919.5026 919.7248 919.9385 920.0822 920.2544 920.2707 920.3175 920.6536 921.1492 921.8585 922.1711 922.8123 924.0402 925.6566 927.4255 929.1827 930.9333 932.7209 934.5947 936.625 938.8382 941.2108 943.7283 946.4178 949.287 952.0284 954.1795 955.1714 954.7361 953.0065 -9999 -9999 -9999 -9999 -9999 -9999 -9999 -9999 -9999 -9999 -9999 -9999 -9999 -9999 -9999 -9999 -9999 -9999 -9999 -9999 -9999 -9999 -9999 -9999 -9999 -9999 -9999 -9999 -9999 -9999 -9999 -9999 -9999 -9999 -9999 -9999 -9999 -9999 -9999 -9999 -9999 -9999 -9999 -9999 -9999 -9999 -9999 -9999 -9999 -9999 -9999 -9999 -9999 -9999 -9999 -9999 -9999 -9999 -9999 -9999 -9999 -9999 -9999 -9999 -9999 -9999 -9999 -9999 -9999 -9999 -9999 -9999 -9999 -9999 -9999 -9999 -9999 -9999 -9999 -9999 -9999 -9999 -9999 -9999 -9999 -9999 -9999 -9999 -9999 -9999 -9999 -9999 -9999 -9999 -9999 -9999 -9999 -9999 -9999 -9999 -9999 -9999 -9999 -9999 -9999 -9999
-9999 -9999 -9999 -9999 -9999 -9999 -9999 -9999 -9999 -9999 -9999 -9999 -9999 -9999 -9999 -9999 -9999 -9999 -9999 -9999 -9999 -9999 -9999 -9999 -9999 -9999 -9999 -9999 -9999 -9999 -9999 -9999 -9999 964.8928 963.9708 963.3353 962.8327 962.2329 961.3745 960.2429 958.8528 957.2247 955.4188 953.6241 951.9657 950.4702 949.042 947.658 946.4491 945.2097 943.8945 942.4816 941.1426 939.8143 938.4283 937.001 935.5425 934.1456 932.6878 931.1901 929.8268 928.8805 927.9756 926.4298 924.5569 922.9127 921.9799 921.791 921.8597 921.8469 921.5313 921.069 920.6121 920.2539 919.9595 919.7389 919.5585 919.4017 919.2621 919.1361 919.0217 918.9177 918.8247 918.7427 918.6703 918.6058 918.5472 918.4943 918.4485 918.4128 918.3907 918.3855 918.3972 918.4232 918.4619 918.5121 918.5704 918.632 918.69 918.736 918.76 918.7507 918.7106 918.6451 918.5634 918.4742 918.3809 918.2827 918.183 918.087 918.0005 917.921 917.8418 917.7596 917.6793 917.6054 917.5371 917.4716 917.4097 917.3579 917.326 917.3237 917.3553 917.421 917.5192 917.6439 917.7911 917.9523 918.1009 918.2144 918.3293 918.4568 918.5201 918.5972 918.7448 918.7608 918.7599 918.7589 918.758 918.7571 918.7771 918.9554 919.1149 919.3306 919.5349 919.7256 919.8915 919.9495 920.0146 920.23 920.4603 920.9094 921.1246 921.5122 922.3548 923.6235 925.158 926.9165 928.8107 930.7232 932.6117 934.5441 936.5825 938.7328 940.9753 943.3768 945.9399 948.5971 950.9454 952.3988 952.5601 951.3613 949.3232 -9999 -9999 -9999 -9999 -9999 -9999 -9999 -9999 -9999 -9999 -9999 -9999 -9999 -9999 -9999 -9999 -9999 -9999 -9999 -9999 -9999 -9999 -9999 -9999 -9999 -9999 -9999 -9999 -9999 -9999 -9999 -9999 -9999 -9999 -9999 -9999 -9999 -9999 -9999 -9999 -9999 -9999 -9999 -9999 -9999 -9999 -9999 -9999 -9999 -9999 -9999 -9999 -9999 -9999 -9999 -9999 -9999 -9999 -9999 -9999 -9999 -9999 -9999 -9999 -9999 -9999 -9999 -9999 -9999 -9999 -9999 -9999 -9999 -9999 -9999 -9999 -9999 -9999 -9999 -9999 -9999 -9999 -9999 -9999 -9999 -9999 -9999 -9999 -9999 -9999 -9999 -9999 -9999 -9999 -9999 -9999 -9999 -9999 -9999 -9999 -9999 -9999 -9999 -9999 -9999
-9999 -9999 -9999 -9999 -9999 -9999 -9999 -9999 -9999 -9999 -9999 -9999 -9999 -9999 -9999 -9999 -9999 -9999 -9999 -9999 -9999 -9999 -9999 -9999 -9999 -9999 -9999 -9999 -9999 -9999 -9999 -9999 -9999 -9999 -9999 966.4928 966.004 965.43 964.6404 963.6149 962.3713 960.8602 959.2038 957.609 956.1727 954.845 953.3964 951.8706 950.572 949.0999 947.3394 945.4171 943.5924 941.8145 940.0266 938.2681 936.5911 935.0416 933.486 931.9417 930.6112 929.6928 929.2635 928.3611 926.4966 924.4343 922.8717 922.3124 922.3803 922.3372 921.9442 921.4043 920.8483 920.3444 920.0797 919.8788 919.7026 919.5416 919.3934 919.2558 919.1276 919.0087 918.9004 918.8035 918.7159 918.6348 918.5581 918.4863 918.4221 918.3701 918.3351 918.3209 918.3279 918.3533 918.3942 918.4503 918.5184 918.5922 918.6636 918.7231 918.76 918.757 918.7195 918.6548 918.5708 918.4775 918.3816 918.2827 918.1812 918.0826 917.9908 917.907 917.8265 917.7449 917.663 917.5847 917.5116 917.4401 917.3707 917.3077 917.2601 917.2377 917.2436 917.2808 917.3462 917.4371 917.5502 917.6785 917.8071 917.926 918.0449 918.1622 918.2546 918.3487 918.4512 918.4815 918.4868 918.4895 918.4987 918.5242 918.5934 918.744 918.7829 918.975 919.1265 919.3246 919.5027 919.6016 919.6755 919.7983 919.9503 920.1935 920.2862 920.4979 921.1046 921.9968 923.1452 924.7056 926.603 928.6383 930.6367 932.5712 934.515 936.5074 938.4966 940.6317 942.917 945.2797 947.5826 949.3179 950.0361 949.4726 948.0143 946.3859 945.2234 -9999 -9999 -9999 -9999 -9999 -9999 -9999 -9999 -9999 -9999 -9999 -9999 -9999 -9999 -9999 -9999 -9999 -9999 -9999 -9999 -9999 -9999 -9999 -9999 -9999 -9999 -9999 -9999 -9999 -9999 -9999 -9999 -9999 -9999 -9999 -9999 -9999 -9999 -9999 -9999 -9999 -9999 -9999 -9999 -9999 -9999 -9999 -9999 -9999 -9999 -9999 -9999 -9999 -9999 -9999 -9999 -9999 -9999 -9999 -9999 -9999 -9999 -9999 -9999 -9999 -9999 -9999 -9999 -9999 -9999 -9999 -9999 -9999 -9999 -9999 -9999 -9999 -9999 -9999 -9999 -9999 -9999 -9999 -9999 -9999 -9999 -9999 -9999 -9999 -9999 -9999 -9999 -9999 -9999 -9999 -9999 -9999 -9999 -9999 -9999 -9999 -9999 -9999
-9999 -9999 -9999 -9999 -9999 -9999 -9999 -9999 -9999 -9999 -9999 -9999 -9999 -9999 -9999 -9999 -9999 -9999 -9999 -9999 -9999 -9999 -9999 -9999 -9999 -9999 -9999 -9999 -9999 -9999 -9999 -9999 -9999 -9999 -9999 -9999 -9999 -9999 -9999 965.5166 964.5176 963.1672 961.7239 960.4345 959.311 958.1917 956.6978 954.9998 954.0772 952.7644 950.918 948.6601 946.2252 943.89 941.5851 939.3883 937.415 935.6786 934.1261 932.5384 931.2482 930.5176 930.349 929.9818 928.403 926.1722 924.1163 922.9273 923.0222 922.836 922.2337 921.629 921.0827 920.5896 920.2816 920.0614 919.8698 919.6968 919.5376 919.3882 919.2466 919.1129 918.9896 918.8774 918.7743 918.6763 918.5809 918.4898 918.4066 918.3379 918.2899 918.2666 918.2682 918.2917 918.3346 918.3961 918.4724 918.5562 918.6378 918.7069 918.7518 918.76 918.7251 918.6625 918.5793 918.4842 918.3859 918.2869 918.186 918.0857 917.9916 917.9043 917.8214 917.7383 917.6548 917.5735 917.4957 917.4213 917.3469 917.2776 917.2195 917.1797 917.164 917.1724 917.2064 917.264 917.342 917.4376 917.543 917.6516 917.7643 917.8755 917.9755 918.0684 918.149 918.1907 918.2107 918.2269 918.2529 918.3018 918.3869 918.5085 918.597 918.7454 918.7827 918.9774 919.161 919.2728 919.3474 919.4174 919.4998 919.6078 919.6733 919.8385 920.2559 920.8622 921.6406 922.8051 924.4551 926.4577 928.556 930.574 932.4962 934.3714 936.2245 938.165 940.2183 942.3245 944.369 946.1631 947.2984 947.4135 946.6426 945.6272 944.9604 944.3054 943.7013 942.8828 942.0536 941.6836 -9999 -9999 -9999 -9999 -9999 -9999 -9999 -9999 -9999 -9999 -9999 -9999 -9999 -9999 -9999 -9999 -9999 -9999 -9999 -9999 -9999 -9999 -9999 -9999 -9999 -9999 -9999 -9999 -9999 -9999 -9999 -9999 -9999 -9999 -9999 -9999 -9999 -9999 -9999 -9999 -9999 -9999 -9999 -9999 -9999 -9999 -9999 -9999 -9999 -9999 -9999 -9999 -9999 -9999 -9999 -9999 -9999 -9999 -9999 -9999 -9999 -9999 -9999 -9999 -9999 -9999 -9999 -9999 -9999 -9999 -9999 -9999 -9999 -9999 -9999 -9999 -9999 -9999 -9999 -9999 -9999 -9999 -9999 -9999 -9999 -9999 -9999 -9999 -9999 -9999 -9999 -9999 -9999 -9999 -9999 -9999 -9999 -9999
-9999 -9999 -9999 -9999 -9999 -9999 -9999 -9999 -9999 -9999 -9999 -9999 -9999 -9999 -9999 -9999 -9999 -9999 -9999 -9999 -9999 -9999 -9999 -9999 -9999 -9999 -9999 -9999 -9999 -9999 -9999 -9999 -9999 -9999 -9999 -9999 -9999 -9999 -9999 -9999 -9999 -9999 -9999 961.7925 960.9808 960.0614 958.5232 956.4352 956.4036 955.4943 953.8924 951.6721 948.9493 945.9888 943.1047 940.3773 938.0365 936.1003 934.4919 932.973 931.6691 930.9861 930.9374 930.8789 929.9365 927.8837 925.6008 923.9855 923.7765 922.9406 922.1707 921.5815 921.1276 920.765 920.5039 920.2819 920.0638 919.8707 919.698 919.5364 919.3812 919.2329 919.0947 918.9677 918.8484 918.733 918.6189 918.5084 918.4069 918.3217 918.2607 918.2283 918.2241 918.245 918.2889 918.3552 918.4388 918.5306 918.6191 918.6941 918.7445 918.76 918.7283 918.6692 918.5898 918.4963 918.397 918.298 918.1986 918.099 918.0029 917.9134 917.8284 917.7434 917.6575 917.5718 917.4901 917.4113 917.3347 917.2608 917.1959 917.1454 917.1123 917.0981 917.1035 917.1289 917.1744 917.2385 917.3177 917.4081 917.5072 917.6096 917.7063 917.7935 917.8653 917.9138 917.9473 917.9789 918.0208 918.0851 918.1784 918.292 918.4021 918.5231 918.6063 918.7606 918.9152 918.9922 919.0704 919.1156 919.154 919.2019 919.2465 919.3666 919.6479 920.0686 920.5097 921.3168 922.5401 924.287 926.3428 928.4395 930.4325 932.3218 934.1279 935.9377 937.7957 939.6758 941.4978 943.1418 944.4864 945.1987 945.2307 945.0472 944.9753 944.7188 943.85 942.6217 941.4615 940.9747 941.262 942.1235 943.0671 944.0525 -9999 -9999 -9999 -9999 -9999 -9999 -9999 -9999 -9999 -9999 -9999 -9999 -9999 -9999 -9999 -9999 -9999 -9999 -9999 -9999 -9999 -9999 -9999 -9999 -9999 -9999 -9999 -9999 -9999 -9999 -9999 -9999 -9999 -9999 -9999 -9999 -9999 -9999 -9999 -9999 -9999 -9999 -9999 -9999 -9999 -9999 -9999 -9999 -9999 -9999 -9999 -9999 -9999 -9999 -9999 -9999 -9999 -9999 -9999 -9999 -9999 -9999 -9999 -9999 -9999 -9999 -9999 -9999 -9999 -9999 -9999 -9999 -9999 -9999 -9999 -9999 -9999 -9999 -9999 -9999 -9999 -9999 -9999 -9999 -9999 -9999 -9999 -9999 -9999 -9999 -9999 -9999 -9999 -9999
-9999 -9999 -9999 -9999 -9999 -9999 -9999 -9999 -9999 -9999 -9999 -9999 -9999 -9999 -9999 -9999 -9999 -9999 -9999 -9999 -9999 -9999 -9999 -9999 -9999 -9999 -9999 -9999 -9999 -9999 -9999 -9999 -9999 -9999 -9999 -9999 -9999 -9999 -9999 -9999 -9999 -9999 -9999 -9999 -9999 -9999 959.7949 958.6728 958.111 956.9597 955.6602 953.7706 951.1512 947.9547 944.501 941.2001 938.4732 936.3398 934.689 933.3022 932.0277 931.3025 931.2729 931.4495 931.0476 929.3655 927.0104 924.8143 923.412 922.4983 921.8344 921.3952 921.1098 920.9163 920.7528 920.555 920.2903 920.0664 919.8774 919.7032 919.5339 919.3707 919.2185 919.077 918.9424 918.8096 918.6775 918.5487 918.4298 918.3291 918.2552 918.2136 918.2036 918.2213 918.2655 918.3356 918.425 918.5228 918.6155 918.693 918.7446 918.76 918.7347 918.6808 918.6068 918.5173 918.4193 918.3202 918.222 918.1238 918.0273 917.9351 917.8477 917.7612 917.6727 917.5833 917.4956 917.4121 917.3315 917.2543 917.1838 917.1255 917.0817 917.0519 917.0352 917.0344 917.0505 917.085 917.1372 917.2051 917.2863 917.3757 917.4647 917.5459 917.6137 917.666 917.7095 917.7533 917.8084 917.8837 917.9828 918.1001 918.2214 918.347 918.4688 918.6172 918.7544 918.7675 918.8646 918.8997 918.9165 918.9509 918.9762 919.0358 919.1832 919.4138 919.695 920.1954 920.9844 922.3243 924.1207 926.1495 928.2073 930.2288 932.1149 933.8797 935.5898 937.2737 938.9109 940.4183 941.7213 942.7789 943.457 943.9473 944.3465 944.4407 943.9673 942.6602 941.212 940.3346 940.8716 941.8447 942.7981 943.7037 944.6678 -9999 -9999 -9999 -9999 -9999 -9999 -9999 -9999 -9999 -9999 -9999 -9999 -9999 -9999 -9999 -9999 -9999 -9999 -9999 -9999 -9999 -9999 -9999 -9999 -9999 -9999 -9999 -9999 -9999 -9999 -9999 -9999 -9999 -9999 -9999 -9999 -9999 -9999 -9999 -9999 -9999 -9999 -9999 -9999 -9999 -9999 -9999 -9999 -9999 -9999 -9999 -9999 -9999 -9999 -9999 -9999 -9999 -9999 -9999 -9999 -9999 -9999 -9999 -9999 -9999 -9999 -9999 -9999 -9999 -9999 -9999 -9999 -9999 -9999 -9999 -9999 -9999 -9999 -9999 -9999 -9999 -9999 -9999 -9999 -9999 -9999 -9999 -9999 -9999 -9999 -9999 -9999 -9999
-9999 -9999 -9999 -9999 -9999 -9999 -9999 -9999 -9999 -9999 -9999 -9999 -9999 -9999 -9999 -9999 -9999 -9999 -9999 -9999 -9999 -9999 -9999 -9999 -9999 -9999 -9999 -9999 -9999 -9999 -9999 -9999 -9999 -9999 -9999 -9999 -9999 -9999 -9999 -9999 -9999 -9999 -9999 -9999 -9999 -9999 -9999 -9999 958.1093 957.0931 955.8459 954.4611 952.2169 949.1197 945.5007 941.8199 938.7543 936.446 934.7681 933.5206 932.4515 931.7089 931.5831 931.7896 931.6532 930.53 928.3943 925.9858 923.9437 922.5081 921.7191 921.3234 921.1654 921.126 921.0578 920.8864 920.5719 920.2859 920.0755 919.8887 919.7052 919.5273 919.3627 919.2087 919.0608 918.9131 918.7645 918.6194 918.4845 918.3694 918.2834 918.2325 918.2162 918.2303 918.2739 918.3466 918.4399 918.5411 918.636 918.7148 918.7675 918.7838 918.76 918.7084 918.6375 918.5524 918.457 918.358 918.2598 918.1622 918.0652 917.9709 917.8803 917.7917 917.7015 917.6084 917.5154 917.4254 917.3394 917.2574 917.1815 917.116 917.0636 917.0236 916.9937 916.974 916.9677 916.9769 917.0038 917.0476 917.1077 917.1808 917.2597 917.3351 917.4009 917.4561 917.5055 917.5574 917.621 917.7039 917.8088 917.9311 918.0621 918.1973 918.3346 918.4763 918.5974 918.6639 918.7576 918.7603 918.7615 918.8173 918.8334 918.8481 918.9023 918.9985 919.1479 919.424 919.9093 920.7798 922.1375 923.8704 925.8461 927.9768 930.0354 931.8846 933.5281 935.0605 936.5588 937.9561 939.1804 940.2219 941.1708 942.1701 942.9178 943.1925 942.8395 941.746 940.4498 939.6151 940.3834 941.4105 942.2638 943.0308 943.8589 944.8306 946.1475 -9999 -9999 -9999 -9999 -9999 -9999 -9999 -9999 -9999 -9999 -9999 -9999 -9999 -9999 -9999 -9999 -9999 -9999 -9999 -9999 -9999 -9999 -9999 -9999 -9999 -9999 -9999 -9999 -9999 -9999 -9999 -9999 -9999 -9999 -9999 -9999 -9999 -9999 -9999 -9999 -9999 -9999 -9999 -9999 -9999 -9999 -9999 -9999 -9999 -9999 -9999 -9999 -9999 -9999 -9999 -9999 -9999 -9999 -9999 -9999 -9999 -9999 -9999 -9999 -9999 -9999 -9999 -9999 -9999 -9999 -9999 -9999 -9999 -9999 -9999 -9999 -9999 -9999 -9999 -9999 -9999 -9999 -9999 -9999 -9999 -9999 -9999 -9999 -9999 -9999 -9999
-9999 -9999 -9999 -9999 -9999 -9999 -9999 -9999 -9999 -9999 -9999 -9999 -9999 -9999 -9999 -9999 -9999 -9999 -9999 -9999 -9999 -9999 -9999 -9999 -9999 -9999 -9999 -9999 -9999 -9999 -9999 -9999 -9999 -9999 -9999 -9999 -9999 -9999 -9999 -9999 -9999 -9999 -9999 -9999 -9999 -9999 -9999 -9999 -9999 -9999 954.9193 953.7676 951.9042 949.1823 945.8521 942.2635 938.9335 936.5038 934.7977 933.6606 932.829 932.1924 931.9969 932.1514 932.1606 931.4608 929.6522 927.3014 925.033 923.264 922.1052 921.5415 921.3846 921.4451 921.3984 921.1509 920.8082 920.5021 920.2778 920.0854 919.8904 919.7007 919.5296 919.3671 919.2098 919.0516 918.8902 918.7308 918.5823 918.4536 918.3563 918.2965 918.2734 918.2828 918.3239 918.3966 918.491 918.5925 918.6874 918.767 918.8214 918.839 918.8154 918.7601 918.6882 918.6055 918.5131 918.4144 918.3147 918.216 918.1178 918.0208 917.9268 917.835 917.7429 917.6475 917.5501 917.454 917.3611 917.2727 917.1902 917.1166 917.0552 917.0062 916.967 916.9366 916.9161 916.908 916.9142 916.9363 916.9745 917.0289 917.0947 917.1637 917.2283 917.2859 917.3397 917.396 917.4626 917.5488 917.6569 917.7828 917.92 918.0619 918.2058 918.3442 918.4606 918.5453 918.6209 918.6533 918.6907 918.7587 918.7598 918.7598 918.7888 918.8076 918.8591 918.9808 919.2389 919.7499 920.6234 921.922 923.5735 925.6204 927.791 929.8038 931.5192 932.9788 934.4142 935.7542 936.9119 937.86 938.686 939.801 940.6415 940.9829 940.7625 939.8477 938.9463 938.8044 939.4343 940.4108 941.3152 942.0171 942.7764 943.6813 944.9373 946.6051 948.7725 -9999 -9999 -9999 -9999 -9999 -9999 -9999 -9999 -9999 -9999 -9999 -9999 -9999 -9999 -9999 -9999 -9999 -9999 -9999 -9999 -9999 -9999 -9999 -9999 -9999 -9999 -9999 -9999 -9999 -9999 -9999 -9999 -9999 -9999 -9999 -9999 -9999 -9999 -9999 -9999 -9999 -9999 -9999 -9999 -9999 -9999 -9999 -9999 -9999 -9999 -9999 -9999 -9999 -9999 -9999 -9999 -9999 -9999 -9999 -9999 -9999 -9999 -9999 -9999 -9999 -9999 -9999 -9999 -9999 -9999 -9999 -9999 -9999 -9999 -9999 -9999 -9999 -9999 -9999 -9999 -9999 -9999 -9999 -9999 -9999 -9999 -9999 -9999 -9999
-9999 -9999 -9999 -9999 -9999 -9999 -9999 -9999 -9999 -9999 -9999 -9999 -9999 -9999 -9999 -9999 -9999 -9999 -9999 -9999 -9999 -9999 -9999 -9999 -9999 -9999 -9999 -9999 -9999 -9999 -9999 -9999 -9999 -9999 -9999 -9999 -9999 -9999 -9999 -9999 -9999 -9999 -9999 -9999 -9999 -9999 -9999 -9999 -9999 -9999 -9999 952.1113 950.5874 948.3592 945.5846 942.4701 939.3113 936.6677 934.8428 933.7809 933.1399 932.675 932.4677 932.5489 932.5959 932.1303 930.6982 928.5632 926.2703 924.3524 922.9713 922.0739 921.7692 921.8906 921.7697 921.3759 920.981 920.6633 920.4413 920.2745 920.0809 919.8862 919.723 919.5565 919.3972 919.2366 919.0654 918.8954 918.7352 918.5943 918.4858 918.4177 918.3875 918.3898 918.4241 918.4917 918.5826 918.68 918.7723 918.8521 918.9078 918.9253 918.8988 918.8379 918.76 918.6768 918.5869 918.4894 918.3878 918.2859 918.1849 918.0847 917.9864 917.8909 917.7959 917.6987 917.5986 917.4977 917.3987 917.303 917.2128 917.1298 917.0579 916.9986 916.9506 916.9125 916.8836 916.8652 916.8585 916.8644 916.8845 916.9201 916.9709 917.0313 917.0936 917.1536 917.2112 917.2702 917.3372 917.4208 917.5265 917.6524 917.791 917.9358 918.0819 918.2203 918.3361 918.4241 918.4926 918.5396 918.5856 918.6343 918.6484 918.6675 918.7587 918.7599 918.7689 918.7957 918.8943 919.1407 919.6343 920.4514 921.6536 923.3852 925.4623 927.57 929.4455 931.0009 932.4571 933.8176 934.9951 935.9785 936.8699 937.8337 938.5918 938.9617 938.8075 937.6878 936.9308 937.2177 937.9698 938.9642 939.8776 940.6248 941.3987 942.3947 943.7078 945.3884 947.4363 949.8455 952.6002 -9999 -9999 -9999 -9999 -9999 -9999 -9999 -9999 -9999 -9999 -9999 -9999 -9999 -9999 -9999 -9999 -9999 -9999 -9999 -9999 -9999 -9999 -9999 -9999 -9999 -9999 -9999 -9999 -9999 -9999 -9999 -9999 -9999 -9999 -9999 -9999 -9999 -9999 -9999 -9999 -9999 -9999 -9999 -9999 -9999 -9999 -9999 -9999 -9999 -9999 -9999 -9999 -9999 -9999 -9999 -9999 -9999 -9999 -9999 -9999 -9999 -9999 -9999 -9999 -9999 -9999 -9999 -9999 -9999 -9999 -9999 -9999 -9999 -9999 -9999 -9999 -9999 -9999 -9999 -9999 -9999 -9999 -9999 -9999 -9999 -9999 -9999
-9999 -9999 -9999 -9999 -9999 -9999 -9999 -9999 -9999 -9999 -9999 -9999 -9999 -9999 -9999 -9999 -9999 -9999 -9999 -9999 -9999 -9999 -9999 -9999 -9999 -9999 -9999 -9999 -9999 -9999 -9999 -9999 -9999 -9999 -9999 -9999 -9999 -9999 -9999 -9999 -9999 -9999 -9999 -9999 -9999 -9999 -9999 -9999 -9999 -9999 -9999 -9999 948.8904 947.1146 944.87 942.2986 939.5511 936.9279 934.9398 933.8701 933.4139 933.1008 932.9238 932.9415 932.9618 932.6188 931.5671 929.6959 927.5029 925.5206 924.0143 922.9305 922.2492 922.3476 921.917 921.4728 921.0951 920.7944 920.5842 920.4319 920.2734 920.0819 919.9542 919.7819 919.6312 919.4817 919.3019 919.1239 918.9563 918.8029 918.6836 918.6085 918.5702 918.5598 918.5794 918.6337 918.7137 918.8019 918.8885 918.9664 919.0221 919.036 919.0013 918.9301 918.8446 918.7599 918.6726 918.5779 918.4757 918.3702 918.2651 918.1611 918.0586 917.9585 917.8604 917.7611 917.6591 917.5551 917.4511 917.3497 917.2514 917.1591 917.0756 917.0042 916.9456 916.8988 916.8631 916.8384 916.8246 916.8216 916.8293 916.8501 916.8862 916.9359 916.994 917.0549 917.116 917.1779 917.2439 917.3223 917.4208 917.5392 917.6734 917.8164 917.9611 918.0997 918.217 918.3059 918.3711 918.42 918.4645 918.5041 918.5292 918.5654 918.6525 918.7076 918.7595 918.7599 918.7799 918.8551 919.088 919.5587 920.3465 921.5635 923.2858 925.2794 927.2584 929.0093 930.5984 932.054 933.3044 934.3491 935.2886 936.146 936.7954 937.1324 937.0568 936.5065 936.1405 936.5198 937.3192 938.0483 938.3969 938.9879 939.7671 940.905 942.3409 944.0713 946.0955 948.4038 951.0458 953.9788 957.0626 -9999 -9999 -9999 -9999 -9999 -9999 -9999 -9999 -9999 -9999 -9999 -9999 -9999 -9999 -9999 -9999 -9999 -9999 -9999 -9999 -9999 -9999 -9999 -9999 -9999 -9999 -9999 -9999 -9999 -9999 -9999 -9999 -9999 -9999 -9999 -9999 -9999 -9999 -9999 -9999 -9999 -9999 -9999 -9999 -9999 -9999 -9999 -9999 -9999 -9999 -9999 -9999 -9999 -9999 -9999 -9999 -9999 -9999 -9999 -9999 -9999 -9999 -9999 -9999 -9999 -9999 -9999 -9999 -9999 -9999 -9999 -9999 -9999 -9999 -9999 -9999 -9999 -9999 -9999 -9999 -9999 -9999 -9999 -9999 -9999
-9999 -9999 -9999 -9999 -9999 -9999 -9999 -9999 -9999 -9999 -9999 -9999 -9999 -9999 -9999 -9999 -9999 -9999 -9999 -9999 -9999 -9999 -9999 -9999 -9999 -9999 -9999 -9999 -9999 -9999 -9999 -9999 -9999 -9999 -9999 -9999 -9999 -9999 -9999 -9999 -9999 -9999 -9999 -9999 -9999 -9999 -9999 -9999 -9999 -9999 -9999 -9999 -9999 945.7668 943.8928 941.7515 939.4579 937.0958 935.1367 934.0352 933.6395 933.4199 933.2981 933.2792 933.2539 932.9645 932.1392 930.5918 928.6563 926.7573 925.1672 923.9243 922.9891 922.3443 921.9526 921.6071 921.3 921.014 920.8097 920.6636 920.5034 920.3074 920.2454 920.0433 919.9207 919.8039 919.6053 919.4247 919.2585 919.09 918.959 918.8801 918.8329 918.7992 918.79 918.8184 918.8777 918.9503 919.0278 919.1011 919.1536 919.1589 919.109 919.022 918.9261 918.8397 918.7598 918.6711 918.5717 918.4646 918.3555 918.2477 918.1414 918.0372 917.9354 917.834 917.7303 917.624 917.517 917.4108 917.3069 917.2062 917.1119 917.0278 916.9568 916.8993 916.8552 916.8243 916.8058 916.798 916.7995 916.8108 916.8348 916.8737 916.9254 916.9848 917.0483 917.1124 917.1782 917.2515 917.3395 917.4463 917.5698 917.7043 917.8437 917.9788 918.0972 918.1874 918.2512 918.2985 918.3395 918.376 918.4074 918.452 918.5239 918.595 918.6608 918.7059 918.7589 918.7597 918.8469 919.077 919.5251 920.304 921.4851 923.1208 924.9932 926.8423 928.6332 930.2614 931.6625 932.7783 933.791 934.621 935.2177 935.5536 935.6143 935.4534 935.4362 935.8408 936.3959 936.8833 937.1345 937.3401 938.0173 939.1266 940.6026 942.3887 944.4345 946.7004 949.2076 951.9697 954.9083 957.9088 960.8302 -9999 -9999 -9999 -9999 -9999 -9999 -9999 -9999 -9999 -9999 -9999 -9999 -9999 -9999 -9999 -9999 -9999 -9999 -9999 -9999 -9999 -9999 -9999 -9999 -9999 -9999 -9999 -9999 -9999 -9999 -9999 -9999 -9999 -9999 -9999 -9999 -9999 -9999 -9999 -9999 -9999 -9999 -9999 -9999 -9999 -9999 -9999 -9999 -9999 -9999 -9999 -9999 -9999 -9999 -9999 -9999 -9999 -9999 -9999 -9999 -9999 -9999 -9999 -9999 -9999 -9999 -9999 -9999 -9999 -9999 -9999 -9999 -9999 -9999 -9999 -9999 -9999 -9999 -9999 -9999 -9999 -9999 -9999
-9999 -9999 -9999 -9999 -9999 -9999 -9999 -9999 -9999 -9999 -9999 -9999 -9999 -9999 -9999 -9999 -9999 -9999 -9999 -9999 -9999 -9999 -9999 -9999 -9999 -9999 -9999 -9999 -9999 -9999 -9999 -9999 -9999 -9999 -9999 -9999 -9999 -9999 -9999 -9999 -9999 -9999 -9999 -9999 -9999 -9999 -9999 -9999 -9999 -9999 -9999 -9999 -9999 944.4135 942.7468 940.9473 939.056 937.0499 935.2921 934.2856 933.8948 933.6055 933.5043 933.4991 933.465 933.2063 932.5211 931.3059 929.7211 928.0386 926.4688 925.1168 924.0648 923.3141 922.7983 922.2226 921.8613 921.4863 921.2476 921.1028 920.9429 920.7123 920.5447 920.3416 920.2869 920.2156 919.9658 919.8026 919.6598 919.4639 919.3187 919.2422 919.1862 919.1093 919.0493 919.0355 919.0634 919.1135 919.1777 919.2428 919.2873 919.2779 919.2064 919.0994 918.9923 918.9063 918.8351 918.7598 918.6681 918.5634 918.4522 918.3408 918.2321 918.1254 918.0209 917.9174 917.8124 917.7046 917.5948 917.4851 917.3762 917.2698 917.1674 917.0723 916.9887 916.9192 916.8645 916.8254 916.8012 916.7899 916.7886 916.7952 916.8113 916.8405 916.8839 916.9392 917.0018 917.0673 917.1322 917.2005 917.2799 917.3734 917.4823 917.6041 917.7321 917.8586 917.9736 918.0641 918.1277 918.1731 918.212 918.2477 918.2811 918.3197 918.3732 918.4373 918.5067 918.5739 918.6403 918.6812 918.758 918.8575 919.0455 919.4869 920.2192 921.3309 922.8544 924.595 926.4722 928.2599 929.8535 931.1478 932.2787 933.175 933.7791 934.1462 934.3282 934.3801 934.5317 934.8879 935.3287 935.7302 935.9996 936.0715 936.4117 937.2552 938.5549 940.2775 942.2725 944.4927 946.8854 949.4773 952.2609 955.1102 957.846 960.2839 -9999 -9999 -9999 -9999 -9999 -9999 -9999 -9999 -9999 -9999 -9999 -9999 -9999 -9999 -9999 -9999 -9999 -9999 -9999 -9999 -9999 -9999 -9999 -9999 -9999 -9999 -9999 -9999 -9999 -9999 -9999 -9999 -9999 -9999 -9999 -9999 -9999 -9999 -9999 -9999 -9999 -9999 -9999 -9999 -9999 -9999 -9999 -9999 -9999 -9999 -9999 -9999 -9999 -9999 -9999 -9999 -9999 -9999 -9999 -9999 -9999 -9999 -9999 -9999 -9999 -9999 -9999 -9999 -9999 -9999 -9999 -9999 -9999 -9999 -9999 -9999 -9999 -9999 -9999 -9999 -9999 -9999
-9999 -9999 -9999 -9999 -9999 -9999 -9999 -9999 -9999 -9999 -9999 -9999 -9999 -9999 -9999 -9999 -9999 -9999 -9999 -9999 -9999 -9999 -9999 -9999 -9999 -9999 -9999 -9999 -9999 -9999 -9999 -9999 -9999 -9999 -9999 -9999 -9999 -9999 -9999 -9999 -9999 -9999 -9999 -9999 -9999 -9999 -9999 -9999 -9999 -9999 -9999 -9999 -9999 -9999 941.6609 940.1277 938.553 936.8378 935.3048 934.4097 933.9539 933.5896 933.5225 933.5956 933.6129 933.4276 932.9249 932.0541 930.7836 929.3314 927.8506 926.4785 925.3561 924.5978 923.9449 923.3777 922.917 922.3137 921.9975 921.8203 921.6329 921.3148 921.1055 920.9459 920.827 920.6237 920.36 920.2749 920.1857 919.9316 919.7684 919.7031 919.6381 919.4818 919.3428 919.2721 919.2587 919.2799 919.3253 919.3776 919.4083 919.3768 919.2793 919.1526 919.0378 918.957 918.899 918.8378 918.7598 918.6617 918.5516 918.4382 918.3274 918.2203 918.1154 918.0114 917.9059 917.7972 917.6853 917.572 917.459 917.3477 917.2395 917.1364 917.0425 916.9614 916.8957 916.8467 916.8147 916.7983 916.7947 916.7996 916.8119 916.8339 916.8682 916.9159 916.9739 917.0377 917.1007 917.1635 917.2335 917.3159 917.4105 917.5167 917.6302 917.7437 917.8485 917.9352 917.9974 918.0415 918.0788 918.1138 918.1467 918.1756 918.2084 918.2549 918.3167 918.3933 918.4824 918.5649 918.6547 918.7528 918.7693 918.9952 919.3694 920.0594 921.0874 922.5033 924.2359 926.0542 927.7688 929.2653 930.562 931.6242 932.3187 932.7684 933.0641 933.2249 933.4714 933.8113 934.2108 934.5856 934.8729 935.0259 935.2734 935.777 936.6328 938.1385 939.9145 941.9721 944.2043 946.6454 949.3139 952.0587 954.6608 956.9049 958.7197 960.1324 -9999 -9999 -9999 -9999 -9999 -9999 -9999 -9999 -9999 -9999 -9999 -9999 -9999 -9999 -9999 -9999 -9999 -9999 -9999 -9999 -9999 -9999 -9999 -9999 -9999 -9999 -9999 -9999 -9999 -9999 -9999 -9999 -9999 -9999 -9999 -9999 -9999 -9999 -9999 -9999 -9999 -9999 -9999 -9999 -9999 -9999 -9999 -9999 -9999 -9999 -9999 -9999 -9999 -9999 -9999 -9999 -9999 -9999 -9999 -9999 -9999 -9999 -9999 -9999 -9999 -9999 -9999 -9999 -9999 -9999 -9999 -9999 -9999 -9999 -9999 -9999 -9999 -9999 -9999 -9999
-9999 -9999 -9999 -9999 -9999 -9999 -9999 -9999 -9999 -9999 -9999 -9999 -9999 -9999 -9999 -9999 -9999 -9999 -9999 -9999 -9999 -9999 -9999 -9999 -9999 -9999 -9999 -9999 -9999 -9999 -9999 -9999 -9999 -9999 -9999 -9999 -9999 -9999 -9999 -9999 -9999 -9999 -9999 -9999 -9999 -9999 -9999 -9999 -9999 -9999 -9999 -9999 -9999 -9999 -9999 939.4238 938.053 936.5528 935.2421 934.4714 933.9635 933.575 933.4987 933.633 933.713 933.6042 933.2344 932.5701 931.6393 930.4749 929.1684 927.8831 926.7757 926.0022 925.2673 924.7431 924.2365 923.595 923.1983 922.837 922.4746 922.1146 921.9352 921.8006 921.6221 921.2872 921.037 920.9342 920.8064 920.5198 920.3397 920.269 920.1779 919.8902 919.6515 919.5222 919.4602 919.446 919.4642 919.4961 919.5054 919.4451 919.3189 919.1783 919.065 918.9969 918.9581 918.9141 918.8478 918.7598 918.6526 918.5384 918.4262 918.3196 918.2169 918.1151 918.011 917.9026 917.7893 917.6726 917.5554 917.4392 917.3259 917.217 917.1154 917.0251 916.9493 916.8904 916.8495 916.8264 916.8188 916.8226 916.8339 916.8518 916.8781 916.9157 916.9648 917.022 917.0812 917.137 917.1964 917.2672 917.3494 917.4413 917.5392 917.6376 917.7285 917.8044 917.8617 917.9032 917.9392 917.9736 918.0079 918.0288 918.0421 918.0657 918.1116 918.1851 918.2879 918.3948 918.4868 918.5673 918.6108 918.7346 918.8159 919.2073 919.8363 920.8463 922.1755 923.7905 925.4456 927.028 928.4643 929.6831 930.5796 931.2118 931.6863 931.9689 932.2547 932.6205 933.0647 933.496 933.8861 934.1756 934.449 934.8262 935.4945 936.6277 937.9967 939.5624 941.4506 943.7183 946.2989 948.9825 951.5276 953.7057 955.4468 956.7617 -9999 -9999 -9999 -9999 -9999 -9999 -9999 -9999 -9999 -9999 -9999 -9999 -9999 -9999 -9999 -9999 -9999 -9999 -9999 -9999 -9999 -9999 -9999 -9999 -9999 -9999 -9999 -9999 -9999 -9999 -9999 -9999 -9999 -9999 -9999 -9999 -9999 -9999 -9999 -9999 -9999 -9999 -9999 -9999 -9999 -9999 -9999 -9999 -9999 -9999 -9999 -9999 -9999 -9999 -9999 -9999 -9999 -9999 -9999 -9999 -9999 -9999 -9999 -9999 -9999 -9999 -9999 -9999 -9999 -9999 -9999 -9999 -9999 -9999 -9999 -9999 -9999 -9999 -9999 -9999
-9999 -9999 -9999 -9999 -9999 -9999 -9999 -9999 -9999 -9999 -9999 -9999 -9999 -9999 -9999 -9999 -9999 -9999 -9999 -9999 -9999 -9999 -9999 -9999 -9999 -9999 -9999 -9999 -9999 -9999 -9999 -9999 -9999 -9999 -9999 -9999 -9999 -9999 -9999 -9999 -9999 -9999 -9999 -9999 -9999 -9999 -9999 -9999 -9999 -9999 -9999 -9999 -9999 -9999 -9999 938.8777 937.6055 936.3004 935.2178 934.5801 933.9932 933.6251 933.5801 933.7512 933.8124 933.7456 933.4943 933.0303 932.3377 931.3624 930.2828 929.1829 928.1613 927.4012 926.665 926.1255 925.5402 924.995 924.5966 924.1134 923.6457 923.3489 923.168 922.9296 922.6107 922.1894 921.9777 921.908 921.8088 921.5425 921.1891 920.9343 920.6548 920.2885 919.9747 919.8097 919.6864 919.6266 919.603 919.6021 919.5784 919.4825 919.3267 919.1796 919.0809 919.0355 919.0219 918.9991 918.9457 918.8638 918.76 918.6432 918.5287 918.4225 918.3237 918.2278 918.1278 918.0214 917.9075 917.788 917.6664 917.5452 917.4266 917.3121 917.2039 917.1061 917.0221 916.9548 916.9058 916.8752 916.8625 916.8641 916.8749 916.8914 916.912 916.9393 916.9763 917.0222 917.0728 917.1211 917.1688 917.2252 917.2949 917.3735 917.4576 917.5414 917.6183 917.6801 917.7262 917.7614 917.7961 917.8342 917.8687 917.8853 917.8839 917.8855 917.9104 917.9701 918.0728 918.1916 918.2914 918.3733 918.4294 918.4723 918.4851 918.664 918.9187 919.5646 920.4758 921.6997 923.1359 924.6771 926.1481 927.4411 928.4796 929.2302 929.8517 930.2546 930.6752 931.198 931.8154 932.4057 932.996 933.4677 933.8347 934.2009 934.7628 935.629 936.6266 937.715 939.0671 941.1114 943.5151 946.0753 948.5768 950.8159 952.6889 954.0963 954.9577 -9999 -9999 -9999 -9999 -9999 -9999 -9999 -9999 -9999 -9999 -9999 -9999 -9999 -9999 -9999 -9999 -9999 -9999 -9999 -9999 -9999 -9999 -9999 -9999 -9999 -9999 -9999 -9999 -9999 -9999 -9999 -9999 -9999 -9999 -9999 -9999 -9999 -9999 -9999 -9999 -9999 -9999 -9999 -9999 -9999 -9999 -9999 -9999 -9999 -9999 -9999 -9999 -9999 -9999 -9999 -9999 -9999 -9999 -9999 -9999 -9999 -9999 -9999 -9999 -9999 -9999 -9999 -9999 -9999 -9999 -9999 -9999 -9999 -9999 -9999 -9999 -9999 -9999 -9999
-9999 -9999 -9999 -9999 -9999 -9999 -9999 -9999 -9999 -9999 -9999 -9999 -9999 -9999 -9999 -9999 -9999 -9999 -9999 -9999 -9999 -9999 -9999 -9999 -9999 -9999 -9999 -9999 -9999 -9999 -9999 -9999 -9999 -9999 -9999 -9999 -9999 -9999 -9999 -9999 -9999 -9999 -9999 -9999 -9999 -9999 -9999 -9999 -9999 -9999 -9999 -9999 -9999 -9999 -9999 938.5522 937.2062 936.0773 935.2463 934.7813 934.0568 933.7681 933.7841 933.9554 933.9607 933.8856 933.705 933.3925 932.9076 932.207 931.2712 930.302 929.3892 928.6356 927.9897 927.446 926.8248 926.4017 926.0554 925.5571 925.0864 924.8281 924.6428 924.3411 923.9594 923.5269 923.325 923.2545 923.1206 922.7415 922.22 921.8102 921.3306 920.857 920.4182 920.2172 919.9843 919.8642 919.7704 919.7198 919.6458 919.5063 919.3201 919.17 919.0961 919.0828 919.0994 919.1035 919.067 918.9915 918.8864 918.7606 918.638 918.5297 918.4353 918.3489 918.256 918.153 918.0394 917.9177 917.7924 917.6665 917.5424 917.4218 917.3068 917.2012 917.1095 917.0345 916.9786 916.9419 916.924 916.9224 916.9324 916.9484 916.9658 916.9843 917.0079 917.0396 917.0776 917.1159 917.1514 917.192 917.2458 917.3116 917.3828 917.4543 917.5179 917.567 917.5983 917.6212 917.6486 917.6857 917.722 917.7407 917.7352 917.7222 917.7275 917.7678 917.8577 917.9797 918.0881 918.184 918.2578 918.2644 918.2063 918.1994 918.3109 918.6674 919.1747 920.0389 921.1401 922.4764 923.8699 925.1986 926.3132 927.1588 927.8762 928.3519 928.8334 929.4451 930.2645 931.1816 932.1047 932.8183 933.3353 933.7628 934.2994 935.0208 935.7827 936.5981 937.6989 939.3561 941.3633 943.5189 945.8214 948.1083 950.2297 951.9345 952.9735 953.268 -9999 -9999 -9999 -9999 -9999 -9999 -9999 -9999 -9999 -9999 -9999 -9999 -9999 -9999 -9999 -9999 -9999 -9999 -9999 -9999 -9999 -9999 -9999 -9999 -9999 -9999 -9999 -9999 -9999 -9999 -9999 -9999 -9999 -9999 -9999 -9999 -9999 -9999 -9999 -9999 -9999 -9999 -9999 -9999 -9999 -9999 -9999 -9999 -9999 -9999 -9999 -9999 -9999 -9999 -9999 -9999 -9999 -9999 -9999 -9999 -9999 -9999 -9999 -9999 -9999 -9999 -9999 -9999 -9999 -9999 -9999 -9999 -9999 -9999 -9999 -9999 -9999 -9999
-9999 -9999 -9999 -9999 -9999 -9999 -9999 -9999 -9999 -9999 -9999 -9999 -9999 -9999 -9999 -9999 -9999 -9999 -9999 -9999 -9999 -9999 -9999 -9999 -9999 -9999 -9999 -9999 -9999 -9999 -9999 -9999 -9999 -9999 -9999 -9999 -9999 -9999 -9999 -9999 -9999 -9999 -9999 -9999 -9999 -9999 -9999 -9999 -9999 -9999 -9999 -9999 -9999 -9999 -9999 938.6878 937.1942 935.9937 935.1647 934.6968 934.0634 934.0061 934.1304 934.2489 934.1638 934.038 933.8755 933.6542 933.318 932.8286 932.1594 931.2806 930.4446 929.7383 929.186 928.634 928.1121 927.747 927.4417 927.0056 926.6008 926.3983 926.2513 925.9792 925.5234 925.0706 924.8618 924.7836 924.6304 924.2018 923.5881 923.0214 922.3156 921.7595 921.1987 920.8012 920.4166 920.2339 920.0184 919.902 919.751 919.5558 919.3364 919.1802 919.1273 919.1489 919.1998 919.2361 919.2219 919.1537 919.0452 918.9082 918.7611 918.6422 918.5499 918.4789 918.3942 918.2965 918.183 918.0593 917.9316 917.8027 917.6741 917.547 917.4242 917.3097 917.2089 917.1255 917.0621 917.0198 916.9977 916.9936 917.0029 917.0186 917.0333 917.0447 917.0558 917.0723 917.0955 917.1211 917.1445 917.1688 917.2047 917.2555 917.3143 917.3742 917.4274 917.4644 917.4827 917.4894 917.5015 917.5296 917.5643 917.5879 917.5883 917.5732 917.5679 917.5896 917.6601 917.7743 917.8903 917.9994 918.0981 918.1089 918.0144 917.9022 917.926 918.118 918.4131 918.9208 919.6824 920.6487 921.8293 923.1364 924.2937 925.2579 926.0828 926.6484 927.1653 927.8752 928.7491 929.8764 931.0464 932.0901 932.8295 933.3931 933.97 934.6292 935.2513 935.903 936.8269 938.1813 939.7896 941.4472 943.2534 945.3911 947.7326 949.842 951.2894 951.819 952.184 -9999 -9999 -9999 -9999 -9999 -9999 -9999 -9999 -9999 -9999 -9999 -9999 -9999 -9999 -9999 -9999 -9999 -9999 -9999 -9999 -9999 -9999 -9999 -9999 -9999 -9999 -9999 -9999 -9999 -9999 -9999 -9999 -9999 -9999 -9999 -9999 -9999 -9999 -9999 -9999 -9999 -9999 -9999 -9999 -9999 -9999 -9999 -9999 -9999 -9999 -9999 -9999 -9999 -9999 -9999 -9999 -9999 -9999 -9999 -9999 -9999 -9999 -9999 -9999 -9999 -9999 -9999 -9999 -9999 -9999 -9999 -9999 -9999 -9999 -9999 -9999 -9999
-9999 -9999 -9999 -9999 -9999 -9999 -9999 -9999 -9999 -9999 -9999 -9999 -9999 -9999 -9999 -9999 -9999 -9999 -9999 -9999 -9999 -9999 -9999 -9999 -9999 -9999 -9999 -9999 -9999 -9999 -9999 -9999 -9999 -9999 -9999 -9999 -9999 -9999 -9999 -9999 -9999 -9999 -9999 -9999 -9999 -9999 -9999 -9999 -9999 -9999 -9999 -9999 -9999 -9999 -9999 939.4536 937.6788 936.1476 935.0013 934.3432 934.2142 934.4366 934.6372 934.6288 934.4067 934.2018 934.0183 933.8303 933.5828 933.2319 932.7603 932.1495 931.393 930.7963 930.2333 929.7399 929.3336 928.895 928.5894 928.3099 928.0719 927.9609 927.8633 927.6223 927.1437 926.668 926.4507 926.3746 926.2354 925.8329 925.1425 924.4796 923.6727 923.0081 922.2767 921.7546 921.2267 920.8208 920.4233 920.2374 919.965 919.6962 919.4402 919.2623 919.2083 919.2493 919.334 919.4074 919.4178 919.3527 919.2322 919.0771 918.9045 918.7601 918.6617 918.6168 918.5378 918.4489 918.335 918.2083 918.0803 917.9515 917.8208 917.6882 917.557 917.4324 917.3203 917.2257 917.1522 917.1021 917.0754 917.07 917.0806 917.097 917.108 917.1117 917.1117 917.1146 917.1232 917.1359 917.1465 917.1556 917.173 917.207 917.2531 917.3016 917.3444 917.3721 917.3785 917.3705 917.3649 917.3757 917.3998 917.4236 917.4333 917.4273 917.4237 917.4365 917.4873 917.5857 917.7017 917.8182 917.9391 917.98 917.8933 917.7512 917.7331 917.8636 918.0467 918.3342 918.7957 919.4066 920.2493 921.2944 922.3981 923.4817 924.4833 925.2712 925.913 926.6253 927.5054 928.5733 929.845 931.0897 932.1492 932.9343 933.6248 934.2789 934.8281 935.3993 936.2379 937.4175 938.696 939.7791 940.9962 942.6738 945.0671 947.5676 949.5901 950.7245 951.3943 -9999 -9999 -9999 -9999 -9999 -9999 -9999 -9999 -9999 -9999 -9999 -9999 -9999 -9999 -9999 -9999 -9999 -9999 -9999 -9999 -9999 -9999 -9999 -9999 -9999 -9999 -9999 -9999 -9999 -9999 -9999 -9999 -9999 -9999 -9999 -9999 -9999 -9999 -9999 -9999 -9999 -9999 -9999 -9999 -9999 -9999 -9999 -9999 -9999 -9999 -9999 -9999 -9999 -9999 -9999 -9999 -9999 -9999 -9999 -9999 -9999 -9999 -9999 -9999 -9999 -9999 -9999 -9999 -9999 -9999 -9999 -9999 -9999 -9999 -9999 -9999 -9999
-9999 -9999 -9999 -9999 -9999 -9999 -9999 -9999 -9999 -9999 -9999 -9999 -9999 -9999 -9999 -9999 -9999 -9999 -9999 -9999 -9999 -9999 -9999 -9999 -9999 -9999 -9999 -9999 -9999 -9999 -9999 -9999 -9999 -9999 -9999 -9999 -9999 -9999 -9999 -9999 -9999 -9999 -9999 -9999 -9999 -9999 -9999 -9999 -9999 -9999 -9999 -9999 -9999 -9999 942.8602 940.8151 938.7242 936.7994 935.2461 934.3448 934.6832 935.1429 935.2824 934.9939 934.6398 934.3624 934.1431 933.9485 933.7415 933.4749 933.1213 932.6932 932.2455 931.7034 931.1746 930.8366 930.4728 929.9263 929.6706 929.5578 929.493 929.4667 929.4094 929.1957 928.7238 928.2458 928.028 927.9489 927.7991 927.3812 926.6804 926.0024 925.181 924.4748 923.6739 923.0494 922.3553 921.7875 921.2217 920.819 920.3849 920.0259 919.7313 919.4937 919.3931 919.4141 919.5194 919.634 919.661 919.5807 919.4265 919.2319 919.0393 918.8755 918.7624 918.7573 918.6705 918.6044 918.489 918.3588 918.2348 918.1102 917.9811 917.8448 917.7052 917.5696 917.4448 917.3359 917.2477 917.1846 917.1492 917.1416 917.1561 917.1757 917.1814 917.1747 917.1654 917.158 917.1552 917.1556 917.1548 917.1497 917.1506 917.168 917.2008 917.2377 917.2694 917.2874 917.2846 917.2648 917.2442 917.2379 917.2425 917.2561 917.2686 917.2738 917.2813 917.2974 917.3354 917.4168 917.523 917.637 917.7664 917.844 917.7974 917.6816 917.6473 917.7733 917.916 918.1021 918.4448 918.9335 919.201 919.8784 920.7598 921.8151 922.9971 924.0702 924.8555 925.63 926.4734 927.4446 928.5788 929.8835 931.1325 932.2167 933.1017 933.825 934.3775 934.9413 935.7841 936.8988 937.9316 938.3802 938.9816 940.0992 942.3414 945.0984 947.7621 949.839 951.2528 952.429 -9999 -9999 -9999 -9999 -9999 -9999 -9999 -9999 -9999 -9999 -9999 -9999 -9999 -9999 -9999 -9999 -9999 -9999 -9999 -9999 -9999 -9999 -9999 -9999 -9999 -9999 -9999 -9999 -9999 -9999 -9999 -9999 -9999 -9999 -9999 -9999 -9999 -9999 -9999 -9999 -9999 -9999 -9999 -9999 -9999 -9999 -9999 -9999 -9999 -9999 -9999 -9999 -9999 -9999 -9999 -9999 -9999 -9999 -9999 -9999 -9999 -9999 -9999 -9999 -9999 -9999 -9999 -9999 -9999 -9999 -9999 -9999 -9999 -9999 -9999 -9999
-9999 -9999 -9999 -9999 -9999 -9999 -9999 -9999 -9999 -9999 -9999 -9999 -9999 -9999 -9999 -9999 -9999 -9999 -9999 -9999 -9999 -9999 -9999 -9999 -9999 -9999 -9999 -9999 -9999 -9999 -9999 -9999 -9999 -9999 -9999 -9999 -9999 -9999 -9999 -9999 -9999 -9999 -9999 -9999 -9999 -9999 -9999 -9999 -9999 -9999 -9999 -9999 -9999 -9999 944.6901 942.5211 940.256 938.0927 936.3073 935.3283 935.7524 936.056 935.7777 935.3138 934.8738 934.5401 934.2754 934.0474 933.8586 933.6567 933.3637 933.0039 932.7422 932.3965 931.9861 931.7123 931.3704 930.9901 930.8328 930.7949 930.7947 930.8018 930.7665 930.5906 930.1748 929.7486 929.5434 929.4472 929.2416 928.7318 928.0952 927.4534 926.6801 925.9936 925.1893 924.537 923.8019 923.0661 922.2957 921.7708 921.2271 920.7013 920.3512 919.9716 919.7509 919.6843 919.7782 919.9387 919.9516 919.8163 919.5979 919.3735 919.173 919.0086 918.8943 918.8397 918.7629 918.7561 918.635 918.502 918.3931 918.277 918.1539 918.0156 917.8678 917.7213 917.5833 917.4581 917.3504 917.2665 917.2134 917.1968 917.2151 917.2399 917.2399 917.2219 917.2064 917.1943 917.1849 917.1772 917.1658 917.1493 917.1364 917.139 917.1575 917.1821 917.2023 917.2096 917.1976 917.1689 917.1372 917.1169 917.1033 917.1019 917.1072 917.1158 917.132 917.1583 917.1938 917.2622 917.356 917.4565 917.5734 917.6752 917.6791 917.6138 917.5846 917.7059 917.838 917.9591 918.187 918.5101 918.616 918.9465 919.6249 920.5656 921.6841 922.8642 923.8243 924.7171 925.5737 926.4596 927.4535 928.5983 929.9 931.1587 932.2865 933.1725 933.8197 934.442 935.3047 936.3093 936.8625 937.0562 937.3462 938.1161 939.7949 942.497 945.5944 948.4221 950.5756 951.9195 952.6362 -9999 -9999 -9999 -9999 -9999 -9999 -9999 -9999 -9999 -9999 -9999 -9999 -9999 -9999 -9999 -9999 -9999 -9999 -9999 -9999 -9999 -9999 -9999 -9999 -9999 -9999 -9999 -9999 -9999 -9999 -9999 -9999 -9999 -9999 -9999 -9999 -9999 -9999 -9999 -9999 -9999 -9999 -9999 -9999 -9999 -9999 -9999 -9999 -9999 -9999 -9999 -9999 -9999 -9999 -9999 -9999 -9999 -9999 -9999 -9999 -9999 -9999 -9999 -9999 -9999 -9999 -9999 -9999 -9999 -9999 -9999 -9999 -9999 -9999 -9999
-9999 -9999 -9999 -9999 -9999 -9999 -9999 -9999 -9999 -9999 -9999 -9999 -9999 -9999 -9999 -9999 -9999 -9999 -9999 -9999 -9999 -9999 -9999 -9999 -9999 -9999 -9999 -9999 -9999 -9999 -9999 -9999 -9999 -9999 -9999 -9999 -9999 -9999 -9999 -9999 -9999 -9999 -9999 -9999 -9999 -9999 -9999 -9999 -9999 -9999 -9999 -9999 -9999 -9999 946.5953 944.3674 942.0499 939.8091 937.8848 936.7065 936.9656 936.5144 936.1146 935.6298 935.1399 934.7505 934.4139 934.127 933.9998 933.9034 933.6874 933.4147 933.1403 932.8259 932.5165 932.3677 932.0668 931.8362 931.7427 931.7278 931.7429 931.7579 931.7364 931.6298 931.3898 931.0983 930.9005 930.7722 930.5106 929.9213 929.3762 928.7365 928.0735 927.4276 926.6409 925.9572 925.1862 924.4122 923.5959 923.0054 922.4307 921.8931 921.4399 920.7814 920.3651 920.0989 920.1182 920.3301 920.2547 920.0015 919.7505 919.5161 919.3188 919.16 919.0485 918.9808 918.9206 918.874 918.7596 918.6309 918.5599 918.451 918.3396 918.1994 918.043 917.887 917.7369 917.5953 917.4648 917.3522 917.2683 917.2269 917.24 917.2535 917.2532 917.24 917.2284 917.2191 917.2088 917.1973 917.1785 917.1528 917.1301 917.1199 917.1238 917.1337 917.1411 917.1375 917.1161 917.079 917.0392 917.0104 916.9843 916.9704 916.9654 916.9677 916.9838 917.0153 917.0535 917.1144 917.1993 917.2805 917.3712 917.4711 917.5133 917.5006 917.4897 917.5714 917.7031 917.7875 917.925 918.1347 918.2053 918.4037 918.879 919.703 920.7788 921.8345 922.8326 923.7915 924.7141 925.5795 926.4642 927.4628 928.6091 929.9196 931.2061 932.3151 933.1378 933.879 934.7728 935.5874 935.9725 936.0399 936.1316 936.6072 937.8165 939.9792 943.113 946.2768 948.9106 950.6714 951.5261 952.0887 -9999 -9999 -9999 -9999 -9999 -9999 -9999 -9999 -9999 -9999 -9999 -9999 -9999 -9999 -9999 -9999 -9999 -9999 -9999 -9999 -9999 -9999 -9999 -9999 -9999 -9999 -9999 -9999 -9999 -9999 -9999 -9999 -9999 -9999 -9999 -9999 -9999 -9999 -9999 -9999 -9999 -9999 -9999 -9999 -9999 -9999 -9999 -9999 -9999 -9999 -9999 -9999 -9999 -9999 -9999 -9999 -9999 -9999 -9999 -9999 -9999 -9999 -9999 -9999 -9999 -9999 -9999 -9999 -9999 -9999 -9999 -9999 -9999 -9999
-9999 -9999 -9999 -9999 -9999 -9999 -9999 -9999 -9999 -9999 -9999 -9999 -9999 -9999 -9999 -9999 -9999 -9999 -9999 -9999 -9999 -9999 -9999 -9999 -9999 -9999 -9999 -9999 -9999 -9999 -9999 -9999 -9999 -9999 -9999 -9999 -9999 -9999 -9999 -9999 -9999 -9999 -9999 -9999 -9999 -9999 -9999 -9999 -9999 -9999 -9999 -9999 -9999 -9999 -9999 946.2521 943.93 941.677 939.6407 938.0252 937.2425 936.535 936.4545 935.9917 935.3974 934.8517 934.4487 934.2216 934.2299 934.287 934.1384 933.8385 933.4811 933.1268 932.8335 932.6573 932.4924 932.4562 932.4738 932.5101 932.5398 932.5439 932.514 932.4614 932.3702 932.2012 931.9351 931.7525 931.4924 931.0182 930.5491 929.8974 929.3452 928.6777 927.9373 927.1857 926.4178 925.6225 924.8516 924.179 923.626 923.1432 922.6745 921.9587 921.3458 920.7197 920.5421 920.7494 920.4056 920.1265 919.9245 919.6996 919.5098 919.3516 919.2446 919.1826 919.131 919.0577 918.9232 918.7719 918.7512 918.6247 918.5389 918.3931 918.2269 918.0667 917.9086 917.7531 917.5997 917.4541 917.3281 917.2402 917.2323 917.2444 917.2472 917.24 917.2371 917.2335 917.2266 917.2146 917.1926 917.1619 917.1323 917.1102 917.097 917.0908 917.0837 917.0691 917.0392 916.994 916.9456 916.9072 916.8796 916.8619 916.8501 916.8434 916.8506 916.8779 916.9156 916.9701 917.0499 917.1172 917.1741 917.2501 917.3165 917.3358 917.3525 917.3847 917.4878 917.5598 917.6572 917.8096 917.8777 918.0432 918.4306 919.1306 920.2283 921.2025 921.8241 922.8264 923.8068 924.7282 925.5856 926.4749 927.4926 928.671 930.0282 931.3109 932.3804 933.3383 934.3276 935.1385 935.5057 935.496 935.4125 935.5864 936.3364 937.9075 940.5989 943.6541 946.467 948.5847 949.8642 950.8456 952.3818 -9999 -9999 -9999 -9999 -9999 -9999 -9999 -9999 -9999 -9999 -9999 -9999 -9999 -9999 -9999 -9999 -9999 -9999 -9999 -9999 -9999 -9999 -9999 -9999 -9999 -9999 -9999 -9999 -9999 -9999 -9999 -9999 -9999 -9999 -9999 -9999 -9999 -9999 -9999 -9999 -9999 -9999 -9999 -9999 -9999 -9999 -9999 -9999 -9999 -9999 -9999 -9999 -9999 -9999 -9999 -9999 -9999 -9999 -9999 -9999 -9999 -9999 -9999 -9999 -9999 -9999 -9999 -9999 -9999 -9999 -9999 -9999 -9999
-9999 -9999 -9999 -9999 -9999 -9999 -9999 -9999 -9999 -9999 -9999 -9999 -9999 -9999 -9999 -9999 -9999 -9999 -9999 -9999 -9999 -9999 -9999 -9999 -9999 -9999 -9999 -9999 -9999 -9999 -9999 -9999 -9999 -9999 -9999 -9999 -9999 -9999 -9999 -9999 -9999 -9999 -9999 -9999 -9999 -9999 -9999 -9999 -9999 -9999 -9999 -9999 -9999 -9999 -9999 948.2089 945.8898 943.6526 941.5623 939.6525 938.0209 936.7891 937.0853 936.2109 935.571 935.0986 934.7346 934.5593 934.6545 934.8203 934.6128 934.2115 933.7451 933.3315 933.0326 932.8748 932.8422 932.9661 933.1517 933.3234 933.4261 933.4004 933.2688 933.1303 933.0352 932.9124 932.689 932.5484 932.3445 931.9272 931.5117 930.9932 930.5145 929.8124 929.1266 928.3286 927.5906 926.7633 926.0184 925.2435 924.6658 924.1134 923.6133 923.0339 922.3661 921.7313 921.3056 920.769 920.4756 920.3337 920.2377 919.9874 919.7961 919.6129 919.5048 919.4588 919.4255 919.3514 919.2049 919.041 918.9221 918.7728 918.7493 918.587 918.4114 918.262 918.1027 917.9393 917.7671 917.5925 917.4279 917.2979 917.2399 917.24 917.24 917.2367 917.2409 917.2411 917.2377 917.2295 917.2085 917.178 917.1442 917.1095 917.0762 917.0496 917.0283 917.0036 916.9672 916.9163 916.8618 916.8176 916.7891 916.7701 916.7569 916.7452 916.7422 916.7584 916.7891 916.8344 916.9084 916.9718 916.999 917.0414 917.11 917.1544 917.1786 917.2188 917.2427 917.3153 917.4058 917.5375 917.6085 917.7716 918.1352 918.7845 919.7329 920.3353 920.8287 921.7585 922.8304 923.8197 924.7372 925.6031 926.526 927.6101 928.8759 930.2255 931.4456 932.609 933.7929 934.7686 935.2849 935.3314 935.1568 935.0924 935.46 936.5026 938.3751 940.9749 943.7014 946.0839 947.9099 949.563 951.6228 954.3577 -9999 -9999 -9999 -9999 -9999 -9999 -9999 -9999 -9999 -9999 -9999 -9999 -9999 -9999 -9999 -9999 -9999 -9999 -9999 -9999 -9999 -9999 -9999 -9999 -9999 -9999 -9999 -9999 -9999 -9999 -9999 -9999 -9999 -9999 -9999 -9999 -9999 -9999 -9999 -9999 -9999 -9999 -9999 -9999 -9999 -9999 -9999 -9999 -9999 -9999 -9999 -9999 -9999 -9999 -9999 -9999 -9999 -9999 -9999 -9999 -9999 -9999 -9999 -9999 -9999 -9999 -9999 -9999 -9999 -9999 -9999 -9999
-9999 -9999 -9999 -9999 -9999 -9999 -9999 -9999 -9999 -9999 -9999 -9999 -9999 -9999 -9999 -9999 -9999 -9999 -9999 -9999 -9999 -9999 -9999 -9999 -9999 -9999 -9999 -9999 -9999 -9999 -9999 -9999 -9999 -9999 -9999 -9999 -9999 -9999 -9999 -9999 -9999 -9999 -9999 -9999 -9999 -9999 -9999 -9999 -9999 -9999 -9999 -9999 -9999 -9999 -9999 950.3347 948.003 945.7601 943.6735 941.7294 939.9014 938.4208 937.6076 936.6521 936.2189 935.8717 935.5298 935.2802 935.298 935.3829 935.0204 934.4898 933.9366 933.4911 933.2228 933.1465 933.2532 933.5411 933.905 934.2426 934.4448 934.3544 934.0872 933.8202 933.6993 933.668 933.577 933.3976 933.1104 932.7001 932.3593 931.8955 931.4578 930.8633 930.207 929.4808 928.7127 927.9135 927.0942 926.2796 925.5556 924.9111 924.38 923.876 923.2742 922.6688 922.1995 921.7099 921.4052 921.0671 920.8007 920.4297 920.228 919.9681 919.8492 919.8226 919.8138 919.7507 919.5735 919.3834 919.2025 919.0348 918.9229 918.7585 918.5872 918.4795 918.3222 918.1615 917.976 917.7794 917.577 917.3885 917.2429 917.2303 917.2295 917.2296 917.24 917.24 917.24 917.24 917.2253 917.2001 917.1638 917.115 917.0584 917.0094 916.9739 916.9426 916.9031 916.8492 916.7908 916.7416 916.709 916.6869 916.6747 916.6645 916.6567 916.6626 916.6827 916.7169 916.7804 916.8474 916.8615 916.8685 916.9165 916.985 917.011 917.0368 917.0801 917.109 917.1973 917.3184 917.3877 917.5395 917.8397 918.3265 918.9327 919.4787 919.9989 920.7303 921.7441 922.836 923.8317 924.7553 925.6492 926.6172 927.7464 928.9941 930.3132 931.6045 932.8896 934.1123 934.9417 935.2362 935.1498 934.9988 935.1112 935.7344 936.9595 938.7408 941.0943 943.5519 945.8259 948.1227 950.8046 954.0381 957.6451 -9999 -9999 -9999 -9999 -9999 -9999 -9999 -9999 -9999 -9999 -9999 -9999 -9999 -9999 -9999 -9999 -9999 -9999 -9999 -9999 -9999 -9999 -9999 -9999 -9999 -9999 -9999 -9999 -9999 -9999 -9999 -9999 -9999 -9999 -9999 -9999 -9999 -9999 -9999 -9999 -9999 -9999 -9999 -9999 -9999 -9999 -9999 -9999 -9999 -9999 -9999 -9999 -9999 -9999 -9999 -9999 -9999 -9999 -9999 -9999 -9999 -9999 -9999 -9999 -9999 -9999 -9999 -9999 -9999 -9999 -9999
-9999 -9999 -9999 -9999 -9999 -9999 -9999 -9999 -9999 -9999 -9999 -9999 -9999 -9999 -9999 -9999 -9999 -9999 -9999 -9999 -9999 -9999 -9999 -9999 -9999 -9999 -9999 -9999 -9999 -9999 -9999 -9999 -9999 -9999 -9999 -9999 -9999 -9999 -9999 -9999 -9999 -9999 -9999 -9999 -9999 -9999 -9999 -9999 -9999 -9999 -9999 -9999 -9999 -9999 -9999 -9999 950.2593 948.0091 945.9293 944.053 942.3008 940.8389 939.7616 938.8316 938.1387 937.5798 937.042 936.5056 936.2325 936.0632 935.4012 934.7241 934.1426 933.7363 933.5527 933.6252 933.9093 934.3447 934.8473 935.3297 935.6719 935.4576 935.0663 934.6855 934.5342 934.5913 934.5951 934.3351 933.9657 933.5674 933.1508 932.6561 932.2848 931.7607 931.1993 930.5887 929.7936 929.0294 928.1224 927.2311 926.4136 925.7109 925.1447 924.6928 924.1078 923.5201 923.1125 922.642 922.2903 921.9068 921.6115 921.1671 920.8224 920.4376 920.3078 920.281 920.2768 920.2232 919.9831 919.7789 919.5507 919.3476 919.1611 918.9656 918.7819 918.7386 918.5607 918.4246 918.23 918.0289 917.8073 917.5945 917.4194 917.3308 917.277 917.24 917.2234 917.2186 917.2289 917.2404 917.24 917.2235 917.1849 917.1222 917.0433 916.9738 916.9272 916.8925 916.853 916.798 916.7364 916.6812 916.6398 916.612 916.5974 916.5903 916.5846 916.5863 916.5992 916.6224 916.6729 916.744 916.767 916.7494 916.7677 916.8231 916.8688 916.8889 916.9302 916.9817 917.0581 917.1481 917.2087 917.3635 917.6141 917.9877 918.4437 918.8879 919.392 919.9696 920.7358 921.766 922.8696 923.8589 924.7869 925.7058 926.6917 927.818 929.0715 930.4459 931.7688 933.0533 934.1772 934.8781 935.1039 935.0829 935.1326 935.5196 936.3406 937.549 939.1415 941.3463 943.7494 946.4418 949.6084 953.2863 957.2478 961.0588 -9999 -9999 -9999 -9999 -9999 -9999 -9999 -9999 -9999 -9999 -9999 -9999 -9999 -9999 -9999 -9999 -9999 -9999 -9999 -9999 -9999 -9999 -9999 -9999 -9999 -9999 -9999 -9999 -9999 -9999 -9999 -9999 -9999 -9999 -9999 -9999 -9999 -9999 -9999 -9999 -9999 -9999 -9999 -9999 -9999 -9999 -9999 -9999 -9999 -9999 -9999 -9999 -9999 -9999 -9999 -9999 -9999 -9999 -9999 -9999 -9999 -9999 -9999 -9999 -9999 -9999 -9999 -9999 -9999 -9999
-9999 -9999 -9999 -9999 -9999 -9999 -9999 -9999 -9999 -9999 -9999 -9999 -9999 -9999 -9999 -9999 -9999 -9999 -9999 -9999 -9999 -9999 -9999 -9999 -9999 -9999 -9999 -9999 -9999 -9999 -9999 -9999 -9999 -9999 -9999 -9999 -9999 -9999 -9999 -9999 -9999 -9999 -9999 -9999 -9999 -9999 -9999 -9999 -9999 -9999 -9999 -9999 -9999 -9999 -9999 -9999 -9999 950.3616 948.3046 946.4927 944.9135 943.639 942.6907 941.897 941.1396 940.3249 939.3406 938.2856 937.4995 936.8828 935.8444 935.0872 934.5951 934.3258 934.2834 934.5517 935.0583 935.5909 936.1119 936.6076 937.0243 936.7572 936.3523 935.9136 935.7046 935.7866 935.8083 935.3364 934.8563 934.4875 933.9987 933.4235 932.9796 932.5584 932.1727 931.5817 930.8493 930.059 929.1714 928.206 927.332 926.6133 926.0992 925.5566 924.9732 924.3789 923.92 923.4582 923.1364 922.7272 922.3838 921.9367 921.6059 921.1942 920.9822 920.8381 920.7519 920.6323 920.382 920.2241 919.9495 919.7333 919.5007 919.2996 919.1255 918.9833 918.7914 918.7289 918.5162 918.3404 918.1086 917.8866 917.6788 917.5223 917.4009 917.3059 917.24 917.2103 917.2238 917.2411 917.2505 917.2399 917.1965 917.1259 917.0333 916.9524 916.9024 916.8687 916.8292 916.77 916.7043 916.6422 916.5905 916.5509 916.529 916.52 916.5176 916.5212 916.533 916.5503 916.589 916.6575 916.7049 916.6876 916.6792 916.7062 916.7426 916.768 916.8146 916.8878 916.9694 917.011 917.0737 917.2357 917.4766 917.8036 918.2197 918.6832 919.0464 919.464 920.0344 920.8187 921.8672 922.925 923.8876 924.817 925.7498 926.7534 927.9315 929.2708 930.5692 931.8827 933.1293 934.194 934.8648 935.1512 935.3195 935.6622 936.325 937.2966 938.5123 939.9617 941.9778 944.6106 947.9941 951.9828 956.2239 960.2005 -9999 -9999 -9999 -9999 -9999 -9999 -9999 -9999 -9999 -9999 -9999 -9999 -9999 -9999 -9999 -9999 -9999 -9999 -9999 -9999 -9999 -9999 -9999 -9999 -9999 -9999 -9999 -9999 -9999 -9999 -9999 -9999 -9999 -9999 -9999 -9999 -9999 -9999 -9999 -9999 -9999 -9999 -9999 -9999 -9999 -9999 -9999 -9999 -9999 -9999 -9999 -9999 -9999 -9999 -9999 -9999 -9999 -9999 -9999 -9999 -9999 -9999 -9999 -9999 -9999 -9999 -9999 -9999 -9999 -9999
-9999 -9999 -9999 -9999 -9999 -9999 -9999 -9999 -9999 -9999 -9999 -9999 -9999 -9999 -9999 -9999 -9999 -9999 -9999 -9999 -9999 -9999 -9999 -9999 -9999 -9999 -9999 -9999 -9999 -9999 -9999 -9999 -9999 -9999 -9999 -9999 -9999 -9999 -9999 -9999 -9999 -9999 -9999 -9999 -9999 -9999 -9999 -9999 -9999 -9999 -9999 -9999 -9999 -9999 -9999 -9999 -9999 -9999 950.7296 948.991 947.6004 946.5616 945.8231 945.1727 944.4279 943.4753 942.1978 940.6768 939.171 937.8501 936.5758 935.8837 935.5969 935.5995 935.8394 936.3514 936.9993 937.5829 937.9822 938.2745 938.5173 938.4962 938.303 937.8674 937.4944 937.3855 937.1569 936.3306 935.728 935.4828 934.8421 934.1588 933.6793 933.3333 933.0046 932.496 931.8206 931.0616 930.2097 929.3046 928.3649 927.6372 927.0428 926.465 925.9272 925.2424 924.7509 924.2457 923.8264 923.4285 923.1406 922.6824 922.2732 921.8924 921.6766 921.4116 921.282 921.1821 920.9928 920.7256 920.4021 920.2203 919.9348 919.7462 919.5902 919.3823 919.1841 919.0366 918.8104 918.7101 918.4591 918.2502 918.0064 917.7981 917.611 917.4508 917.3219 917.2405 917.2399 917.24 917.2399 917.2156 917.183 917.1246 917.0376 916.9602 916.921 916.8927 916.8489 916.7756 916.7012 916.6284 916.5639 916.5089 916.4766 916.4596 916.4556 916.4622 916.4789 916.4973 916.5273 916.5889 916.6564 916.667 916.6464 916.6516 916.6657 916.6854 916.7302 916.8036 916.8676 916.9048 916.9808 917.1337 917.3841 917.6813 918.0355 918.4204 918.7542 919.0929 919.5704 920.2185 921.0365 921.9614 922.9557 923.9015 924.8361 925.782 926.8099 928.017 929.3315 930.6592 932.01 933.2838 934.391 935.0793 935.4886 935.9032 936.5468 937.5035 938.766 940.13 941.0456 942.8512 946.0734 950.177 954.6304 958.8871 962.5024 -9999 -9999 -9999 -9999 -9999 -9999 -9999 -9999 -9999 -9999 -9999 -9999 -9999 -9999 -9999 -9999 -9999 -9999 -9999 -9999 -9999 -9999 -9999 -9999 -9999 -9999 -9999 -9999 -9999 -9999 -9999 -9999 -9999 -9999 -9999 -9999 -9999 -9999 -9999 -9999 -9999 -9999 -9999 -9999 -9999 -9999 -9999 -9999 -9999 -9999 -9999 -9999 -9999 -9999 -9999 -9999 -9999 -9999 -9999 -9999 -9999 -9999 -9999 -9999 -9999 -9999 -9999 -9999 -9999
-9999 -9999 -9999 -9999 -9999 -9999 -9999 -9999 -9999 -9999 -9999 -9999 -9999 -9999 -9999 -9999 -9999 -9999 -9999 -9999 -9999 -9999 -9999 -9999 -9999 -9999 -9999 -9999 -9999 -9999 -9999 -9999 -9999 -9999 -9999 -9999 -9999 -9999 -9999 -9999 -9999 -9999 -9999 -9999 -9999 -9999 -9999 -9999 -9999 -9999 -9999 -9999 -9999 -9999 -9999 -9999 -9999 -9999 -9999 951.485 950.2604 949.4141 948.8269 948.2288 947.4747 946.4698 945.0972 943.3546 941.533 939.9019 938.5566 937.7805 937.5109 937.6916 938.1689 938.9295 939.8113 940.561 940.9778 941.2109 941.4311 941.5834 941.5853 941.2336 940.5513 939.6916 938.663 937.4839 936.7145 936.6601 935.7993 934.9819 934.5084 934.2263 933.9567 933.5065 932.8378 932.1319 931.2791 930.4727 929.5573 928.7617 928.0598 927.3771 926.7757 926.1752 925.5947 925.0324 924.5178 924.1029 923.7411 923.3171 922.8892 922.5454 922.2288 921.9172 921.8168 921.7828 921.6719 921.3523 921.0719 920.8258 920.4581 920.3054 920.1797 919.8916 919.6897 919.5244 919.2844 919.0896 918.8321 918.6848 918.3976 918.171 917.9282 917.7078 917.5101 917.3624 917.2815 917.2285 917.1915 917.1647 917.1553 917.1318 917.0725 917.0135 917.0007 916.9792 916.9182 916.8307 916.7347 916.6389 916.5502 916.4781 916.4362 916.4125 916.4037 916.4113 916.4346 916.4628 916.4897 916.5419 916.6151 916.6626 916.6552 916.6461 916.6512 916.6591 916.6949 916.7582 916.7911 916.8324 916.9177 917.0752 917.3008 917.586 917.8946 918.2142 918.5149 918.8053 919.2172 919.7223 920.3484 921.115 921.9987 922.9694 923.913 924.8512 925.796 926.8243 928.0374 929.4047 930.8346 932.306 933.6743 934.7124 935.4095 935.9324 936.5306 937.366 938.4613 939.1715 939.73 941.0034 943.9514 947.9713 952.487 956.9312 960.8301 963.9172 -9999 -9999 -9999 -9999 -9999 -9999 -9999 -9999 -9999 -9999 -9999 -9999 -9999 -9999 -9999 -9999 -9999 -9999 -9999 -9999 -9999 -9999 -9999 -9999 -9999 -9999 -9999 -9999 -9999 -9999 -9999 -9999 -9999 -9999 -9999 -9999 -9999 -9999 -9999 -9999 -9999 -9999 -9999 -9999 -9999 -9999 -9999 -9999 -9999 -9999 -9999 -9999 -9999 -9999 -9999 -9999 -9999 -9999 -9999 -9999 -9999 -9999 -9999 -9999 -9999 -9999 -9999 -9999
-9999 -9999 -9999 -9999 -9999 -9999 -9999 -9999 -9999 -9999 -9999 -9999 -9999 -9999 -9999 -9999 -9999 -9999 -9999 -9999 -9999 -9999 -9999 -9999 -9999 -9999 -9999 -9999 -9999 -9999 -9999 -9999 -9999 -9999 -9999 -9999 -9999 -9999 -9999 -9999 -9999 -9999 -9999 -9999 -9999 -9999 -9999 -9999 -9999 -9999 -9999 -9999 -9999 -9999 -9999 -9999 -9999 -9999 -9999 -9999 -9999 -9999 951.4771 950.8369 950.032 949.0421 947.6817 945.8763 943.9254 942.1744 940.8007 939.9573 939.6434 939.8754 940.4573 941.4243 942.6187 943.6318 944.217 944.5961 944.9728 945.3301 945.5266 945.2642 944.3673 942.986 941.397 939.8564 938.6938 937.95 937.0179 936.1387 935.6903 935.4186 935.1635 934.7158 933.9816 933.1531 932.3158 931.5126 930.7119 929.9374 929.2043 928.3359 927.6144 927.0239 926.4634 925.9478 925.2712 924.8024 924.3566 923.9426 923.4835 923.1973 922.8379 922.5595 922.3787 922.2861 922.1637 921.9189 921.7749 921.5991 921.2298 921.0241 920.8142 920.4535 920.2916 920.1642 919.8842 919.6571 919.4041 919.142 918.8456 918.6749 918.3873 918.1233 917.8442 917.6078 917.4263 917.2911 917.1924 917.1385 917.1416 917.1659 917.1486 917.1097 917.1405 917.1169 917.0466 916.9364 916.805 916.6742 916.5527 916.4536 916.3947 916.3735 916.3633 916.373 916.4048 916.4475 916.4832 916.524 916.5931 916.66 916.6857 916.681 916.6788 916.6865 916.7024 916.7289 916.7502 916.7979 916.8906 917.0446 917.2608 917.5183 917.8007 918.0936 918.3994 918.7263 918.9944 919.3568 919.8582 920.4729 921.2303 922.0605 923.0117 923.9539 924.8678 925.7977 926.8461 928.1267 929.6044 931.1609 932.6746 933.9615 934.9326 935.5859 936.08 936.603 937.3209 937.8497 938.3948 939.5245 941.8842 945.5491 949.9137 954.3752 958.4355 961.7435 -9999 -9999 -9999 -9999 -9999 -9999 -9999 -9999 -9999 -9999 -9999 -9999 -9999 -9999 -9999 -9999 -9999 -9999 -9999 -9999 -9999 -9999 -9999 -9999 -9999 -9999 -9999 -9999 -9999 -9999 -9999 -9999 -9999 -9999 -9999 -9999 -9999 -9999 -9999 -9999 -9999 -9999 -9999 -9999 -9999 -9999 -9999 -9999 -9999 -9999 -9999 -9999 -9999 -9999 -9999 -9999 -9999 -9999 -9999 -9999 -9999 -9999 -9999 -9999 -9999 -9999 -9999 -9999
-9999 -9999 -9999 -9999 -9999 -9999 -9999 -9999 -9999 -9999 -9999 -9999 -9999 -9999 -9999 -9999 -9999 -9999 -9999 -9999 -9999 -9999 -9999 -9999 -9999 -9999 -9999 -9999 -9999 -9999 -9999 -9999 -9999 -9999 -9999 -9999 -9999 -9999 -9999 -9999 -9999 -9999 -9999 -9999 -9999 -9999 -9999 -9999 -9999 -9999 -9999 -9999 -9999 -9999 -9999 -9999 -9999 -9999 -9999 -9999 -9999 -9999 -9999 -9999 952.161 951.2139 949.8853 948.0778 946.055 944.2188 942.8067 941.913 941.5275 941.5969 942.0468 943.0698 944.506 945.8316 946.7149 947.514 948.2877 949.0014 949.4713 949.3313 948.3561 946.7189 944.8171 943.0159 941.5663 940.4509 939.4033 938.3835 937.5838 937.0529 936.6395 936.0259 935.0283 934.0385 933.1473 932.3694 931.6431 930.9826 930.3556 929.4484 928.5505 927.9414 927.3502 926.8068 926.1777 925.5659 925.0293 924.6687 924.1777 923.7839 923.4274 923.2137 922.937 922.8046 922.7179 922.5685 922.3851 922.1882 921.9235 921.8015 921.6241 921.2367 921.0209 920.8584 920.5914 920.4129 920.1616 919.8108 919.5399 919.3447 919.0502 918.7803 918.3887 918.0515 917.7495 917.504 917.3057 917.1772 917.1547 917.2213 917.2398 917.2043 917.2881 917.3044 917.2356 917.0942 916.9125 916.7294 916.5657 916.4335 916.3529 916.3259 916.33 916.3497 916.3941 916.4547 916.5098 916.5494 916.6024 916.6713 916.7213 916.7394 916.7454 916.756 916.7715 916.7853 916.7903 916.8281 916.9117 917.0541 917.2534 917.4901 917.7426 918.0034 918.2669 918.5278 918.7576 919.0576 919.5429 920.1517 920.7354 921.4095 922.1914 923.1313 924.0131 924.894 925.8629 927.0181 928.4278 929.9968 931.5523 932.9225 934.0621 934.8883 935.376 935.7249 936.1481 936.5908 937.1688 938.1748 939.9633 943.1089 947.1113 951.3978 955.4856 958.9888 961.5655 962.9894 -9999 -9999 -9999 -9999 -9999 -9999 -9999 -9999 -9999 -9999 -9999 -9999 -9999 -9999 -9999 -9999 -9999 -9999 -9999 -9999 -9999 -9999 -9999 -9999 -9999 -9999 -9999 -9999 -9999 -9999 -9999 -9999 -9999 -9999 -9999 -9999 -9999 -9999 -9999 -9999 -9999 -9999 -9999 -9999 -9999 -9999 -9999 -9999 -9999 -9999 -9999 -9999 -9999 -9999 -9999 -9999 -9999 -9999 -9999 -9999 -9999 -9999 -9999 -9999 -9999 -9999
-9999 -9999 -9999 -9999 -9999 -9999 -9999 -9999 -9999 -9999 -9999 -9999 -9999 -9999 -9999 -9999 -9999 -9999 -9999 -9999 -9999 -9999 -9999 -9999 -9999 -9999 -9999 -9999 -9999 -9999 -9999 -9999 -9999 -9999 -9999 -9999 -9999 -9999 -9999 -9999 -9999 -9999 -9999 -9999 -9999 -9999 -9999 -9999 -9999 -9999 -9999 -9999 -9999 -9999 -9999 -9999 -9999 -9999 -9999 -9999 -9999 -9999 -9999 -9999 -9999 -9999 951.8802 950.0731 948.0408 946.1378 944.628 943.6332 943.0645 942.7142 942.7892 943.5538 945.0198 946.67 948.1617 949.5778 950.9608 952.2098 953.0525 953.0845 952.1254 950.4124 948.3721 946.4152 944.8071 943.543 942.448 941.3255 940.1841 939.1151 938.2863 937.1304 935.9371 934.8257 933.8593 933.0621 932.405 931.8351 931.3131 930.5742 929.7015 929.0227 928.2815 927.6647 927.0006 926.3519 925.7854 925.369 924.8686 924.4282 924.1061 923.8451 923.4918 923.3694 923.3283 923.2186 922.9554 922.78 922.6487 922.5654 922.3735 921.988 921.8157 921.7381 921.6207 921.4453 921.061 920.6707 920.4818 920.3607 920.1605 919.8052 919.2141 918.7877 918.3364 917.9568 917.6092 917.3314 917.1896 917.2394 917.1963 917.2408 917.4736 917.5564 917.4916 917.3056 917.0537 916.7979 916.5815 916.4152 916.3177 916.291 916.3049 916.3459 916.4104 916.4891 916.5657 916.6205 916.6597 916.7122 916.7655 916.8011 916.8274 916.8535 916.8849 916.9084 916.9225 916.939 917.0009 917.1157 917.2842 917.4922 917.7154 917.9398 918.1609 918.3686 918.5596 918.7993 919.2695 919.8265 920.3698 920.9869 921.6833 922.4335 923.2297 924.0601 924.9962 926.1418 927.4752 928.9244 930.4133 931.79 932.9566 933.9117 934.5102 934.8361 935.1387 935.5616 936.1938 937.171 938.5887 940.9499 944.3662 948.2556 952.1996 955.8085 958.6795 960.5024 961.1985 -9999 -9999 -9999 -9999 -9999 -9999 -9999 -9999 -9999 -9999 -9999 -9999 -9999 -9999 -9999 -9999 -9999 -9999 -9999 -9999 -9999 -9999 -9999 -9999 -9999 -9999 -9999 -9999 -9999 -9999 -9999 -9999 -9999 -9999 -9999 -9999 -9999 -9999 -9999 -9999 -9999 -9999 -9999 -9999 -9999 -9999 -9999 -9999 -9999 -9999 -9999 -9999 -9999 -9999 -9999 -9999 -9999 -9999 -9999 -9999 -9999 -9999 -9999 -9999 -9999
-9999 -9999 -9999 -9999 -9999 -9999 -9999 -9999 -9999 -9999 -9999 -9999 -9999 -9999 -9999 -9999 -9999 -9999 -9999 -9999 -9999 -9999 -9999 -9999 -9999 -9999 -9999 -9999 -9999 -9999 -9999 -9999 -9999 -9999 -9999 -9999 -9999 -9999 -9999 -9999 -9999 -9999 -9999 -9999 -9999 -9999 -9999 -9999 -9999 -9999 -9999 -9999 -9999 -9999 -9999 -9999 -9999 -9999 -9999 -9999 -9999 -9999 -9999 -9999 -9999 -9999 -9999 -9999 950.2006 948.2291 946.5538 945.3047 944.3701 -9999 -9999 -9999 -9999 -9999 -9999 -9999 953.0529 954.9194 956.1653 956.3865 955.4909 953.7927 951.7281 949.7107 948.0352 946.7352 945.6665 944.5677 943.2515 941.7221 940.1138 938.4471 937.0316 935.7511 934.6476 933.7761 933.1045 932.5806 932.1753 931.5271 930.7761 930.0501 929.3036 928.4844 927.8198 927.1486 926.5561 926.1548 925.6229 925.1509 924.8745 924.6473 924.2705 924.0957 923.985 923.7546 923.4453 923.3314 923.3003 923.2798 923.1483 922.7859 922.6057 922.5435 922.4806 922.3431 922.0676 921.8625 921.7404 921.5947 921.3652 920.9181 920.3984 919.9268 919.2811 918.7673 918.2234 917.7186 917.3007 917.1439 917.0923 917.2312 917.5275 917.8242 917.8087 917.5707 917.2264 916.8776 916.5933 916.394 916.2898 916.28 916.3127 916.3807 916.4669 916.5599 916.6496 916.7206 916.7641 916.7958 916.8351 916.8699 916.9 916.9415 916.9948 917.047 917.082 917.1097 917.1471 917.2263 917.3569 917.5265 917.7147 917.9078 918.1022 918.2959 918.5007 918.7584 919.1237 919.6265 920.1858 920.6658 921.2158 921.8126 922.4841 923.2506 924.123 925.1559 926.3884 927.7345 929.1533 930.5702 931.8036 932.811 933.5605 933.9907 934.3424 934.7925 935.4277 936.2783 937.5442 939.3942 941.9891 945.2427 948.8342 952.3975 955.4899 957.7245 958.8433 958.7617 958.043 -9999 -9999 -9999 -9999 -9999 -9999 -9999 -9999 -9999 -9999 -9999 -9999 -9999 -9999 -9999 -9999 -9999 -9999 -9999 -9999 -9999 -9999 -9999 -9999 -9999 -9999 -9999 -9999 -9999 -9999 -9999 -9999 -9999 -9999 -9999 -9999 -9999 -9999 -9999 -9999 -9999 -9999 -9999 -9999 -9999 -9999 -9999 -9999 -9999 -9999 -9999 -9999 -9999 -9999 -9999 -9999 -9999 -9999 -9999 -9999 -9999 -9999 -9999
-9999 -9999 -9999 -9999 -9999 -9999 -9999 -9999 -9999 -9999 -9999 -9999 -9999 -9999 -9999 -9999 -9999 -9999 -9999 -9999 -9999 -9999 -9999 -9999 -9999 -9999 -9999 -9999 -9999 -9999 -9999 -9999 -9999 -9999 -9999 -9999 -9999 -9999 -9999 -9999 -9999 -9999 -9999 -9999 -9999 -9999 -9999 -9999 -9999 -9999 -9999 -9999 -9999 -9999 -9999 -9999 -9999 -9999 -9999 -9999 -9999 -9999 -9999 -9999 -9999 -9999 -9999 -9999 -9999 -9999 -9999 -9999 -9999 -9999 -9999 -9999 -9999 -9999 -9999 -9999 -9999 -9999 -9999 -9999 -9999 -9999 954.7623 952.7789 951.116 949.8398 948.8447 947.8735 946.5803 944.8615 942.8445 940.73 938.7964 937.1412 935.7567 934.7367 933.979 933.402 932.9222 932.3472 931.6643 931.0043 930.3795 929.5402 928.7715 928.0678 927.438 926.9655 926.4698 926.0896 925.7046 925.3925 925.0096 924.8506 924.7181 924.3876 924.0891 923.8925 923.8051 923.7609 923.6508 923.4185 923.3305 923.3152 923.3074 923.2688 923.1755 923.0833 922.947 922.6678 922.4007 922.0646 921.7544 921.3636 920.7096 920.0709 919.3137 918.6049 917.9376 917.4285 917.187 917.265 917.6729 918.1417 918.2031 917.8862 917.4214 916.9658 916.6051 916.3705 916.2629 916.2777 916.3585 916.4666 916.577 916.6774 916.7654 916.8383 916.8889 916.9157 916.9365 916.9586 916.9808 917.0135 917.0696 917.1416 917.2084 917.2589 917.3054 917.3653 917.4585 917.5894 917.744 917.9058 918.0772 918.2651 918.4797 918.7416 918.9811 919.4081 919.909 920.3477 920.8249 921.3105 921.8483 922.5074 923.2977 924.2064 925.2692 926.5007 927.8363 929.2421 930.6022 931.7288 932.6139 933.2363 933.7208 934.2513 934.9351 935.7274 936.8116 938.2285 940.1392 942.6011 945.651 948.9803 952.1485 954.7267 956.3189 956.7057 956.3008 955.9606 -9999 -9999 -9999 -9999 -9999 -9999 -9999 -9999 -9999 -9999 -9999 -9999 -9999 -9999 -9999 -9999 -9999 -9999 -9999 -9999 -9999 -9999 -9999 -9999 -9999 -9999 -9999 -9999 -9999 -9999 -9999 -9999 -9999 -9999 -9999 -9999 -9999 -9999 -9999 -9999 -9999 -9999 -9999 -9999 -9999 -9999 -9999 -9999 -9999 -9999 -9999 -9999 -9999 -9999 -9999 -9999 -9999 -9999 -9999 -9999 -9999 -9999
-9999 -9999 -9999 -9999 -9999 -9999 -9999 -9999 -9999 -9999 -9999 -9999 -9999 -9999 -9999 -9999 -9999 -9999 -9999 -9999 -9999 -9999 -9999 -9999 -9999 -9999 -9999 -9999 -9999 -9999 -9999 -9999 -9999 -9999 -9999 -9999 -9999 -9999 -9999 -9999 -9999 -9999 -9999 -9999 -9999 -9999 -9999 -9999 -9999 -9999 -9999 -9999 -9999 -9999 -9999 -9999 -9999 -9999 -9999 -9999 -9999 -9999 -9999 -9999 -9999 -9999 -9999 -9999 -9999 -9999 -9999 -9999 -9999 -9999 -9999 -9999 -9999 -9999 -9999 -9999 -9999 -9999 -9999 -9999 -9999 -9999 -9999 -9999 -9999 952.8053 951.884 951.0684 949.9296 948.2521 946.1456 943.8047 941.4425 939.2679 937.4481 936.1769 935.2327 934.4879 933.8433 933.1913 932.5087 931.8718 931.297 930.593 929.8141 929.174 928.4356 927.9074 927.3572 926.9178 926.4938 926.1945 925.8044 925.5972 925.3925 925.0138 924.7565 924.4653 924.3101 924.26 924.2248 924.1418 924.106 924.1038 924.1097 924.1076 924.0839 924.0298 923.8987 923.6562 923.5016 923.3685 923.2337 922.9809 922.4676 921.8111 920.999 920.1036 919.2256 918.4679 917.847 917.7887 918.1152 918.6086 918.7136 918.2269 917.6039 917.0472 916.6271 916.3668 916.256 916.3328 916.4707 916.6182 916.7457 916.8441 916.9159 916.9698 917.0128 917.0397 917.0538 917.0648 917.0731 917.0908 917.1293 917.1941 917.2728 917.3477 917.4138 917.4807 917.561 917.6659 917.7909 917.9272 918.0729 918.2338 918.4119 918.5973 918.7887 919.2173 919.7233 920.213 920.5667 920.9672 921.4189 921.949 922.6244 923.3826 924.2975 925.3778 926.5969 927.9105 929.2906 930.595 931.6586 932.481 933.1196 933.7393 934.4434 935.2452 936.2276 937.3042 938.7054 940.5407 942.8961 945.7805 948.8006 951.5746 953.6146 954.6031 954.7739 954.7748 -9999 -9999 -9999 -9999 -9999 -9999 -9999 -9999 -9999 -9999 -9999 -9999 -9999 -9999 -9999 -9999 -9999 -9999 -9999 -9999 -9999 -9999 -9999 -9999 -9999 -9999 -9999 -9999 -9999 -9999 -9999 -9999 -9999 -9999 -9999 -9999 -9999 -9999 -9999 -9999 -9999 -9999 -9999 -9999 -9999 -9999 -9999 -9999 -9999 -9999 -9999 -9999 -9999 -9999 -9999 -9999 -9999 -9999 -9999 -9999 -9999 -9999
-9999 -9999 -9999 -9999 -9999 -9999 -9999 -9999 -9999 -9999 -9999 -9999 -9999 -9999 -9999 -9999 -9999 -9999 -9999 -9999 -9999 -9999 -9999 -9999 -9999 -9999 -9999 -9999 -9999 -9999 -9999 -9999 -9999 -9999 -9999 -9999 -9999 -9999 -9999 -9999 -9999 -9999 -9999 -9999 -9999 -9999 -9999 -9999 -9999 -9999 -9999 -9999 -9999 -9999 -9999 -9999 -9999 -9999 -9999 -9999 -9999 -9999 -9999 -9999 -9999 -9999 -9999 -9999 -9999 -9999 -9999 -9999 -9999 -9999 -9999 -9999 -9999 -9999 -9999 -9999 -9999 -9999 -9999 -9999 -9999 -9999 -9999 -9999 -9999 -9999 -9999 953.9982 953.0602 951.596 949.6359 947.3274 944.8401 942.3787 940.1642 938.388 937.0776 936.0385 935.1423 934.3176 933.5278 932.803 932.2277 931.5552 930.9064 930.36 929.6256 929.0025 928.2924 927.7896 927.3082 926.9307 926.5382 926.3625 926.1754 925.7673 925.4471 925.1054 924.9255 924.91 924.9841 925.0142 925.0215 925.0234 925.0262 925.0376 925.0549 925.0486 924.9992 924.9048 924.8493 924.8197 924.7834 924.6609 924.3464 923.8087 923.0656 922.1567 921.1431 920.1492 919.2687 918.8387 918.8818 919.3038 919.2132 918.4893 917.7241 917.1034 916.675 916.4419 916.3909 916.4999 916.6695 916.8323 916.9564 917.0383 917.0841 917.108 917.1279 917.144 917.1565 917.1636 917.1665 917.1681 917.1862 917.2288 917.2961 917.3771 917.4591 917.5405 917.6272 917.7257 917.8387 917.9603 918.0874 918.2269 918.3798 918.548 918.759 919.1182 919.5579 919.989 920.3248 920.7229 921.1671 921.6927 922.1783 922.7487 923.488 924.4741 925.5425 926.6887 927.9686 929.3159 930.5793 931.6082 932.4327 933.1476 933.8772 934.6594 935.5244 936.439 937.5232 938.9045 940.7034 942.9713 945.616 948.377 950.7459 952.3262 953.111 953.5511 954.2241 -9999 -9999 -9999 -9999 -9999 -9999 -9999 -9999 -9999 -9999 -9999 -9999 -9999 -9999 -9999 -9999 -9999 -9999 -9999 -9999 -9999 -9999 -9999 -9999 -9999 -9999 -9999 -9999 -9999 -9999 -9999 -9999 -9999 -9999 -9999 -9999 -9999 -9999 -9999 -9999 -9999 -9999 -9999 -9999 -9999 -9999 -9999 -9999 -9999 -9999 -9999 -9999 -9999 -9999 -9999 -9999 -9999 -9999 -9999 -9999 -9999
-9999 -9999 -9999 -9999 -9999 -9999 -9999 -9999 -9999 -9999 -9999 -9999 -9999 -9999 -9999 -9999 -9999 -9999 -9999 -9999 -9999 -9999 -9999 -9999 -9999 -9999 -9999 -9999 -9999 -9999 -9999 -9999 -9999 -9999 -9999 -9999 -9999 -9999 -9999 -9999 -9999 -9999 -9999 -9999 -9999 -9999 -9999 -9999 -9999 -9999 -9999 -9999 -9999 -9999 -9999 -9999 -9999 -9999 -9999 -9999 -9999 -9999 -9999 -9999 -9999 -9999 -9999 -9999 -9999 -9999 -9999 -9999 -9999 -9999 -9999 -9999 -9999 -9999 -9999 -9999 -9999 -9999 -9999 -9999 -9999 -9999 -9999 -9999 -9999 -9999 -9999 -9999 955.8636 954.7034 953.0524 950.9824 948.6226 946.1392 943.718 941.5205 939.6711 938.2007 936.9442 935.876 934.9032 934.0151 933.2404 932.4935 931.8439 931.3199 930.6931 930.0031 929.3029 928.6947 928.1612 927.7671 927.3696 927.1462 926.903 926.5225 926.2939 926.0623 925.8089 925.8093 926.0313 926.1417 926.1785 926.1858 926.1937 926.2339 926.3137 926.3544 926.3604 926.3387 926.3353 926.3604 926.3837 926.3548 926.1979 925.8412 925.2355 924.396 923.3645 922.2266 921.1308 920.2621 919.8124 920.0576 919.4342 918.5709 917.7709 917.1535 916.7539 916.5715 916.5812 916.728 916.9158 917.0668 917.1555 917.2028 917.22 917.2186 917.2252 917.2222 917.2258 917.2306 917.2321 917.2306 917.2317 917.2513 917.296 917.3666 917.4518 917.5439 917.6427 917.7505 917.8674 917.9904 918.1169 918.2485 918.3917 918.553 918.7593 919.0632 919.4475 919.8564 920.2407 920.5348 920.8903 921.3303 921.7726 922.2278 922.8078 923.5938 924.5859 925.6284 926.7432 927.9996 929.316 930.5391 931.5319 932.3691 933.1609 933.9337 934.7568 935.5894 936.4772 937.5355 938.9094 940.7056 942.9082 945.343 947.7838 949.8284 951.2305 952.1967 953.1802 954.4736 -9999 -9999 -9999 -9999 -9999 -9999 -9999 -9999 -9999 -9999 -9999 -9999 -9999 -9999 -9999 -9999 -9999 -9999 -9999 -9999 -9999 -9999 -9999 -9999 -9999 -9999 -9999 -9999 -9999 -9999 -9999 -9999 -9999 -9999 -9999 -9999 -9999 -9999 -9999 -9999 -9999 -9999 -9999 -9999 -9999 -9999 -9999 -9999 -9999 -9999 -9999 -9999 -9999 -9999 -9999 -9999 -9999 -9999 -9999 -9999
-9999 -9999 -9999 -9999 -9999 -9999 -9999 -9999 -9999 -9999 -9999 -9999 -9999 -9999 -9999 -9999 -9999 -9999 -9999 -9999 -9999 -9999 -9999 -9999 -9999 -9999 -9999 -9999 -9999 -9999 -9999 -9999 -9999 -9999 -9999 -9999 -9999 -9999 -9999 -9999 -9999 -9999 -9999 -9999 -9999 -9999 -9999 -9999 -9999 -9999 -9999 -9999 -9999 -9999 -9999 -9999 -9999 -9999 -9999 -9999 -9999 -9999 -9999 -9999 -9999 -9999 -9999 -9999 -9999 -9999 -9999 -9999 -9999 -9999 -9999 -9999 -9999 -9999 -9999 -9999 -9999 -9999 -9999 -9999 -9999 -9999 -9999 -9999 -9999 -9999 -9999 -9999 -9999 957.5842 956.3019 954.5727 952.4841 950.171 947.7601 945.3605 943.1146 941.0921 939.3551 937.9589 936.7179 935.5652 934.5118 933.562 932.7679 932.2091 931.5635 930.8911 930.2301 929.644 929.15 928.6439 928.2303 928.0209 927.7548 927.3679 927.1349 926.9365 926.6997 926.6786 926.8887 927.034 927.1132 927.147 927.1802 927.2911 927.5236 927.6677 927.7774 927.8362 927.9101 928.0337 928.1447 928.1982 928.1328 927.8829 927.4015 926.6284 925.6025 924.4193 923.2451 922.0881 921.0338 920.1808 919.493 918.6588 917.8893 917.2895 916.9091 916.7567 916.8011 916.9678 917.1454 917.2393 917.2397 917.2388 917.2393 917.2401 917.2746 917.2649 917.2565 917.2562 917.2557 917.2549 917.2535 917.2568 917.2767 917.3326 917.4114 917.5048 917.6134 917.7362 917.8696 918.0089 918.1497 918.2911 918.4359 918.5861 918.7594 919.0206 919.3476 919.698 920.0234 920.2829 920.5758 920.9595 921.3677 921.7901 922.2726 922.9231 923.7318 924.7159 925.7045 926.7803 928.0004 929.2602 930.39 931.2852 932.1905 932.9941 933.8647 934.6857 935.4579 936.2883 937.323 938.7142 940.4982 942.5738 944.8052 947.1248 949.147 950.7554 952.1703 953.5998 955.3006 -9999 -9999 -9999 -9999 -9999 -9999 -9999 -9999 -9999 -9999 -9999 -9999 -9999 -9999 -9999 -9999 -9999 -9999 -9999 -9999 -9999 -9999 -9999 -9999 -9999 -9999 -9999 -9999 -9999 -9999 -9999 -9999 -9999 -9999 -9999 -9999 -9999 -9999 -9999 -9999 -9999 -9999 -9999 -9999 -9999 -9999 -9999 -9999 -9999 -9999 -9999 -9999 -9999 -9999 -9999 -9999 -9999 -9999 -9999
-9999 -9999 -9999 -9999 -9999 -9999 -9999 -9999 -9999 -9999 -9999 -9999 -9999 -9999 -9999 -9999 -9999 -9999 -9999 -9999 -9999 -9999 -9999 -9999 -9999 -9999 -9999 -9999 -9999 -9999 -9999 -9999 -9999 -9999 -9999 -9999 -9999 -9999 -9999 -9999 -9999 -9999 -9999 -9999 -9999 -9999 -9999 -9999 -9999 -9999 -9999 -9999 -9999 -9999 -9999 -9999 -9999 -9999 -9999 -9999 -9999 -9999 -9999 -9999 -9999 -9999 -9999 -9999 -9999 -9999 -9999 -9999 -9999 -9999 -9999 -9999 -9999 -9999 -9999 -9999 -9999 -9999 -9999 -9999 -9999 -9999 -9999 -9999 -9999 -9999 -9999 -9999 -9999 -9999 -9999 958.0616 956.2609 954.2048 951.9611 949.5764 947.1574 944.7862 942.5839 940.7025 939.0651 937.5419 936.1363 934.8983 933.8768 933.101 932.403 931.7414 931.1547 930.6461 930.071 929.5557 929.2612 929.0386 928.634 928.2444 928.0895 928.0045 927.8824 927.7963 927.8422 927.9308 928.0471 928.1152 928.1437 928.2296 928.4871 928.7692 929.1202 929.3638 929.626 929.9834 930.2755 930.4518 930.4423 930.1848 929.6989 928.8931 927.7973 926.5479 925.3351 924.0547 922.7452 921.4632 920.3152 919.2363 918.3474 917.6595 917.212 917.0154 917.0317 917.1643 917.2715 917.2212 917.0328 916.9789 917.026 917.1213 917.2363 917.2401 917.24 917.24 917.24 917.24 917.24 917.24 917.2401 917.2861 917.3552 917.4431 917.5552 917.692 917.8469 918.0107 918.1778 918.3428 918.5033 918.6489 918.7652 918.9952 919.2708 919.5641 919.8416 920.0778 920.3094 920.6564 921.0417 921.447 921.8896 922.4789 923.1884 923.9763 924.8381 925.7759 926.8017 927.9371 929.0558 930.0049 930.9598 931.9031 932.8214 933.6635 934.3748 935.0669 935.843 936.8998 938.3231 940.0732 942.0763 944.3369 946.8542 949.1599 951.1231 952.8127 954.4416 -9999 -9999 -9999 -9999 -9999 -9999 -9999 -9999 -9999 -9999 -9999 -9999 -9999 -9999 -9999 -9999 -9999 -9999 -9999 -9999 -9999 -9999 -9999 -9999 -9999 -9999 -9999 -9999 -9999 -9999 -9999 -9999 -9999 -9999 -9999 -9999 -9999 -9999 -9999 -9999 -9999 -9999 -9999 -9999 -9999 -9999 -9999 -9999 -9999 -9999 -9999 -9999 -9999 -9999 -9999 -9999 -9999 -9999 -9999
